ply
format ascii 1.0
comment VCGLIB generated
element vertex 935
property float x
property float y
property float z
property float nx
property float ny
property float nz
element face 0
property list uchar int vertex_indices
end_header
-27.2188 160.595 -191.821 -0.822046 1.95979 -5.91093 
-23.7171 162.529 -191.546 -0.491923 2.06238 -5.91343 
-24.1341 158.47 -192.906 -0.602038 2.00216 -5.92395 
-21.5406 160.425 -192.471 -0.428284 2.05714 -5.91966 
-20.0672 157.624 -193.515 -0.370928 1.99666 -5.94516 
-17.2244 160.69 -192.611 -0.215807 2.12529 -5.90701 
-16.0172 157.407 -193.791 -0.213921 2.00649 -5.9494 
-13.1355 159.619 -193.108 -0.062056 2.13966 -5.90416 
-11.8378 156.906 -194.043 -0.061694 2.02829 -5.94604 
-8.94554 159.581 -193.099 0.062739 2.20771 -5.88078 
-7.96482 156.14 -194.33 0.049543 2.06455 -5.93277 
-4.41158 157.414 -193.809 0.164939 2.10684 -5.91598 
-3.79198 153.475 -195.136 0.236262 1.92191 -5.97515 
-0.717171 156.837 -193.862 0.300036 2.03724 -5.93538 
1.3733 155.053 -194.339 0.394863 1.93401 -5.96407 
2.20542 159.172 -192.882 0.376242 2.14582 -5.8917 
4.37288 156.732 -193.58 0.427492 1.98398 -5.94528 
5.97185 160.446 -192.149 0.446734 2.20163 -5.86612 
7.34188 156.594 -193.408 0.473325 1.97222 -5.9449 
9.51823 159.361 -192.24 0.571581 2.16611 -5.86892 
11.0535 156.157 -193.24 0.550335 2.02106 -5.92101 
13.5278 159.07 -191.893 0.811055 2.24959 -5.80728 
15.1724 156.344 -192.716 0.799562 2.21204 -5.82236 
17.7404 157.789 -191.691 0.96166 2.34994 -5.74709 
-30.0881 162.529 -190.746 -0.985606 1.93484 -5.89468 
-26.7979 156.384 -193.289 -0.822867 1.94938 -5.91396 
-26.4599 152.79 -194.459 -0.717292 1.98198 -5.91793 
-24.1572 151.132 -195.292 -0.566794 2.01185 -5.9246 
-24.0611 148.436 -196.255 -0.468 2.09539 -5.90395 
-20.959 151.271 -195.487 -0.399775 1.9412 -5.962 
-20.7619 147.473 -196.782 -0.268032 2.05601 -5.93052 
-17.47 150.915 -195.822 -0.285735 1.87508 -5.98962 
-17.2539 147.541 -196.852 -0.205366 1.965 -5.96183 
-14.2582 148.015 -196.823 -0.140309 1.88117 -5.99265 
-17.0967 144.579 -197.906 -0.125531 2.12201 -5.91223 
-14.0021 143.575 -198.296 -0.017849 2.08584 -5.92626 
-17.2294 140.922 -199.273 -0.010875 2.28225 -5.85355 
-20.425 143.885 -198.089 -0.161213 2.21729 -5.87627 
-23.202 154.826 -194.22 -0.557061 1.92343 -5.95251 
-19.416 154.473 -194.592 -0.354389 1.92027 -5.97139 
-15.734 154.518 -194.76 -0.220474 1.95478 -5.96638 
-13.9786 151.656 -195.749 -0.159506 1.86862 -5.99464 
-11.3504 153.807 -195.092 -0.081208 1.95563 -5.97 
-10.5785 150.077 -196.264 -0.053262 1.81725 -6.01419 
-7.91227 153.063 -195.376 0.034568 1.92836 -5.9771 
-6.64433 150.617 -196.113 0.131113 1.79791 -6.01693 
-4.52189 148.342 -196.692 0.237077 1.76836 -6.02442 
-1.86326 149.127 -196.352 0.339621 1.7587 -6.02135 
-6.54695 144.778 -197.83 0.215283 1.8636 -5.99635 
-8.20944 147.337 -197.09 0.063056 1.82448 -6.01156 
-10.4188 143.016 -198.49 0.076848 2.02201 -5.94791 
-11.4688 146.241 -197.398 -0.045037 1.92122 -5.98077 
-37.5902 174.928 -183.969 -1.72074 2.77753 -5.36019 
-32.6951 173.628 -186.006 -1.30986 2.60447 -5.55524 
-29.9472 171.664 -187.442 -1.02863 2.40482 -5.70431 
-26.9119 171.072 -188.147 -0.643053 2.36769 -5.77341 
-23.9453 168.643 -189.311 -0.344283 2.26037 -5.84922 
-24.3546 172.732 -187.642 -0.427396 2.47969 -5.75319 
-21.2425 170.34 -188.734 -0.18666 2.28791 -5.84852 
-20.6182 173.775 -187.451 -0.081013 2.53739 -5.72452 
-18.0546 171.393 -188.372 0.172812 2.41025 -5.79438 
-15.8091 174.199 -186.993 0.249053 2.55435 -5.73487 
-14.9697 170.625 -188.514 0.207396 2.49551 -5.76183 
-11.6892 174.021 -186.938 0.170029 2.54937 -5.7402 
-12.7481 170.386 -188.576 0.120096 2.53007 -5.74994 
-9.99663 170.259 -188.57 0.15549 2.54551 -5.74216 
-12.6541 166.507 -190.265 0.112529 2.50703 -5.76022 
-8.48629 167.335 -189.815 0.147633 2.54963 -5.74059 
-10.0197 163.252 -191.655 0.074183 2.428 -5.79327 
-7.26003 164.436 -191.109 0.113532 2.52858 -5.74875 
-5.36581 160.977 -192.492 0.111134 2.29097 -5.84894 
-3.33031 163.802 -191.314 0.169905 2.53046 -5.74369 
-1.28412 160.584 -192.562 0.248111 2.25323 -5.856 
0.102925 164.237 -190.973 0.249213 2.5457 -5.73639 
2.7187 162.681 -191.48 0.349344 2.36046 -5.8118 
3.62483 166.352 -189.883 0.237289 2.52578 -5.74635 
7.5251 163.95 -190.663 0.480896 2.35118 -5.80398 
7.2765 167.44 -189.206 0.386699 2.4096 -5.78965 
10.2308 166.911 -189.186 0.58288 2.32387 -5.80773 
9.68679 171.332 -187.472 0.399191 2.30115 -5.83218 
12.307 168.898 -188.181 0.602191 2.24587 -5.83691 
13.6526 172.181 -186.816 0.595858 2.21701 -5.84793 
15.7461 168.69 -187.89 0.726869 2.16843 -5.8514 
17.5099 171.578 -186.58 0.748833 2.18385 -5.84354 
19.6811 168.535 -187.419 0.822893 2.12627 -5.85445 
21.077 171.638 -186.081 0.881291 2.17708 -5.82663 
23.7016 169.404 -186.483 0.941369 2.15882 -5.82493 
23.5428 173.635 -184.913 0.917369 2.25194 -5.7932 
27.1093 169.407 -185.918 1.02784 2.15711 -5.81055 
26.8888 173.843 -184.342 1.00833 2.23592 -5.77891 
29.6019 171.789 -184.54 1.13339 2.16355 -5.78877 
30.5055 175.312 -183.042 1.1683 2.33913 -5.71101 
33.2554 173.392 -183.253 1.14324 2.29291 -5.73546 
33.0756 177.232 -181.654 1.21963 2.47609 -5.64427 
36.4328 174.703 -182.038 1.24291 2.41305 -5.66565 
37.5954 177.562 -180.518 1.25731 2.47067 -5.63842 
40.5321 175.175 -180.895 1.35851 2.41112 -5.6398 
41.6907 178.528 -179.143 1.43052 2.48686 -5.5889 
44.4637 175.909 -179.596 1.57569 2.41709 -5.57634 
45.2238 179.081 -177.906 1.65113 2.52782 -5.50951 
47.9464 177.618 -177.741 1.82682 2.49406 -5.46703 
49.6129 180.304 -175.923 2.01717 2.64797 -5.31884 
51.5548 177.244 -176.604 2.20121 2.41956 -5.35668 
53.4609 179.874 -174.517 2.43761 2.65189 -5.13432 
55.5037 176.79 -174.985 2.67352 2.34936 -5.16717 
54.1495 172.299 -177.507 2.55325 2.03049 -5.36252 
52.3896 169.432 -179.324 2.40517 1.84587 -5.49711 
-17.9414 167.606 -189.907 -0.028257 2.37933 -5.81218 
-21.673 165.938 -190.427 -0.277538 2.22968 -5.86715 
-19.4716 163.542 -191.477 -0.280765 2.21775 -5.86931 
-15.9511 164.476 -191.211 -0.020098 2.35232 -5.82239 
-13.2512 162.467 -192.008 0.003196 2.33623 -5.83083 
11.4964 161.74 -191.126 0.736601 2.29462 -5.7994 
16.1089 161.815 -190.361 0.921642 2.2366 -5.79831 
19.6045 159.704 -190.6 0.917699 2.27624 -5.7828 
22.5647 160.401 -189.89 0.842409 2.23301 -5.81171 
24.7413 162.629 -188.749 0.89251 2.1199 -5.84664 
27.8652 165.157 -187.352 1.02073 2.11651 -5.82666 
30.6251 167.325 -186.037 1.07797 2.16942 -5.79734 
34.7575 167.446 -185.219 1.11789 2.18098 -5.78537 
38.8748 168.674 -183.934 1.30068 2.17752 -5.74641 
42.7602 169.421 -182.704 1.55836 2.15191 -5.68802 
46.4307 170.324 -181.277 1.82508 2.08724 -5.6312 
49.2969 168.62 -180.842 2.13335 1.87552 -5.6014 
-35.6795 177.469 -183.181 -1.63407 2.94787 -5.30017 
-32.7619 175.882 -184.87 -1.35133 2.78985 -5.45792 
-32.7484 179.683 -182.815 -1.44038 3.02287 -5.31071 
-30.0564 178.163 -184.301 -1.09084 2.90874 -5.45248 
-30.2752 181.852 -182.144 -1.21989 3.07944 -5.33782 
-27.002 178.654 -184.551 -0.798811 2.85237 -5.53569 
-26.6915 182.165 -182.763 -0.969742 2.97097 -5.44099 
-24.2558 179.844 -184.269 -0.557046 2.79892 -5.59542 
-22.8375 182.913 -182.865 -0.536082 2.87358 -5.55729 
-21.2533 179.268 -184.771 -0.259524 2.69601 -5.6668 
-19.3505 182.298 -183.405 -0.188625 2.76474 -5.63384 
-17.7364 179.237 -184.849 0.065214 2.58667 -5.72273 
-15.1039 181.579 -183.739 0.168185 2.66067 -5.68494 
-14.6915 177.318 -185.56 0.21642 2.53263 -5.74588 
-11.6778 178.911 -184.744 0.174833 2.53309 -5.74665 
-8.74699 176.326 -185.834 0.13631 2.52821 -5.75042 
-7.33759 172.702 -187.38 0.184363 2.54966 -5.7395 
-4.20271 174.441 -186.533 0.146088 2.47074 -5.77508 
-2.54411 171.239 -187.861 0.204357 2.51111 -5.75568 
0.343695 173.582 -186.78 0.07043 2.37822 -5.81406 
0.848034 169.937 -188.302 0.166092 2.52256 -5.75121 
3.51971 170.244 -188.099 0.077985 2.46474 -5.77571 
6.60361 170.116 -188.123 0.211634 2.41041 -5.79794 
-5.76071 169.529 -188.767 0.21568 2.55259 -5.73679 
-4.09164 166.869 -189.863 0.210148 2.62191 -5.70531 
-19.1364 176.367 -186.158 0.062483 2.6535 -5.69237 
-23.6513 176.285 -186.063 -0.422425 2.70465 -5.65217 
-27.9057 175.011 -186.247 -0.804024 2.67686 -5.61885 
42.5282 235.031 15.9228 1.78345 5.64021 2.11402 
38.4649 236.317 15.9943 1.58742 5.68517 2.11291 
36.3356 235.835 18.4778 1.37582 5.65212 2.36498 
33.9973 237.499 15.5974 1.24619 5.77447 2.12809 
33.3156 235.659 20.477 1.18739 5.62404 2.52634 
30.4561 237.307 17.9469 1.02631 5.74511 2.31189 
29.9971 235.896 21.3577 0.98384 5.61773 2.62715 
26.5684 236.885 20.3544 0.803233 5.69597 2.51966 
26.6044 235.365 23.5485 0.799017 5.5597 2.80925 
22.8744 236.414 22.4108 0.627302 5.62826 2.71091 
23.4933 234.511 25.9296 0.64649 5.45937 3.03511 
20.3126 235.292 25.0888 0.497943 5.52653 2.94358 
19.0176 233.633 28.2983 0.458184 5.38092 3.1993 
16.4664 235.069 26.0195 0.382022 5.49411 3.02301 
15.1563 233.202 29.402 0.407691 5.36026 3.25114 
12.6783 234.87 26.8692 0.43782 5.47087 3.0579 
11.6653 233.258 29.8226 0.420845 5.34247 3.27494 
8.43073 234.716 27.793 0.251969 5.4471 3.10252 
8.74869 232.465 31.3535 0.274439 5.28483 3.38564 
4.54751 233.781 29.4981 0.08753 5.39313 3.21762 
5.42607 232.041 32.245 0.176556 5.28113 3.39709 
1.15384 232.271 32.0187 -0.01856 5.27328 3.40771 
4.17799 230.464 34.69 0.077528 5.15961 3.57787 
1.60186 229.148 36.5049 -0.01124 5.11904 3.64265 
5.75787 228.434 37.4453 0.13146 5.09003 3.68052 
4.13238 226.704 39.8777 0.063433 5.00961 3.78694 
0.955551 227.059 39.3837 -0.024375 5.01763 3.7803 
-2.48318 228.305 37.7083 -0.040672 5.08668 3.68369 
-5.66159 229.889 35.3661 -0.012074 5.14486 3.6064 
-9.3366 228.838 36.8492 -0.070826 5.10514 3.66072 
-10.3298 230.776 34.1004 -0.12651 5.14358 3.60438 
-13.4468 229.42 35.8542 -0.324596 5.09018 3.66446 
-12.3272 232.381 31.6642 -0.262483 5.27916 3.38643 
-15.8425 231.759 32.2905 -0.466541 5.24759 3.40639 
-15.2378 234.116 28.3894 -0.492481 5.54169 2.89229 
-19.1203 232.861 29.8371 -0.612024 5.40961 3.13147 
-19.995 234.698 26.1778 -0.696886 5.72876 2.43574 
-22.5918 233.296 28.4727 -0.797511 5.49315 2.88665 
-24.075 234.464 25.1702 -1.00628 5.81728 2.10927 
-26.3081 232.655 28.4151 -1.13061 5.45977 2.84577 
-28.6646 233.332 25.7293 -1.35349 5.68694 2.26409 
-30.7599 231.581 28.3473 -1.49075 5.34597 2.90798 
-32.574 232.359 25.5844 -1.49965 5.62567 2.33842 
-37.2543 231.116 25.5804 -1.63699 5.49102 2.52573 
30.0881 234.299 24.5271 0.987069 5.48519 2.89436 
27.43 233.605 26.6185 0.81767 5.41498 3.07197 
24.6681 232.685 28.7589 0.662785 5.34261 3.23881 
21.6561 232.592 29.4997 0.599649 5.31135 3.3011 
24.551 230.902 31.6571 0.643676 5.25323 3.38376 
22.2069 229.989 33.4585 0.572301 5.19424 3.48612 
25.7811 228.538 34.9543 0.685125 5.12663 3.56431 
22.4388 227.923 36.3697 0.575144 5.09839 3.62654 
19.4999 227.001 38.0974 0.535297 5.05054 3.6986 
27.562 230.138 32.2146 0.794985 5.2083 3.41953 
28.2099 231.789 29.475 0.849793 5.29788 3.26238 
19.6501 231.232 31.9511 0.48602 5.25143 3.41401 
18.7988 229.164 35.19 0.503291 5.15604 3.55239 
39.0935 228.197 31.3748 1.39046 5.16923 3.28576 
36.1578 229.715 30.1332 1.29508 5.2159 3.25411 
38.374 231.142 26.9037 1.42056 5.29292 3.06186 
41.2015 229.771 27.7811 1.54266 5.24646 3.09338 
44.739 229.733 26.0546 1.69666 5.31039 2.88658 
42.8986 227.69 30.4607 1.5008 5.19278 3.20024 
46.6567 226.601 30.4472 1.6379 5.1724 3.15865 
44.5266 225.018 33.8644 1.51039 5.08074 3.37233 
49.2396 223.958 33.226 1.77337 5.03017 3.31606 
47.3815 223.099 35.466 1.62441 4.98771 3.44858 
50.5505 221.227 36.499 1.79236 4.92377 3.46509 
51.1737 219.08 39.2173 1.73133 4.90864 3.5163 
52.864 216.966 41.3142 1.77238 4.88002 3.53551 
51.8967 215.067 44.3327 1.70461 4.86318 3.59436 
55.2863 214.596 43.31 1.8313 4.85529 3.54176 
52.8841 212.893 46.7879 1.72022 4.85186 3.60245 
56.5431 212.155 46.0038 1.84215 4.83839 3.5588 
54.2181 210.913 48.8328 1.73702 4.85119 3.59465 
57.8324 208.997 49.5815 1.86804 4.78859 3.61261 
54.1692 209.177 51.2074 1.73289 4.79642 3.66556 
57.5754 206.67 52.7092 1.89356 4.67276 3.74778 
53.3655 207.552 53.6529 1.68533 4.73171 3.77093 
55.078 205.308 55.62 1.80184 4.60719 3.86939 
41.1743 226.093 33.6996 1.4339 5.10781 3.36548 
48.118 229.307 24.6222 1.89924 5.34895 2.69183 
48.4381 230.668 21.6123 1.94154 5.41949 2.51108 
51.4939 228.766 23.1941 1.96499 5.36941 2.60453 
51.7199 230.166 20.0095 1.92451 5.43151 2.50353 
54.5305 229.131 20.1736 1.98004 5.38007 2.56694 
52.34 231.325 17.0528 1.88889 5.44636 2.49947 
56.2263 229.828 17.3704 2.08556 5.37592 2.4858 
54.7906 231.594 14.616 2.00586 5.45115 2.38909 
58.6152 230.043 14.7198 2.25863 5.36225 2.36499 
57.559 231.614 12.0023 2.18083 5.44514 2.25061 
60.5779 230.645 11.3554 2.41406 5.3712 2.17517 
59.1716 232.448 8.26402 2.359 5.44368 2.0608 
62.2791 231.242 7.62932 2.60531 5.36441 1.97463 
60.4434 233.253 4.47884 2.5239 5.43739 1.87032 
63.2845 231.73 4.89748 2.74095 5.35946 1.78643 
62.5426 233.155 1.49867 2.84073 5.36323 1.61873 
65.6264 230.886 3.58131 3.01112 5.28169 1.56601 
64.9414 232.41 -0.646676 3.09769 5.27408 1.43471 
67.1923 230.691 0.816612 3.2186 5.21821 1.36863 
67.6059 231.511 -3.43434 3.29279 5.21468 1.1878 
69.3518 230.203 -2.61033 3.36462 5.15523 1.24741 
71.2664 229.772 -6.35408 3.3696 5.21359 0.933567 
71.8679 228.482 -2.4954 3.42551 5.12181 1.22828 
74.3234 227.141 -3.81466 3.44975 5.10911 1.21377 
73.0094 226.868 1.04481 3.38977 5.12561 1.3058 
75.8571 225.601 -1.63113 3.4841 5.08953 1.19546 
76.2348 224.515 1.81924 3.49853 5.04035 1.34021 
78.4181 223.728 -1.31368 3.62345 4.99082 1.19537 
79.5655 222.086 1.90608 3.67099 4.91573 1.34385 
81.2115 221.855 -2.21647 3.75372 4.90184 1.16212 
82.2436 220.286 0.976912 3.80831 4.82711 1.2797 
84.64 218.713 -0.472307 3.92952 4.74252 1.23526 
83.6338 218.29 4.02235 3.88596 4.70825 1.47118 
86.3593 216.655 1.6638 4.0355 4.61764 1.36122 
84.9892 216.538 5.84701 3.97601 4.60258 1.56728 
87.95 214.362 4.42932 4.14387 4.47543 1.50013 
85.8616 214.905 8.27397 4.02455 4.50362 1.72062 
87.6132 213.091 8.80068 4.15244 4.36322 1.77441 
84.4996 214.544 12.0854 4.00426 4.44927 1.90645 
87.2149 211.776 12.6838 4.16724 4.25778 1.9833 
84.5276 212.841 15.804 4.0382 4.31186 2.12986 
87.7309 209.833 15.5495 4.23239 4.09984 2.17025 
85.9575 210.321 17.9228 4.14055 4.12135 2.30796 
89.421 207.093 17.2216 4.41017 3.79326 2.34442 
86.9555 208.139 19.8966 4.26333 3.87483 2.49204 
89.748 204.796 19.8895 4.43456 3.71205 2.45387 
87.0494 206.46 22.1258 4.3084 3.8193 2.51349 
87.7783 204.302 24.3304 4.30366 3.94924 2.31355 
84.9058 207.346 24.3911 4.19791 3.92656 2.53516 
84.8894 205.56 27.3792 4.10216 4.12059 2.37954 
82.3731 208.394 26.7797 3.92061 4.15352 2.61477 
82.6148 206 30.3579 3.85518 4.2596 2.54113 
80.2307 208.773 29.2836 3.7275 4.3011 2.65999 
79.888 206.979 32.6917 3.64607 4.33546 2.71188 
77.532 210.254 30.5079 3.4571 4.42447 2.81456 
76.5774 209.382 33.0235 3.34234 4.49292 2.84595 
73.6249 212.349 31.6596 3.13744 4.55667 2.97622 
73.2095 210.446 35.0779 3.12134 4.60437 2.92017 
70.605 212.129 35.0894 2.94112 4.70181 2.95208 
71.2845 209.475 38.6831 3.06702 4.62232 2.9443 
68.7907 211.359 38.1073 2.89238 4.74711 2.9287 
69.5073 208.384 42.2393 2.98865 4.57578 3.08064 
66.4203 210.76 41.4089 2.73421 4.74946 3.06651 
65.1959 209.075 44.9434 2.56589 4.67667 3.31063 
62.7964 212.248 42.1291 2.40461 4.82638 3.21695 
61.9177 210.717 44.9744 2.20993 4.77063 3.42994 
59.0646 213.395 42.9327 2.05142 4.85928 3.40821 
59.5409 210.267 46.9438 1.99163 4.7955 3.53652 
56.7037 216.248 40.2412 2.01806 4.88657 3.39066 
54.8101 218.905 37.5031 2.00321 4.91394 3.36003 
53.457 233.036 12.3852 1.95624 5.4986 2.32191 
55.7209 233.066 10.2575 2.13025 5.47584 2.22224 
56.4473 233.867 7.50694 2.18427 5.51649 2.05913 
57.6653 234.397 4.61939 2.29486 5.50782 1.9668 
53.929 235.322 6.11376 2.04526 5.57107 2.06103 
55.6369 235.917 2.7491 2.20106 5.49806 2.09462 
52.3697 236.696 3.94353 1.97302 5.58459 2.09464 
52.7202 237.862 0.486391 1.94792 5.6524 1.91615 
49.8241 239.121 -0.453183 1.81118 5.74217 1.78125 
59.3008 234.999 0.892305 2.61699 5.40826 1.82597 
56.281 236.796 -0.046692 2.28724 5.51008 1.88639 
54.8342 238.139 -2.89129 2.17916 5.70391 1.44 
52.5131 239.422 -4.5504 1.97241 5.83092 1.02696 
56.973 237.956 -6.31421 2.39768 5.74016 0.611976 
53.9297 239.163 -8.04459 2.11054 5.90861 0.147322 
56.8314 238.059 -10.5903 2.36476 5.81435 -0.098005 
52.9023 239.487 -10.9951 2.10105 5.92063 -0.018459 
54.3435 238.908 -13.7225 2.30928 5.83955 0.054483 
51.5364 240.075 -15.7834 2.1952 5.87564 0.343693 
54.4327 239.08 -17.4571 2.35951 5.81053 0.375651 
49.8005 240.994 -18.8444 2.15272 5.8855 0.418357 
53.6606 239.62 -20.7776 2.34169 5.81835 0.359313 
49.9019 241.141 -21.9817 2.1581 5.89069 0.322884 
53.9177 239.701 -24.1842 2.34675 5.82144 0.263714 
50.4553 241.121 -25.7441 2.18079 5.88653 0.213901 
53.6271 239.941 -27.6158 2.34004 5.828 0.159826 
50.1857 241.32 -29.9151 2.15871 5.89837 0.095591 
53.8695 239.911 -30.9356 2.31616 5.83936 0.101177 
52.1839 240.605 -34.4252 2.23978 5.86951 0.015798 
56.3907 238.928 -32.3571 2.41567 5.79761 0.084011 
55.6272 239.24 -36.0801 2.37756 5.81543 -0.013394 
59.5174 237.604 -34.7308 2.55283 5.73892 0.037716 
60.3233 237.23 -38.4739 2.56819 5.73331 -0.028583 
63.178 235.909 -35.3692 2.71558 5.66433 0.05906 
64.4177 235.318 -38.3916 2.73496 5.65593 0.007808 
67.11 233.937 -34.7076 2.87778 5.58321 0.113547 
67.6135 233.731 -38.9481 2.87654 5.58504 0.02736 
70.3901 232.253 -37.3904 2.99057 5.52425 0.072314 
70.2395 232.333 -41.9914 2.96848 5.5372 -0.035078 
73.6841 230.446 -38.7337 3.12718 5.44708 0.068796 
73.7842 230.398 -42.7695 3.08457 5.47271 0.000999 
77.1916 228.356 -38.7792 3.2939 5.34692 0.133321 
77.4722 228.236 -42.6373 3.2594 5.37036 0.055103 
80.2789 226.438 -40.271 3.39733 5.28257 0.144065 
81.2317 225.898 -44.4069 3.4129 5.27396 0.014243 
83.8016 224.173 -41.8771 3.55675 5.17314 0.164297 
84.5831 223.678 -46.3365 3.48462 5.22739 0.036134 
87.0315 221.931 -42.9777 3.67395 5.08633 0.260717 
87.8321 221.48 -47.3361 3.58515 5.15603 0.184771 
89.7036 220.029 -43.7309 3.82818 4.95848 0.360286 
90.3553 219.713 -48.3139 3.77527 5.01388 0.27422 
92.3795 217.945 -45.2779 4.0617 4.76902 0.423928 
93.2251 217.533 -49.2381 3.936 4.87928 0.408537 
95.2052 215.626 -46.915 4.1724 4.65644 0.600855 
95.5093 215.887 -51.412 4.04944 4.77843 0.452507 
97.6925 213.682 -49.133 4.24926 4.57841 0.648538 
97.9944 213.868 -53.3144 4.1999 4.65297 0.409227 
100.273 211.467 -50.6396 4.2854 4.54441 0.656487 
100.128 212.018 -54.6091 4.25943 4.60326 0.362297 
102.8 209.28 -51.9548 4.31577 4.52835 0.537163 
102.183 210.155 -55.561 4.37204 4.5028 0.135266 
104.634 207.735 -55.1333 4.38988 4.48653 0.189495 
102.308 209.914 -59.6648 4.34709 4.53194 0.026688 
105.272 207.132 -58.7503 4.26244 4.61267 0.129628 
105.181 207.348 -62.2887 4.19986 4.66297 0.26657 
107.98 204.805 -60.2631 4.23248 4.63154 0.302311 
107.732 205.229 -64.1663 4.12245 4.71899 0.435306 
110.405 202.591 -60.7946 4.27269 4.57972 0.484781 
110.661 202.792 -64.8667 4.2011 4.64427 0.491044 
112.905 200.425 -62.2212 4.31553 4.52925 0.564397 
113 200.851 -67.6334 4.30968 4.54761 0.472385 
115.149 198.544 -64.7828 4.33476 4.52334 0.473729 
116.279 197.811 -68.3346 4.26997 4.57985 0.511357 
118.064 195.785 -65.2299 4.23448 4.60422 0.574686 
119.02 195.311 -67.9799 4.20024 4.64134 0.530055 
121.269 193.103 -66.4226 4.18198 4.65888 0.523224 
121.21 193.514 -70.455 4.29704 4.57024 0.346699 
123.405 191.261 -67.3377 4.27997 4.58114 0.380852 
123.619 191.229 -70.6108 4.36105 4.51799 0.210747 
125.651 189.146 -67.7698 4.3352 4.53599 0.308021 
125.572 189.359 -71.9414 4.41258 4.47165 0.060248 
127.788 187.239 -69.908 4.46377 4.40139 0.178067 
127.487 187.41 -73.8396 4.43839 4.44441 -0.145143 
130.019 184.924 -74.3097 4.5075 4.36832 -0.12345 
129.182 185.554 -77.9697 4.45007 4.41937 -0.342673 
132.418 182.361 -74.6977 4.61869 4.25411 -0.044993 
132.88 181.734 -78.0233 4.59115 4.27813 -0.249987 
134.652 179.857 -75.318 4.86524 3.95648 0.00683 
135.691 178.543 -78.7483 4.92424 3.86656 -0.171393 
135.422 178.263 -83.4363 4.87879 3.92081 -0.536459 
133.834 180.478 -81.0173 4.6918 4.15563 -0.382162 
132.899 181.304 -83.5595 4.49245 4.31305 -0.6144 
131.322 183.155 -80.3832 4.45507 4.40566 -0.44845 
131.028 182.798 -84.876 4.37314 4.45615 -0.69058 
129.547 184.683 -82.3818 4.46654 4.3806 -0.577822 
128.964 184.671 -86.4052 4.52327 4.31329 -0.63393 
127.138 186.875 -84.7001 4.59583 4.25002 -0.53585 
126.421 187.211 -88.1196 4.68833 4.14172 -0.581433 
124.88 189.399 -84.746 4.71246 4.13345 -0.427211 
124.267 189.661 -88.6856 4.73209 4.09283 -0.566832 
123.042 191.478 -85.2239 4.68382 4.16538 -0.409384 
121.986 192.267 -88.6329 4.68779 4.15136 -0.509732 
121.029 193.782 -83.9966 4.59198 4.27501 -0.327119 
119.521 195.143 -87.3059 4.56872 4.29141 -0.402488 
118.758 196.197 -83.7175 4.48718 4.38962 -0.240746 
116.816 197.99 -86.5024 4.43905 4.43402 -0.30146 
116.582 198.415 -82.2505 4.36857 4.5126 -0.107239 
114.459 200.352 -84.6243 4.33322 4.5467 -0.162827 
113.226 201.608 -81.3193 4.30267 4.57752 -0.0319 
112.109 202.55 -85.2659 4.2599 4.61419 -0.180498 
110.442 204.185 -82.4065 4.19195 4.67591 -0.10705 
109.744 204.627 -86.4171 4.14124 4.71934 -0.220227 
107.73 206.499 -83.0619 4.09094 4.76551 -0.172049 
107.264 206.75 -86.2202 4.06004 4.78942 -0.234933 
104.782 208.949 -84.593 4.04 4.80472 -0.254278 
105.386 208.191 -88.6247 4.00246 4.83347 -0.308332 
102.922 210.255 -88.2321 3.97067 4.85732 -0.340418 
104.905 208.333 -92.2089 3.99406 4.81609 -0.538952 
101.607 211.142 -90.6329 3.91967 4.89087 -0.430182 
102.439 210.07 -94.5145 3.95302 4.83249 -0.679258 
99.4243 212.57 -93.6399 3.86478 4.92178 -0.55444 
99.8556 211.75 -97.236 3.92669 4.82858 -0.838342 
97.0288 214.147 -96.1626 3.80993 4.95005 -0.655952 
97.4467 213.367 -99.0252 3.88713 4.85279 -0.888131 
94.0763 216.022 -98.5907 3.7045 5.01147 -0.77965 
96.1718 213.948 -101.396 3.84862 4.83117 -1.0937 
94.4009 214.81 -103.555 3.82238 4.81731 -1.25276 
97.4301 212.032 -104.315 3.97559 4.61596 -1.52663 
94.7885 213.248 -107.448 3.94401 4.53886 -1.78568 
97.9093 210.531 -107.105 4.0008 4.43523 -1.94274 
96.8528 210.19 -109.902 4.03492 4.27833 -2.20397 
99.1875 207.965 -109.927 4.00355 4.24255 -2.32888 
97.0047 208.118 -113.265 4.00483 4.05522 -2.6325 
99.8218 205.69 -112.695 3.92461 4.11859 -2.66218 
97.4011 205.592 -116.164 3.87242 3.88141 -3.06304 
100.298 203.231 -115.584 3.80155 3.95934 -3.05092 
98.7144 202.246 -118.605 3.71502 3.76159 -3.39019 
101.717 200.035 -117.757 3.72768 3.76583 -3.3709 
99.8804 199.063 -120.725 3.67032 3.52868 -3.6722 
102.84 196.656 -120.015 3.68704 3.41343 -3.76657 
100.612 195.755 -122.89 3.70746 3.27208 -3.87602 
103.303 193.501 -122.189 3.74571 3.12629 -3.95751 
101.283 192.365 -125.037 3.80744 3.06354 -3.94617 
103.108 189.826 -125.141 3.82731 3.00938 -3.97097 
99.6292 190.852 -127.76 3.83659 3.04562 -3.93446 
101.526 187.778 -128.235 3.8545 3.00529 -3.94791 
97.5627 189.946 -130.525 3.88143 3.06916 -3.87159 
99.5272 186.266 -131.386 3.93848 2.95873 -3.90003 
96.866 186.99 -133.543 3.98657 3.0001 -3.8185 
98.3622 183.17 -134.948 4.05674 2.79821 -3.89352 
95.2922 184.437 -137.192 4.03289 2.87717 -3.86406 
96.6533 180.829 -138.365 4.16102 2.63651 -3.89703 
93.7757 183.046 -139.806 4.05967 2.86151 -3.84775 
94.333 180.039 -141.402 4.17242 2.65548 -3.8714 
91.6945 182.209 -142.648 3.95444 2.8975 -3.92175 
93.7347 177.844 -143.533 4.24869 2.51988 -3.87488 
90.6532 180.14 -145.174 3.90167 2.82217 -4.02697 
93.0452 175.865 -145.605 4.30479 2.43076 -3.86083 
91.0221 176.759 -147.121 3.94739 2.63369 -4.10442 
92.771 172.96 -147.634 4.29488 2.20981 -3.99674 
89.7399 174.266 -149.816 4.03249 2.48055 -4.12862 
92.1544 170.41 -149.606 4.2738 2.12241 -4.07768 
89.8249 170.82 -151.692 4.17813 2.25244 -4.11584 
90.5736 167.612 -152.569 4.26136 2.08783 -4.11748 
87.7525 168.905 -154.916 4.23931 2.15917 -4.10032 
89.5632 164.203 -155.382 4.24006 2.04298 -4.16144 
87.3317 165.384 -157.069 4.19721 2.00548 -4.22277 
88.9969 161.067 -157.398 4.17692 1.93737 -4.27509 
85.6347 164.45 -159.162 4.15345 1.98016 -4.27825 
85.7401 161.832 -160.27 4.14674 1.92631 -4.30811 
82.8506 163.297 -162.34 3.96782 1.95797 -4.4562 
83.7879 159.309 -163.191 3.98828 1.81052 -4.49919 
80.4989 162.291 -164.758 3.73472 1.9264 -4.66555 
80.4086 159.316 -165.985 3.74469 1.80193 -4.7109 
78.2504 159.818 -167.446 3.61494 1.86779 -4.78703 
78.779 155.601 -168.642 3.67197 1.73931 -4.79098 
76.1911 159.058 -169.276 3.50538 1.89103 -4.85737 
74.8719 157.389 -170.878 3.40961 1.88742 -4.923 
73.319 161.607 -170.216 3.29901 1.87144 -5.00836 
71.5959 159.627 -172.092 3.22016 2.00369 -5.00927 
69.2299 162.225 -172.581 3.17289 1.89653 -5.07966 
68.8298 157.909 -174.572 3.13503 2.10087 -5.02286 
66.3111 161.647 -174.623 3.07617 1.98027 -5.10782 
65.1559 158.868 -176.396 2.97551 2.04033 -5.14362 
62.4614 161.523 -176.908 2.90264 1.93743 -5.22419 
61.7425 157.76 -178.728 2.78215 2.03733 -5.25161 
59.3508 160.842 -178.81 2.73098 1.93953 -5.31554 
58.0097 157.276 -180.813 2.55054 1.95349 -5.3972 
56.3557 161.169 -180.179 2.53426 1.90011 -5.42533 
55.1568 158.281 -181.72 2.35015 1.90886 -5.50496 
52.5772 160.193 -182.17 2.34062 1.77794 -5.55265 
51.5075 157.776 -183.348 2.16708 1.80955 -5.61257 
127.54 186.834 -81.3416 4.50322 4.35702 -0.457717 
125.388 189.123 -81.5042 4.64845 4.20988 -0.37861 
122.583 192.3 -81.4045 4.62367 4.2435 -0.260144 
135.805 177.295 -87.155 4.88852 3.84728 -0.773471 
133.496 180.096 -86.6273 4.60411 4.18817 -0.788311 
133.663 179.042 -90.3094 4.66922 4.09382 -0.946237 
131.188 182.081 -88.7236 4.496 4.31174 -0.800525 
131.614 180.75 -92.5738 4.57866 4.21789 -0.838653 
129.723 182.946 -92.097 4.54167 4.26108 -0.82919 
129.44 182.601 -95.6647 4.53113 4.2334 -0.971069 
127.531 184.906 -93.7479 4.59938 4.19352 -0.832406 
126.679 185.138 -97.4077 4.66746 4.05979 -1.07943 
125.141 187.37 -95.2274 4.7722 3.99799 -0.841531 
124.281 187.656 -98.8878 4.71865 3.93871 -1.23865 
122.971 189.923 -95.8869 4.748 4.01274 -0.89118 
121.938 190.199 -99.4036 4.594 4.04689 -1.3719 
120.553 192.575 -96.3958 4.63642 4.11702 -0.999966 
119.481 192.787 -99.756 4.54534 4.07858 -1.46282 
117.537 195.38 -98.6173 4.51995 4.16538 -1.24202 
117.778 193.348 -103.009 4.46398 3.96829 -1.92928 
115.548 196.183 -102.296 4.40907 4.08943 -1.78156 
115.371 194.396 -106.049 4.34794 3.86109 -2.36048 
112.664 197.375 -106.016 4.19708 4.07921 -2.25175 
113.292 194.584 -109.252 4.24951 3.72373 -2.73319 
110.992 196.012 -110.845 4.15876 3.76565 -2.80826 
112.366 192.691 -112.824 4.2517 3.4535 -3.07535 
109.789 194.866 -113.894 4.1187 3.58979 -3.09513 
111.1 191.414 -115.99 4.19463 3.29165 -3.30175 
108.579 193.428 -116.938 3.98802 3.44766 -3.41491 
108.74 190.578 -119.499 3.89082 3.03233 -3.84771 
105.937 193.888 -119.435 3.78795 3.28304 -3.77244 
105.526 190.78 -122.14 3.72186 3.00684 -4.07144 
104.619 197.58 -117.357 3.81487 3.63297 -3.39223 
107.091 196.366 -115.673 4.00586 3.61247 -3.20821 
105.435 199.474 -113.957 3.92942 3.95825 -2.87976 
108.052 198.101 -112.199 4.00756 3.92402 -2.82002 
106.151 200.947 -110.642 4.02928 4.11534 -2.50401 
109.827 198.349 -109.148 4.03074 4.1021 -2.5165 
107.157 201.556 -107.673 3.99649 4.33288 -2.17166 
110.046 199.592 -106.613 3.95935 4.33118 -2.22082 
107.952 202.316 -104.587 3.92628 4.51122 -1.9219 
110.783 200.565 -103.038 4.00308 4.48045 -1.80498 
108.614 203.078 -101.13 3.96552 4.59689 -1.61571 
111.762 201.01 -99.2049 4.14846 4.51295 -1.33821 
108.994 203.907 -97.5379 4.03842 4.65496 -1.19586 
111.488 202.192 -95.5334 4.20475 4.56851 -0.874208 
108.268 205.337 -93.2676 4.09148 4.7173 -0.677781 
111.807 202.284 -92.5152 4.24963 4.59231 -0.559476 
110.602 203.683 -89.9325 4.18579 4.66325 -0.407654 
113.553 201.064 -88.6579 4.32102 4.54321 -0.340971 
115.885 198.64 -89.966 4.46041 4.39432 -0.489738 
114.446 199.738 -92.697 4.41434 4.42101 -0.638872 
116.535 197.206 -94.9484 4.48395 4.32462 -0.808199 
113.918 199.662 -96.1174 4.39433 4.39237 -0.919834 
114.849 198.089 -98.9535 4.38288 4.3208 -1.21977 
113.261 198.585 -102.194 4.22892 4.30147 -1.71919 
119.019 194.673 -94.5728 4.56994 4.23021 -0.817205 
117.91 196.413 -91.0461 4.50579 4.33715 -0.585745 
120.09 194.12 -90.9856 4.61807 4.21433 -0.591854 
121.738 191.975 -92.7663 4.70921 4.09494 -0.710038 
123.843 189.604 -92.1009 4.75773 4.03896 -0.720604 
126.052 187.109 -91.6306 4.72625 4.06394 -0.780381 
128.382 184.776 -89.8127 4.57184 4.2454 -0.734858 
107.952 206.005 -89.8921 4.06558 4.7706 -0.380759 
106.721 206.244 -95.936 4.05058 4.70227 -0.942191 
106.262 205.689 -99.5439 4.05457 4.5788 -1.42773 
105.772 204.756 -103.257 4.10956 4.42985 -1.71427 
104.716 204.173 -106.998 4.12648 4.3056 -1.97563 
103.926 203.425 -110.296 4.00292 4.19996 -2.36665 
102.452 203.373 -112.563 3.88209 4.11305 -2.72239 
103.286 200.993 -114.749 3.86291 3.94924 -2.98398 
101.856 206.1 -108.777 4.01289 4.27713 -2.24413 
100.444 208.745 -106.115 4.00018 4.43549 -1.92261 
103.254 206.743 -104.707 4.18312 4.324 -1.76816 
101.128 209.321 -102.86 4.03841 4.58432 -1.44732 
103.533 207.786 -100.785 4.11801 4.54205 -1.3578 
101.772 209.869 -98.6776 4.00218 4.72141 -1.06428 
104.318 208.102 -96.8808 4.02833 4.71473 -0.981265 
99.2463 211.388 -101.216 3.98083 4.70804 -1.20002 
135.972 176.161 -90.6078 4.92768 3.78088 -0.936401 
134.558 177.138 -94.0078 4.82624 3.87349 -1.05804 
132.547 179.355 -94.7319 4.68373 4.06872 -0.962723 
133.365 177.495 -97.6805 4.80048 3.79385 -1.3949 
131.032 180.455 -97.3283 4.5903 4.0585 -1.31668 
131.962 178.065 -100.503 4.64709 3.84155 -1.74232 
129.968 180.409 -100.255 4.5447 3.99207 -1.69816 
130.821 177.986 -103.465 4.61102 3.7632 -1.99621 
128.71 180.427 -103.609 4.50243 3.87694 -2.01701 
129.352 178.164 -106.269 4.44235 3.72604 -2.38986 
126.933 179.78 -107.927 4.21356 3.78142 -2.70867 
128.451 177.119 -109.226 4.27462 3.57238 -2.87652 
125.62 178.649 -111.132 3.92966 3.66952 -3.23876 
127.99 175.651 -111.537 4.11471 3.52795 -3.1646 
125.766 175.917 -113.845 3.8214 3.54866 -3.5003 
128.193 172.856 -114.259 4.03605 3.34433 -3.44089 
124.492 174.726 -116.31 3.76776 3.48894 -3.62071 
125.992 172.458 -116.921 3.80434 3.3955 -3.66988 
122.564 174.085 -118.945 3.7075 3.41041 -3.75034 
125.226 170.785 -119.219 3.78619 3.26112 -3.80549 
122.12 171.619 -121.5 3.67336 3.33126 -3.85713 
124.529 168.773 -121.53 3.80323 3.18185 -3.85843 
121.282 169.368 -124.3 3.72572 3.34944 -3.78848 
123.575 167.214 -123.784 3.91705 3.12986 -3.7852 
122.516 165.835 -126.124 3.95832 3.09676 -3.75875 
119.104 168.52 -127.178 3.57481 3.40704 -3.87553 
119.046 172.235 -123.785 3.58213 3.40248 -3.88047 
119.064 175.282 -121.153 3.67738 3.31988 -3.86335 
120.391 177.16 -118.258 3.72665 3.46161 -3.685 
122.564 177.156 -115.959 3.76943 3.53538 -3.57347 
119.757 179.913 -116.19 3.8303 3.46776 -3.57403 
123.276 178.837 -113.507 3.79959 3.59261 -3.48277 
121.235 181.877 -112.684 3.92869 3.50308 -3.42921 
123.788 181.88 -109.65 4.03994 3.65359 -3.12389 
121.089 184.713 -109.824 4.07367 3.55111 -3.20385 
122.806 185.538 -106.564 4.28396 3.7144 -2.67703 
119.069 188.05 -108.783 4.19358 3.5597 -3.02704 
120.76 188.622 -105.46 4.33629 3.81683 -2.44734 
118.229 191.111 -106.029 4.35835 3.78197 -2.47165 
120.405 190.612 -102.577 4.46343 3.97765 -1.91109 
123.073 187.521 -102.712 4.53759 3.8857 -1.91375 
125.628 185.163 -101.034 4.66855 3.89751 -1.57106 
125.227 184.183 -104.238 4.51658 3.79793 -2.12988 
127.377 182.417 -102.699 4.55516 3.9006 -1.85179 
125.766 182.095 -106.495 4.35082 3.73313 -2.55581 
128.143 182.859 -99.2768 4.57522 4.05166 -1.45568 
116.412 191.253 -108.772 4.30954 3.56463 -2.85221 
114.638 191.368 -111.224 4.28036 3.40524 -3.08043 
113.849 189.156 -114.485 4.32878 3.15452 -3.28251 
111.972 188.367 -117.651 4.20004 2.94074 -3.61422 
110.116 187.168 -120.394 3.96906 2.88364 -3.92138 
107.278 187.798 -122.698 3.79255 3.03498 -3.98055 
110.348 184.321 -122.466 3.93442 3.1492 -3.75223 
107.827 184.666 -124.822 3.78225 3.1969 -3.86051 
109.132 181.472 -126.124 3.79316 3.1235 -3.91201 
105.885 183.134 -127.827 3.60543 3.13444 -4.078 
107.146 179.894 -129.179 3.61963 3.02096 -4.1461 
104.033 180.966 -130.94 3.60373 3.01259 -4.17036 
105.699 177.33 -132.171 3.56853 2.82369 -4.327 
101.33 179.972 -134.045 3.85735 2.75842 -4.11569 
102.66 176.672 -134.979 3.70479 2.68542 -4.29993 
99.2934 178.476 -137.037 4.09449 2.5714 -4.01023 
100.731 174.907 -137.823 3.93395 2.51398 -4.19943 
96.7437 177.184 -140.564 4.25133 2.40738 -3.94981 
98.1516 173.688 -141.099 4.19698 2.27522 -4.0838 
95.4879 173.072 -144.32 4.42772 2.16898 -3.89288 
98.3381 170.384 -142.665 4.07938 2.34639 -4.14816 
96.1082 169.378 -145.555 4.33548 2.26882 -3.92533 
98.5943 166.876 -144.498 3.93981 2.72295 -4.03868 
97.1978 165.463 -146.94 3.95498 2.73993 -4.02919 
99.8937 163.238 -146.192 3.58171 3.09624 -4.12306 
97.7847 161.754 -148.904 3.65418 2.72389 -4.3211 
101.399 160.024 -147.201 3.42421 2.86742 -4.41564 
99.4691 158.145 -149.755 3.43449 2.60794 -4.56827 
102.839 156.323 -148.377 3.26569 2.7102 -4.63215 
100.896 154.245 -150.883 3.28395 2.54053 -4.71558 
103.472 152.198 -150.241 3.11657 2.70214 -4.7377 
100.173 151.113 -153.012 3.12853 2.61259 -4.77818 
103.831 149.25 -151.766 3.08375 2.75043 -4.73258 
102.666 146.97 -153.853 3.0469 2.86562 -4.68752 
103.964 144.094 -154.848 3.24652 2.67756 -4.64499 
105.971 153.261 -148.007 3.11195 2.75009 -4.71461 
106.069 156.016 -146.332 3.17348 2.86264 -4.60409 
104.312 159.001 -145.625 3.2759 2.9906 -4.44865 
107.268 158.489 -143.866 3.17657 3.06878 -4.46777 
105.789 161.772 -142.584 3.21707 3.2331 -4.32021 
108.745 160.643 -141.274 3.15641 3.23909 -4.35953 
107.368 163.873 -139.715 3.1641 3.28561 -4.31593 
110.868 162.527 -138.315 3.15256 3.28795 -4.32623 
107.66 166.439 -137.61 3.20827 3.19714 -4.35189 
110.833 165.775 -135.873 3.20843 3.30558 -4.26939 
109.427 168.823 -134.519 3.30763 3.15463 -4.30722 
112.428 168.669 -132.316 3.29194 3.21686 -4.27437 
109.734 171.756 -132.248 3.5459 2.86226 -4.32108 
112.394 173.078 -129.064 3.61852 3.01389 -4.15047 
108.304 174.441 -131.841 3.64652 2.68388 -4.351 
109.774 176.898 -128.948 3.77936 2.84953 -4.12603 
111.549 179.07 -125.711 3.90176 3.01387 -3.87919 
113.094 176.046 -126.295 3.86277 2.94572 -3.98192 
114.763 178.173 -122.973 3.90015 3.12818 -3.80385 
116.159 174.764 -124.354 3.7353 3.19072 -3.91635 
116.308 171.774 -126.644 3.54301 3.37558 -3.93396 
115.253 169.664 -129.5 3.32332 3.35906 -4.13167 
117.969 166.577 -129.828 3.40452 3.3136 -4.09986 
117.919 164.131 -131.835 3.31369 3.32445 -4.16205 
115.169 166.333 -132.03 3.16125 3.31651 -4.29691 
113.618 164.205 -134.892 3.25599 3.32311 -4.22255 
115.818 163.032 -134.152 3.06735 3.43721 -4.26863 
102.903 162.252 -144.397 3.32605 3.22354 -4.24217 
103.965 164.956 -141.517 3.25022 3.18225 -4.33248 
104.704 167.491 -139.097 3.38897 3.02744 -4.33546 
106.488 169.86 -136.097 3.45055 2.91387 -4.36564 
101.011 165.211 -143.399 3.47778 3.07936 -4.16649 
101.507 168.246 -141.136 3.59411 2.76021 -4.34494 
103.371 171.036 -137.823 3.60388 2.70261 -4.37504 
105.246 173.499 -134.81 3.58575 2.68299 -4.40594 
100.568 171.775 -139.777 3.88039 2.49226 -4.25897 
116.594 188.085 -111.924 4.21244 3.31022 -3.28026 
128.349 170.022 -116.667 4.08073 3.13339 -3.58818 
130.853 170.166 -113.383 4.5274 2.95421 -3.17396 
130.155 173.242 -111.316 4.40931 3.30532 -2.98032 
132.354 171.517 -109.597 4.7808 3.01759 -2.72337 
131.067 174.783 -107.937 4.59393 3.38942 -2.59986 
133.639 172.679 -105.778 4.87986 3.13594 -2.3908 
132.287 175.574 -104.372 4.73047 3.49137 -2.19992 
134.985 172.807 -102.634 4.97685 3.1931 -2.09888 
133.696 175.434 -101.334 4.83339 3.5416 -1.86387 
136.364 172.087 -100.307 5.09099 3.14511 -1.8777 
135.066 175.111 -98.0481 4.909 3.5992 -1.52929 
136.744 173.392 -96.6154 5.07729 3.39201 -1.40924 
136.424 174.78 -93.8521 5.00652 3.62407 -1.07744 
49.1893 240.256 -3.74247 1.63639 5.91465 1.21898 
61.9322 234.577 -2.11247 2.93185 5.3467 1.495 
58.2896 236.673 -2.74876 2.5984 5.52739 1.40354 
60.7389 235.993 -5.15949 2.88653 5.47405 0.962558 
60.1894 236.642 -8.45028 2.75148 5.61494 0.204857 
60.2515 236.447 -12.3315 2.64872 5.69535 -0.142358 
57.5744 237.602 -15.1337 2.51012 5.75493 0.120072 
61.4694 235.854 -16.0322 2.73969 5.6491 0.171416 
57.5732 237.89 -19.5368 2.52887 5.73904 0.368968 
61.1213 236.309 -20.0364 2.72743 5.64568 0.363438 
60.3982 236.822 -23.328 2.67711 5.67585 0.297176 
63.8947 235.073 -22.7281 2.84606 5.59005 0.348016 
63.9268 235.275 -26.5057 2.81397 5.60973 0.276072 
66.9387 233.66 -25.7211 2.97317 5.52548 0.314711 
66.2944 234.229 -30.1849 2.89094 5.57285 0.219346 
69.6138 232.342 -28.271 3.07058 5.4718 0.310591 
69.9688 232.347 -32.2179 3.03537 5.49487 0.226627 
73.3495 230.298 -30.47 3.20269 5.39563 0.319357 
72.3324 231.111 -34.5562 3.11675 5.45018 0.203277 
75.6158 229.201 -35.223 3.26186 5.36398 0.223013 
64.9371 233.392 -4.20647 3.18631 5.28328 1.1196 
63.8763 234.503 -7.55478 3.14926 5.40474 0.515224 
63.6604 234.823 -11.429 3.00528 5.50769 0.061319 
67.69 232.208 -7.39607 3.26686 5.31686 0.648849 
67.1347 232.757 -11.3163 3.15358 5.42893 0.235199 
65.8355 233.593 -15.2616 2.99647 5.51969 0.145613 
64.7275 234.351 -18.8168 2.91353 5.55412 0.371215 
70.3851 230.831 -10.4104 3.24931 5.35504 0.44287 
69.5464 231.547 -14.8464 3.09132 5.46402 0.244686 
68.3998 232.32 -18.3029 3.04232 5.48643 0.33423 
67.3327 233.227 -21.8612 3.00921 5.49856 0.395977 
52.6692 234.691 9.03772 1.91796 5.56843 2.17861 
16.1328 221.751 45.4426 0.446147 4.90751 3.89502 
17.9618 220.018 47.3686 0.536895 4.84088 3.96542 
13.8341 219.422 48.5306 0.389348 4.84458 3.98069 
17.7359 217.924 49.843 0.513432 4.77764 4.04826 
15.2151 216.546 51.8146 0.493568 4.83417 3.98276 
12.6815 221.946 45.4808 0.301337 4.91173 3.90648 
9.67391 221.486 46.2744 0.232106 4.92851 3.88971 
9.40513 219.577 48.7213 0.212827 4.86859 3.96168 
5.75489 220.811 47.3049 0.132248 4.91004 3.9173 
6.27948 218.398 50.2029 0.203702 4.86795 3.96549 
2.7165 219.282 49.3112 0.13975 4.93109 3.89095 
3.81806 216.618 52.6694 0.280961 4.96701 3.83703 
0.235678 217.244 52.0121 0.118122 5.00488 3.79644 
0.384683 214.974 55.0655 0.217323 5.04463 3.73845 
-3.09562 215.82 54.0111 0.107644 5.09149 3.67937 
-2.58262 213.714 56.9515 0.167881 5.03812 3.74842 
-5.84522 214.573 55.9141 0.087311 5.09629 3.66965 
-6.04185 212.513 58.6385 0.089376 4.97239 3.83898 
-9.23321 214.185 56.4743 0.002673 5.08929 3.68094 
-8.08076 211.155 60.4187 0.059161 4.94661 3.87306 
-11.0741 212.197 59.1245 -0.075628 4.96192 3.84852 
-11.9333 209.953 61.9123 -0.173814 4.87653 3.9552 
-15.1704 210.631 60.8494 -0.382458 4.88531 3.92908 
-14.1983 208.017 64.1128 -0.351851 4.69989 4.14386 
-17.9155 208.623 62.9405 -0.623826 4.72082 4.09276 
-16.0655 206.334 65.7415 -0.533806 4.49193 4.3491 
-19.5264 205.97 65.5551 -0.761473 4.46056 4.35395 
-16.9715 203.997 67.8779 -0.617972 4.30506 4.53228 
-19.8331 202.846 68.5206 -0.775032 4.26661 4.54518 
-18.1537 200.918 70.5698 -0.664257 4.13697 4.67681 
-14.8853 201.913 70.0633 -0.457829 4.15994 4.68191 
-13.161 204.645 67.6866 -0.356023 4.37506 4.49002 
-12.518 199.801 72.0327 -0.323781 3.99057 4.84098 
-11.3905 202.067 70.2091 -0.263361 4.14421 4.70943 
-9.07396 199.146 72.7435 -0.08337 3.95811 4.8748 
-7.85152 201.224 71.0353 -0.032576 4.05957 4.79153 
-4.16396 201.482 70.7958 0.139641 4.06996 4.77633 
-9.42046 203.92 68.6011 -0.140522 4.32797 4.54626 
-9.23144 206.276 66.2354 -0.095168 4.55988 4.31605 
-6.07176 205.611 66.9427 0.146204 4.52799 4.34436 
-6.67781 208.175 64.1407 0.148965 4.76348 4.08314 
-3.72803 206.849 65.427 0.229507 4.66356 4.20303 
-4.81305 209.811 62.0208 0.159601 4.87681 3.95713 
-1.37739 207.791 64.2761 0.144579 4.72442 4.13875 
-1.16856 209.696 62.0412 0.172139 4.85491 3.98202 
2.51157 207.125 64.9016 0.121955 4.71782 4.14689 
1.56629 210.004 61.5035 0.18329 4.90189 3.92517 
4.28513 209.447 62.1517 0.212943 4.89606 3.92002 
4.34028 211.895 58.8814 0.289499 5.01467 3.77419 
7.39513 210.205 60.836 0.377692 4.95569 3.84378 
8.14145 212.421 57.9063 0.32605 5.02161 3.75995 
11.0301 210.846 59.6488 0.4397 4.93332 3.86558 
12.4862 212.419 57.4735 0.471397 4.99019 3.78458 
6.46936 207.911 63.8478 0.314512 4.80698 4.0279 
-6.28759 203.474 69.053 0.065724 4.2904 4.58285 
-2.85452 203.946 68.4358 0.199708 4.40524 4.47373 
-0.256944 205.326 66.9486 0.097641 4.54274 4.33723 
46.0082 -241.356 -2.58251 0.373388 -6.27109 -0.111534 
45.3701 -241.359 -4.52333 0.373033 -6.27108 -0.112974 
47.3902 -241.23 -4.98696 0.373017 -6.27109 -0.112989 
46.7464 -241.234 -6.91411 0.373021 -6.27109 -0.112958 
48.6476 -241.111 -7.43664 0.373033 -6.27108 -0.112991 
46.3767 -241.22 -8.88774 0.373424 -6.27109 -0.111559 
48.2933 -241.097 -9.39934 0.373433 -6.27109 -0.111568 
47.7118 -241.098 -11.3108 0.373419 -6.27109 -0.111539 
49.6189 -240.975 -11.8379 0.373409 -6.27109 -0.111524 
49.0976 -240.971 -13.8003 0.373026 -6.27109 -0.11298 
51.1071 -240.843 -14.2701 0.373032 -6.27108 -0.112979 
50.4585 -240.847 -16.1916 0.373021 -6.27109 -0.112982 
52.3633 -240.724 -16.7204 0.373005 -6.27109 -0.11295 
50.0938 -240.833 -18.1741 0.373383 -6.27109 -0.111509 
52.0105 -240.709 -18.7062 0.373401 -6.27109 -0.111494 
51.3762 -240.715 -20.5415 0.373443 -6.27109 -0.111478 
53.3398 -240.587 -21.1242 0.374601 -6.271 -0.112299 
50.8799 -240.709 -22.4876 0.373032 -6.27108 -0.112968 
52.801 -240.583 -23.1241 0.374669 -6.27098 -0.113428 
50.4693 -240.698 -24.4697 0.372927 -6.2711 -0.112741 
52.3368 -240.577 -25.0148 0.375244 -6.27095 -0.113366 
51.7662 -240.577 -26.9201 0.376239 -6.27088 -0.113395 
53.7472 -240.448 -27.4247 0.382905 -6.27041 -0.116961 
53.1142 -240.452 -29.3109 0.384881 -6.27028 -0.117605 
55.0487 -240.32 -29.8672 0.404976 -6.26877 -0.128841 
52.6639 -240.441 -31.3266 0.389288 -6.26993 -0.121356 
54.6304 -240.307 -31.7883 0.410396 -6.26837 -0.131908 
54.1388 -240.299 -33.6939 0.417639 -6.26786 -0.132945 
56.3309 -240.182 -32.2416 0.444099 -6.2657 -0.147251 
56.0389 -240.155 -34.2523 0.470958 -6.26331 -0.161758 
58.0948 -240.039 -32.7376 0.554172 -6.2549 -0.196188 
57.7902 -240.001 -34.6592 0.593045 -6.25067 -0.219335 
60.0161 -239.825 -33.1521 0.734765 -6.23232 -0.293406 
59.3611 -239.803 -35.3109 0.793388 -6.2237 -0.315716 
60.6223 -239.622 -35.3724 0.996757 -6.18852 -0.40137 
60.0815 -239.576 -37.1769 0.981406 -6.1919 -0.418177 
61.1397 -239.39 -37.4473 2.07351 -5.7741 -0.641945 
60.4895 -239.365 -39.3041 1.9664 -5.85455 -0.615755 
61.2447 -238.932 -39.4639 2.95976 -5.23398 -1.59687 
60.1576 -239.298 -41.1809 2.33473 -5.68382 -0.715826 
61.2395 -238.499 -41.8203 4.4439 -3.88415 -1.08873 
59.6471 -239.259 -43.0916 2.39282 -5.55026 -1.03809 
60.2934 -238.199 -45.2254 4.30907 -3.55676 -1.97748 
58.6935 -239.226 -44.8496 2.00487 -5.80928 -0.954698 
58.8723 -239.039 -45.8132 2.72021 -5.13723 -1.48845 
57.704 -239.225 -46.4018 1.80157 -5.88352 -1.19809 
57.8761 -238.594 -48.2499 3.68319 -4.65106 -1.86676 
57.0216 -239.071 -48.3888 2.7476 -5.47855 -1.19205 
57.5591 -237.856 -51.1028 4.55961 -3.54421 -1.94118 
56.31 -238.971 -50.484 3.22974 -5.22976 -1.21673 
56.2886 -238.728 -52.135 3.47775 -4.67521 -1.5316 
54.8346 -239.321 -51.9832 1.74841 -5.98644 -0.602306 
54.4508 -239.303 -54.1244 2.53294 -5.36235 -0.951603 
53.8092 -239.513 -52.2247 1.24626 -6.14289 -0.416086 
53.1776 -239.526 -54.1065 1.18576 -6.15537 -0.423679 
52.5977 -239.796 -51.9164 1.07886 -6.17357 -0.381871 
52.0749 -239.766 -53.7915 1.04903 -6.18097 -0.382942 
51.0527 -240.032 -51.5251 0.736388 -6.23217 -0.273332 
50.4786 -240.01 -53.5752 0.782435 -6.22623 -0.280642 
49.2856 -240.219 -51.0953 0.556293 -6.25532 -0.188463 
48.5979 -240.226 -53.0299 0.571305 -6.25375 -0.186706 
47.0316 -240.363 -52.4635 0.468348 -6.26384 -0.150575 
46.4624 -240.359 -54.4238 0.479784 -6.26266 -0.160682 
44.9719 -240.519 -51.9987 0.42126 -6.26761 -0.132469 
44.4979 -240.509 -54.0128 0.428397 -6.26705 -0.135244 
42.6875 -240.638 -53.4093 0.394951 -6.26957 -0.121801 
43.9036 -240.508 -55.9044 0.434377 -6.26654 -0.138955 
41.9933 -240.644 -55.3239 0.39677 -6.26945 -0.121877 
41.6631 -240.627 -57.2624 0.400987 -6.26906 -0.127567 
39.6911 -240.758 -56.8425 0.384407 -6.27029 -0.118913 
41.0133 -240.628 -59.2269 0.409685 -6.26834 -0.134274 
39.141 -240.756 -58.7242 0.387726 -6.27007 -0.119404 
38.6621 -240.75 -60.5604 0.3909 -6.26982 -0.121816 
37.195 -240.884 -58.2038 0.377477 -6.27079 -0.114222 
36.644 -240.88 -60.2278 0.379446 -6.27063 -0.116561 
34.7685 -241.005 -59.528 0.373845 -6.27104 -0.112747 
34.2636 -240.999 -61.5198 0.374836 -6.27092 -0.116148 
32.8426 -241.126 -59.1738 0.373415 -6.27108 -0.111816 
32.3067 -241.125 -61.0207 0.373853 -6.27102 -0.113799 
30.9321 -241.251 -58.5457 0.372331 -6.27115 -0.11154 
30.3515 -241.249 -60.5426 0.372675 -6.27111 -0.112853 
28.9631 -241.376 -58.0632 0.372298 -6.27115 -0.111613 
28.4453 -241.374 -59.92 0.373356 -6.27109 -0.111517 
26.9978 -241.501 -57.5792 0.373371 -6.27109 -0.111506 
26.5308 -241.494 -59.5669 0.37342 -6.27109 -0.111626 
24.6358 -241.619 -58.8718 0.373466 -6.27109 -0.111381 
24.074 -241.617 -60.8469 0.373047 -6.27109 -0.112489 
22.714 -241.74 -58.5142 0.373366 -6.27109 -0.111587 
22.0887 -241.744 -60.3627 0.372979 -6.27109 -0.112927 
20.7886 -241.866 -57.893 0.373443 -6.27109 -0.111466 
20.1774 -241.867 -59.8397 0.373053 -6.27108 -0.112962 
18.7778 -241.994 -57.4426 0.373415 -6.27109 -0.111582 
18.2526 -241.99 -59.3938 0.372994 -6.27109 -0.113003 
16.4379 -242.108 -58.7995 0.373007 -6.27109 -0.112986 
15.8593 -242.109 -60.6854 0.372957 -6.27109 -0.113149 
14.5296 -242.23 -58.3479 0.37301 -6.27108 -0.113011 
13.8617 -242.235 -60.2591 0.373033 -6.27108 -0.11307 
12.5257 -242.359 -57.7863 0.373005 -6.27109 -0.11298 
11.9324 -242.36 -59.7395 0.373047 -6.27108 -0.11303 
10.085 -242.479 -59.1994 0.373025 -6.27108 -0.113016 
9.57638 -242.474 -61.168 0.372854 -6.2711 -0.1127 
7.60933 -242.601 -60.6215 0.37299 -6.27109 -0.112982 
7.0982 -242.596 -62.5479 0.373427 -6.27108 -0.112181 
5.21892 -242.718 -62.0108 0.373388 -6.27109 -0.111609 
4.60948 -242.721 -63.9308 0.373928 -6.27105 -0.111773 
3.3208 -242.839 -61.5641 0.373446 -6.27109 -0.111492 
2.63515 -242.847 -63.438 0.373446 -6.27109 -0.111503 
1.3629 -242.966 -60.977 0.373383 -6.27109 -0.111572 
0.721297 -242.97 -62.9123 0.373268 -6.27109 -0.111586 
-0.56648 -243.089 -60.5367 0.373463 -6.27108 -0.111519 
-1.20723 -243.095 -62.3767 0.373211 -6.27109 -0.11187 
-2.50921 -243.214 -60.0032 0.373416 -6.27109 -0.111495 
-3.12131 -243.216 -61.9289 0.373442 -6.27107 -0.112229 
-5.02866 -243.34 -61.3473 0.373411 -6.27109 -0.11155 
-5.41974 -243.328 -63.3363 0.373586 -6.27105 -0.113317 
-7.37308 -243.454 -62.7831 0.372789 -6.27109 -0.113347 
-6.11456 -243.335 -65.2279 0.373153 -6.27107 -0.113578 
-8.01763 -243.457 -64.7163 0.372727 -6.27109 -0.113624 
-8.41677 -243.445 -66.7058 0.373429 -6.271 -0.116044 
-10.4123 -243.575 -66.0986 0.373546 -6.27103 -0.114365 
-10.8607 -243.564 -68.124 0.374303 -6.27086 -0.120723 
-12.7598 -243.688 -67.5397 0.372439 -6.27105 -0.116861 
-13.3651 -243.689 -69.4047 0.373006 -6.27076 -0.129256 
-14.6741 -243.81 -67.0783 0.373407 -6.271 -0.116454 
-15.4014 -243.819 -68.9445 0.373455 -6.27086 -0.123519 
-16.6099 -243.935 -66.5604 0.37291 -6.27105 -0.115106 
-17.3247 -243.943 -68.439 0.373058 -6.27094 -0.120517 
-18.5269 -244.059 -66.0465 0.372959 -6.27108 -0.113558 
-19.254 -244.068 -67.934 0.373454 -6.27095 -0.11886 
-20.451 -244.182 -65.5374 0.372942 -6.27109 -0.112833 
-21.1411 -244.19 -67.3898 0.371931 -6.27107 -0.11692 
-22.4527 -244.311 -64.9698 0.37275 -6.2711 -0.113218 
-23.0318 -244.311 -66.9276 0.372479 -6.27106 -0.116015 
-24.4447 -244.439 -64.4365 0.373487 -6.27106 -0.11266 
-25.0137 -244.438 -66.4038 0.373107 -6.27104 -0.115405 
-26.3858 -244.564 -63.9276 0.373479 -6.27107 -0.112602 
-26.9878 -244.566 -65.8343 0.37369 -6.27101 -0.114656 
-28.3289 -244.689 -63.4306 0.375906 -6.27094 -0.111439 
-28.8715 -244.688 -65.3014 0.372183 -6.27109 -0.115373 
-30.1435 -244.807 -62.9287 0.369344 -6.27129 -0.113328 
-30.7213 -244.806 -64.7973 0.250553 -6.27434 -0.17536 
