ply
format ascii 1.0
comment VCGLIB generated
element vertex 884
property float x
property float y
property float z
property float nx
property float ny
property float nz
element face 0
property list uchar int vertex_indices
end_header
1.34179 -3.25607 1.9785 4.25509 -0.65717 4.56055 
1.43681 -3.28008 1.88005 4.41187 -0.368306 4.41409 
-0.215776 -2.84438 2.34998 0.070397 -1.32429 6.08938 
-0.318039 -2.76653 2.35507 -0.51696 0.107109 6.20515 
1.53404 -3.31163 1.78285 4.56257 -0.156647 4.3057 
2.15476 -2.45136 -0.211242 5.76575 2.30034 0.688963 
2.15936 -2.29847 -0.445748 6.13259 0.97935 0.908642 
2.15281 -2.37369 -0.330876 5.96636 1.45141 1.25262 
2.16227 -2.22605 -0.560994 6.20577 0.78138 0.562581 
2.14789 -2.04593 -0.780147 6.23876 0.742597 -0.01697 
2.15876 -2.13867 -0.670256 6.2324 0.74208 0.233905 
2.13363 -1.92443 -0.845617 6.25416 0.585487 -0.09031 
2.12898 -1.89607 -0.969208 6.25452 0.576837 -0.10379 
2.12274 -1.85021 -1.1014 6.25206 0.596125 -0.177434 
1.4942 -0.538336 -1.9635 0.552442 -0.122399 -6.25695 
1.62513 -0.752144 -1.937 0.989981 -0.500053 -6.18251 
1.50379 -0.667914 -1.95825 0.738758 -0.293876 -6.23198 
1.70851 -1.02609 -1.89737 1.62008 -0.48556 -6.04771 
1.80047 -1.09582 -1.86381 2.10112 -0.475704 -5.89295 
1.5624 -0.891865 -1.93749 1.08591 -0.35811 -6.17738 
1.59072 -1.01532 -1.92505 1.2613 -0.38159 -6.14229 
2.08066 -1.60061 -1.40781 6.22864 0.447625 -0.688066 
2.06239 -1.55304 -1.52347 6.15265 0.4411 -1.1582 
2.02826 -1.5525 -1.65818 5.66532 0.198269 -2.51945 
1.86163 -1.24355 -1.8284 2.60897 -0.418988 -5.68566 
1.91483 -1.34846 -1.79425 3.25331 -0.362364 -5.31074 
1.97344 -1.45753 -1.74976 4.28732 -0.228539 -4.29464 
2.09709 -1.7342 -1.35813 6.22935 0.600435 -0.556263 
2.11149 -1.78378 -1.2277 6.24401 0.611151 -0.334791 
1.24273 -0.437694 -1.98871 0.729833 0.060801 -6.24025 
0.87728 -0.421612 -2.02163 0.319684 -0.053853 -6.27428 
1.00569 -0.473743 -2.01344 0.451146 -0.073681 -6.2654 
0.763872 -0.375531 -2.02659 0.228496 -0.015201 -6.2788 
1.12936 -0.524723 -2.00306 0.595459 -0.042871 -6.25232 
1.36839 -0.485429 -1.97495 0.640143 0.037074 -6.24983 
0.640111 -0.417269 -2.03039 0.216358 0.014015 -6.27937 
0.419553 -0.351017 -2.03779 0.279809 0.107558 -6.27588 
0.508033 -0.450187 -2.03578 0.271053 0.06729 -6.27691 
-0.34802 0.3087 -2.07612 0.221751 0.205149 -6.27466 
-0.435177 0.420516 -2.07319 0.083121 0.315389 -6.27403 
-0.520414 0.543963 -2.06668 -0.00044 0.318355 -6.27506 
-0.793801 1.39282 -2.00333 -1.20354 0.359784 -6.12076 
-0.669818 0.786992 -2.05301 -0.192615 0.410286 -6.26576 
-0.599843 0.666046 -2.06029 -0.055645 0.309276 -6.27528 
-0.834983 1.25506 -2.00247 -1.49677 0.427113 -6.0471 
-0.869548 1.12709 -2.00559 -1.25993 0.822886 -6.07664 
-0.81494 0.903363 -2.03537 -0.473963 0.632321 -6.23255 
-0.904185 0.997578 -2.01552 -0.734017 0.849891 -6.17946 
-0.805183 0.777998 -2.04766 -0.276299 0.569269 -6.25072 
-0.316353 0.083195 -2.07897 0.294407 0.1086 -6.27525 
-0.392426 0.189095 -2.08072 0.191667 0.13459 -6.27751 
-0.140517 -0.094684 -2.07248 0.373931 0.074315 -6.2715 
-0.252326 -0.035175 -2.07777 0.327207 0.102684 -6.27378 
0.085799 -0.198836 -2.05705 0.458429 -0.001163 -6.26641 
0.186024 -0.291462 -2.05019 0.416683 0.039727 -6.26914 
-0.056303 -0.211678 -2.0676 0.442712 -0.000396 -6.2675 
0.282384 -0.386485 -2.04548 0.340776 0.091609 -6.2732 
-0.930743 -2.50289 2.07967 -2.93936 1.38448 5.37515 
-1.02847 -2.46161 2.01298 -3.28935 1.30409 5.18327 
-0.724589 -2.53948 2.19026 -2.48346 1.49299 5.57423 
-0.844845 -2.56582 2.14044 -2.73877 1.46787 5.46019 
-1.22114 -2.46116 1.87084 -3.94577 1.05635 4.76804 
-1.13972 -2.53182 1.951 -3.76024 1.11424 4.90437 
-1.38869 -2.44556 1.71163 -4.5881 0.854709 4.18592 
-1.31676 -2.52272 1.79845 -4.3177 0.815698 4.48206 
-1.63567 -2.19067 1.25656 -5.77622 0.519725 2.40267 
-1.68381 -2.16844 1.12632 -5.8858 0.344673 2.16323 
-1.52517 -2.42671 1.52571 -5.35046 0.523409 3.22403 
-1.57642 -2.35846 1.42063 -5.58703 0.455056 2.81476 
-1.62432 -2.30131 1.30653 -5.77331 0.409224 2.4232 
-1.47001 -2.50523 1.62226 -5.08311 0.493031 3.62885 
-1.72287 -2.1384 1.01481 -5.93214 0.23375 2.03953 
-1.7497 -2.06141 0.924491 -5.96621 0.298582 1.92595 
-0.657913 -2.68259 2.25775 -2.21787 1.41638 5.69865 
-0.440923 -2.80408 2.34217 -0.928039 0.246813 6.14953 
-0.653335 -2.80849 2.28843 -2.10893 0.856888 5.81797 
-0.548976 -2.85953 2.32476 -1.31877 0.212625 6.08129 
-1.84891 -1.3828 0.225735 -6.27057 0.056475 0.296389 
-1.84617 -1.51731 0.250235 -6.27669 -0.008119 0.27552 
-1.83741 -1.71899 0.444945 -6.24692 0.148608 0.614692 
-1.84773 -1.65391 0.233293 -6.27769 0.103633 0.232988 
-1.8461 -1.74468 0.317243 -6.27251 0.116811 0.337344 
-1.85122 -1.3183 0.10323 -6.27844 0.102465 0.056791 
-1.8488 -1.26198 -0.013196 -6.27617 0.171729 -0.160676 
-1.84288 -1.13088 -0.020243 -6.27381 0.296697 -0.141285 
-1.83652 -1.04555 -0.104973 -6.27452 0.242927 -0.2096 
-1.82966 -0.953396 -0.196542 -6.2754 0.147178 -0.271975 
-1.82331 -0.877685 -0.303413 -6.27843 0.071822 -0.11711 
-1.82195 -0.779768 -0.398231 -6.14523 0.088706 0.845214 
-1.83699 -0.686998 -0.481859 -5.52871 0.382427 2.42808 
-1.79519 -1.94377 0.741803 -6.11126 0.251315 1.40699 
-1.78636 -2.09234 0.800648 -6.10321 0.050261 1.43449 
-1.83073 -1.83587 0.524541 -6.22529 0.083601 0.804525 
-1.8201 -1.93863 0.606401 -6.20799 0.053754 0.936071 
-1.99105 0.44617 -1.41125 -6.18307 0.922065 0.49534 
-2.00143 0.315309 -1.38547 -6.25679 0.40677 0.350478 
-1.77918 0.782854 -1.74009 -2.3311 5.80478 0.453231 
-1.89777 0.730719 -1.73563 -3.25951 5.25956 0.266896 
-1.97165 0.662281 -1.71033 -5.25861 2.7449 0.174543 
-1.99386 0.488783 -1.54533 -6.19685 0.90353 0.369578 
-1.99303 0.535547 -1.68141 -6.21132 0.865632 0.119713 
-1.60585 0.852673 -1.85207 -2.08801 5.89757 -0.099483 
-1.21219 0.957392 -1.98271 -1.53465 3.64923 -4.1349 
-1.44789 0.890681 -1.96929 -1.52208 4.08692 -3.36351 
-1.33497 0.918678 -1.98331 -1.24339 3.77571 -3.83503 
-1.10113 1.01018 -1.98446 -1.92193 3.1933 -4.42608 
-1.56494 0.856903 -1.95888 -1.53752 4.27577 -3.05199 
-1.72852 0.807046 -1.8533 -2.30019 5.81094 -0.261598 
-0.95182 1.20472 -1.96152 -3.36814 1.17798 -5.02506 
-0.90322 1.35213 -1.97055 -2.91922 0.526429 -5.44311 
-0.876935 1.48789 -1.97355 -2.56107 0.409808 -5.61723 
-0.846889 1.62162 -1.97472 -2.09783 0.478075 -5.82682 
-0.985165 1.07431 -1.99013 -2.11665 2.02712 -5.29572 
-0.80894 1.75467 -1.97278 -1.71185 0.524903 -5.98571 
-0.855524 1.97213 -1.94544 -2.21879 -0.030867 -5.84944 
-0.906562 2.07876 -1.93125 -2.1338 -0.629737 -5.85806 
-0.770063 1.8857 -1.97352 -1.4052 0.249197 -6.09346 
-1.88459 -0.582295 -0.564357 -4.89364 0.746415 3.82903 
-1.94163 -0.491661 -0.641492 -5.16453 0.812794 3.32786 
-1.98051 -0.416554 -0.751426 -5.88999 0.743293 1.86087 
-1.99788 -0.108666 -1.02692 -6.22625 0.429032 0.720453 
-2.00024 0.110301 -1.19632 -6.25272 0.365451 0.495489 
-2.01136 -0.121021 -1.15633 -6.25125 0.373772 0.501599 
-2.01104 -0.019186 -1.22726 -6.25626 0.372219 0.427348 
-2.00126 -0.241144 -0.96755 -6.21004 0.477979 0.807252 
-1.99972 -0.367224 -0.887238 -6.17736 0.55353 0.980987 
-2.00597 0.190005 -1.37157 -6.27132 0.297948 0.242045 
-2.00983 0.081808 -1.31732 -6.26543 0.361286 0.291161 
-0.918847 2.21439 -1.94357 -1.30952 -0.624171 -6.08807 
-1.07176 2.38999 -1.93919 -0.613481 -0.402633 -6.22696 
-1.19817 2.4507 -1.9296 -0.643227 -0.272558 -6.23441 
-0.933271 2.3409 -1.94933 -0.652776 -0.236194 -6.23743 
-0.53285 4.73791 -1.87857 -0.294446 1.06834 -6.16468 
-1.09424 2.69991 -1.93409 -0.433242 0.182438 -6.2652 
-0.962605 2.95843 -1.93263 -0.345519 0.238915 -6.26908 
-1.00646 2.83073 -1.93511 -0.359899 0.226555 -6.26864 
-1.09931 2.5333 -1.9377 -0.471896 0.06595 -6.26411 
-0.723854 4.01858 -1.9033 -0.495646 0.080901 -6.2624 
-0.691956 4.13411 -1.90574 -0.47884 0.038908 -6.26471 
-0.612172 4.2594 -1.91001 -0.413753 0.133372 -6.26786 
-0.596548 4.39183 -1.90733 -0.362192 0.28545 -6.26485 
-0.501288 4.47939 -1.90692 -0.288927 0.495407 -6.25504 
-0.522995 4.60637 -1.89265 -0.309459 0.671335 -6.23945 
-0.898579 3.09006 -1.93104 -0.344389 0.270028 -6.26779 
-0.837873 3.20049 -1.92904 -0.392783 0.321465 -6.2625 
-0.794191 3.32031 -1.92558 -0.478143 0.346606 -6.25534 
-0.696001 3.89498 -1.90868 -0.516778 0.203657 -6.25822 
-0.632394 3.77192 -1.91864 -0.540479 0.218356 -6.25601 
-0.684119 3.37503 -1.9316 -0.514448 0.333794 -6.25314 
-0.54499 3.55415 -1.93388 -0.43387 0.245789 -6.2629 
-0.562665 3.426 -1.93879 -0.423455 0.312285 -6.26037 
-0.523211 3.68821 -1.93109 -0.449838 0.182543 -6.26373 
-0.394179 4.56497 -1.90315 -0.230777 0.6343 -6.24611 
-0.371121 4.42779 -1.91631 -0.213606 0.41661 -6.26323 
-0.346252 4.29485 -1.92348 -0.225433 0.267824 -6.27275 
-0.337123 4.16051 -1.92892 -0.263794 0.237278 -6.27275 
-0.443155 4.07913 -1.92581 -0.43039 0.179041 -6.26536 
-0.45387 3.957 -1.92883 -0.478429 0.196899 -6.26117 
-0.481293 3.81612 -1.93114 -0.46516 0.161548 -6.26246 
-0.581103 3.2885 -1.94438 -0.41812 0.261076 -6.26255 
-0.606247 3.14819 -1.94685 -0.386958 0.150248 -6.26902 
-0.61784 3.01329 -1.94838 -0.33571 0.163121 -6.27185 
-0.684741 2.65406 -1.95867 -0.362533 0.212342 -6.26898 
-0.755503 2.54388 -1.95735 -0.358534 0.157976 -6.27091 
-0.835553 2.43133 -1.95565 -0.392672 0.135111 -6.26917 
-0.81132 2.15053 -1.96249 -1.14288 -0.136155 -6.15753 
-0.750069 2.03159 -1.97278 -1.10049 0.101836 -6.16996 
-0.730895 2.79873 -1.9506 -0.320042 0.245237 -6.27023 
-0.724435 2.93191 -1.94573 -0.318039 0.225332 -6.27107 
1.71809 -3.26904 1.56778 5.13776 -0.235474 3.60411 
1.63784 -3.31396 1.67101 4.84135 -0.225078 3.99084 
2.05729 -2.91828 0.771828 6.02085 0.42683 1.7307 
2.02189 -2.96709 0.90247 5.99101 0.182808 1.85735 
1.98137 -3.02245 1.02662 5.93849 -0.100428 2.03068 
1.93459 -3.08043 1.15223 5.89908 -0.220332 2.14198 
2.12574 -2.78278 0.472885 6.02068 0.804309 1.58668 
2.08498 -2.86154 0.657428 6.02088 0.620749 1.6673 
2.1171 -2.89055 0.549222 6.04646 0.507827 1.61355 
1.84277 -3.20107 1.36857 5.64606 -0.367241 2.70843 
1.89317 -3.19679 1.24716 5.84559 -0.301533 2.27972 
2.17817 -2.61774 0.127396 6.07912 1.13577 1.01884 
2.17827 -2.54046 0.020602 6.0121 1.56047 0.633012 
2.17247 -2.70979 0.232885 6.09486 0.858471 1.22859 
2.16176 -2.80544 0.337144 6.0919 0.648483 1.37175 
1.7939 -3.32825 1.44578 5.45986 -0.372157 3.06576 
2.18838 -2.55064 -0.120425 6.05491 1.56891 0.158186 
0.469547 -3.04016 2.26517 1.37828 1.47701 5.82439 
0.34102 -3.01772 2.28813 1.06274 1.33454 5.9387 
0.213416 -3.01023 2.30097 0.525086 0.961984 6.05315 
0.005758 -3.00129 2.29403 -0.452292 -0.090517 5.98314 
0.109864 -3.07527 2.32349 -0.262836 1.43264 6.0977 
0.917616 -3.28007 2.19094 -0.269291 -1.2259 6.12834 
1.20458 -3.35052 2.08558 3.94567 0.029478 4.84642 
1.12999 -3.29299 2.14718 3.32348 -0.314769 5.30129 
1.29165 -3.37201 2.0131 4.07454 0.088712 4.74839 
1.03869 -3.35933 2.18999 1.06703 -0.081659 6.04322 
0.709191 -3.16812 2.21789 1.49659 -0.149219 5.61336 
0.780123 -3.27301 2.18656 1.73822 -0.464296 5.4311 
0.614376 -3.17969 2.28011 2.5202 1.85633 5.37352 
0.505425 -3.15146 2.30954 1.63049 1.99272 5.66671 
-0.113342 -2.92532 2.31914 0.068808 -1.97431 5.96384 
1.38731 -3.39227 1.93452 4.29753 0.139891 4.57655 
1.48103 -3.4115 1.84442 4.51821 0.016548 4.34995 
-0.338978 -2.89014 2.34308 0.047006 -1.38702 6.03732 
-0.241582 -2.97059 2.30439 0.206295 -2.20133 5.87812 
1.57703 -3.43198 1.7397 4.74288 -0.313496 4.07885 
2.18297 -2.50222 -0.342369 6.13838 1.20787 0.501924 
2.19723 -2.58594 -0.255652 6.13858 1.2861 0.105268 
2.17992 -2.41815 -0.459191 6.18239 0.927834 0.554675 
2.18004 -2.35409 -0.583519 6.2284 0.724338 0.330901 
2.17528 -2.27408 -0.692728 6.24285 0.668818 0.14885 
2.14605 -2.04371 -0.920757 6.23956 0.73241 -0.090173 
2.16462 -2.17137 -0.796866 6.23705 0.741544 -0.031503 
2.13767 -1.98399 -1.06094 6.24505 0.679884 -0.117324 
2.12857 -1.93395 -1.1998 6.2431 0.646668 -0.27392 
1.37735 -0.618222 -1.97452 0.719403 -0.090298 -6.24072 
1.50314 -0.788633 -1.95183 0.892258 -0.305358 -6.21177 
1.38176 -0.747575 -1.97052 0.823367 -0.188045 -6.22598 
1.64358 -1.14488 -1.90491 1.49721 -0.368647 -6.08894 
1.75632 -1.21302 -1.8696 1.91522 -0.379702 -5.96807 
1.45808 -0.99275 -1.95071 1.04807 -0.272732 -6.18852 
1.41198 -0.876878 -1.96239 0.935255 -0.211527 -6.20927 
1.50231 -1.1171 -1.93666 1.18391 -0.313474 -6.16196 
2.08067 -1.69927 -1.4878 6.17439 0.501457 -0.993629 
2.05603 -1.66142 -1.59308 5.97602 0.349422 -1.8103 
2.01837 -1.68559 -1.68447 5.02206 -0.092334 -3.53303 
1.96695 -1.579 -1.74659 4.00285 -0.282165 -4.62914 
1.79845 -1.35749 -1.84642 2.24906 -0.381361 -5.84502 
1.87741 -1.47146 -1.80348 2.76111 -0.431856 -5.61789 
2.11507 -1.86662 -1.31682 6.22926 0.648798 -0.482368 
2.09632 -1.82072 -1.45741 6.17165 0.578983 -0.961463 
1.25288 -0.571044 -1.98949 0.696514 -0.009002 -6.24346 
0.890716 -0.549632 -2.01882 0.347515 -0.141661 -6.27159 
0.74709 -0.510506 -2.02624 0.269131 -0.06476 -6.27692 
1.01383 -0.609242 -2.00963 0.411739 -0.157708 -6.26753 
1.13659 -0.659841 -1.99965 0.525637 -0.109562 -6.25969 
0.601211 -0.548471 -2.0321 0.285697 -0.011875 -6.27661 
0.37455 -0.485785 -2.04265 0.302513 0.077018 -6.2753 
0.465898 -0.586853 -2.03886 0.317488 0.018484 -6.27506 
-0.48659 0.299529 -2.07949 0.003444 0.221182 -6.27688 
-0.570942 0.420197 -2.07311 -0.059398 0.285413 -6.27599 
-0.654986 0.540495 -2.06631 -0.041008 0.311506 -6.27529 
-0.734717 0.660666 -2.05936 -0.109432 0.402542 -6.26866 
-0.931259 0.864642 -2.03141 -0.410296 0.812758 -6.21617 
-1.02249 0.940601 -2.01316 -0.641777 1.185 -6.13031 
-0.872562 0.647591 -2.05769 -0.15503 0.495221 -6.26068 
-0.939582 0.74557 -2.04612 -0.265557 0.706577 -6.23655 
-0.38244 -0.044886 -2.08418 0.182326 0.081027 -6.27878 
-0.457684 0.065516 -2.08482 0.042026 0.08354 -6.27927 
-0.535905 0.17806 -2.08218 -0.108489 0.122353 -6.27917 
-0.192219 -0.234077 -2.07748 0.404542 0.044611 -6.26938 
-0.292352 -0.156047 -2.08182 0.292223 0.090724 -6.27546 
0.039469 -0.316012 -2.06055 0.432129 -0.0188 -6.26821 
0.140545 -0.41277 -2.05376 0.364966 0.01146 -6.27246 
-0.101149 -0.341059 -2.07017 0.47399 -0.027673 -6.26515 
0.239435 -0.514823 -2.04929 0.29995 0.044373 -6.27582 
-0.960786 -2.63873 2.09873 -3.12207 1.30108 5.28612 
-1.05164 -2.58863 2.0297 -3.46091 1.20833 5.0901 
-0.764635 -2.64942 2.20295 -2.56089 1.48433 5.53873 
-0.871959 -2.70451 2.1646 -2.8872 1.2642 5.42567 
-1.24012 -2.59925 1.88268 -4.12611 0.820629 4.65862 
-1.1577 -2.66558 1.96558 -3.96812 0.839992 4.78644 
-1.40549 -2.58349 1.71549 -4.79153 0.463908 4.00764 
-1.33227 -2.66147 1.80487 -4.51337 0.496453 4.32515 
-1.6745 -2.28621 1.16885 -5.92898 0.254458 2.05613 
-1.7226 -2.2752 1.01978 -5.99399 0.059035 1.87974 
-1.53617 -2.56737 1.52256 -5.41416 0.401358 3.15414 
-1.58191 -2.49489 1.42533 -5.65104 0.385324 2.71244 
-1.62603 -2.43479 1.31697 -5.80121 0.31088 2.38939 
-1.66686 -2.40968 1.20563 -5.92492 0.323865 2.06121 
-1.4798 -2.6432 1.61738 -5.14642 0.39041 3.58002 
-1.75976 -2.19467 0.898973 -6.04609 -0.019256 1.69321 
-0.766322 -2.76949 2.23269 -2.61555 1.07989 5.59068 
-0.449247 -2.93799 2.33291 -0.108167 -1.25181 6.04548 
-0.655184 -2.94104 2.29742 -1.94115 -0.052338 5.9223 
-0.761252 -2.89368 2.25119 -2.70215 0.272504 5.63414 
-0.550388 -2.99218 2.31674 -0.544696 -1.06956 6.07402 
-1.85022 -1.45483 0.113483 -6.2823 -0.045547 0.052237 
-1.84975 -1.57453 0.134561 -6.2819 0.035214 0.08752 
-1.8428 -1.85573 0.394276 -6.26412 0.019099 0.47094 
-1.85284 -1.78153 0.176485 -6.27901 0.09102 0.119439 
-1.8516 -1.68362 0.081708 -6.28095 0.084663 -0.039603 
-1.85101 -1.88028 0.260854 -6.27551 0.010354 0.266223 
-1.85022 -1.40278 -0.005325 -6.27976 -0.017554 -0.147961 
-1.84526 -1.32538 -0.125582 -6.27138 0.067942 -0.344441 
-1.84092 -1.19203 -0.138024 -6.27052 0.211039 -0.324739 
-1.83256 -1.10085 -0.227958 -6.2709 0.19763 -0.338219 
-1.82442 -1.01059 -0.324747 -6.26584 0.174709 0.060862 
-1.82637 -0.919598 -0.427107 -5.73046 0.244028 1.83068 
-1.85972 -0.822341 -0.499197 -5.0806 0.42657 3.4415 
-1.91643 -0.722839 -0.567411 -4.77745 0.648301 4.00752 
-1.80849 -2.04676 0.684171 -6.19306 -0.027781 1.02489 
-1.78891 -2.24073 0.773883 -6.1582 -0.064443 1.22672 
-1.80812 -2.16792 0.666192 -6.21326 -0.147754 0.912908 
-1.83524 -1.96755 0.474793 -6.25149 -0.079681 0.610553 
-1.82408 -2.07193 0.56056 -6.23895 -0.132776 0.723708 
-2.00564 0.358222 -1.51771 -6.25968 0.399717 0.239712 
-2.00901 0.21857 -1.50007 -6.27679 0.218927 0.175354 
-1.8476 0.756767 -1.84533 -2.77466 5.58305 -0.28532 
-1.95349 0.690563 -1.83672 -4.66606 3.37809 -0.54919 
-1.98628 0.577039 -1.81445 -6.11616 1.01479 -0.593656 
-2.00583 0.404499 -1.65109 -6.26078 0.410456 0.004812 
-1.9997 0.454654 -1.7839 -6.23072 0.394148 -0.479114 
-1.67968 0.812048 -1.96377 -1.63671 3.98175 -3.24004 
-1.13474 0.881993 -2.01578 -0.547815 1.33528 -6.09862 
-1.25244 0.849422 -2.01375 -0.506712 1.43425 -6.07429 
-1.39266 0.81302 -2.00911 -0.740475 1.60085 -5.99749 
-1.52318 0.772903 -2.00325 -0.765257 1.83091 -5.92831 
-1.80285 0.762265 -1.95309 -2.0623 3.8677 -3.2067 
-1.96835 -0.632803 -0.647602 -5.3186 0.703608 3.00375 
-1.99351 -0.556933 -0.744302 -5.98684 0.652247 1.65659 
-2.00644 -0.499298 -0.852857 -6.19151 0.545413 0.900741 
-2.01454 -0.24258 -1.09889 -6.24776 0.40961 0.513054 
-2.02342 -0.251288 -1.23104 -6.26695 0.327044 0.293926 
-2.02171 -0.140267 -1.30107 -6.26993 0.283241 0.246639 
-2.01916 -0.033572 -1.37805 -6.27113 0.318106 0.168386 
-2.01669 -0.360428 -1.03233 -6.2396 0.428453 0.586834 
-2.01858 -0.470172 -0.97135 -6.23169 0.441967 0.653697 
-2.0137 0.084671 -1.4575 -6.27362 0.317468 0.131898 
-0.969485 2.47345 -1.94729 -0.410074 0.05159 -6.26862 
-1.00204 2.60895 -1.94244 -0.380297 0.161191 -6.26938 
-0.940125 2.71997 -1.94257 -0.347441 0.207017 -6.27008 
-0.835143 2.97764 -1.93843 -0.325527 0.225461 -6.27069 
-0.861887 2.84114 -1.94219 -0.323925 0.235608 -6.2704 
-0.588236 4.01743 -1.91467 -0.533645 0.126464 -6.25871 
-0.562049 4.13888 -1.9155 -0.465876 0.097705 -6.26503 
-0.463145 4.21751 -1.9206 -0.365633 0.192274 -6.2692 
-0.480181 4.34125 -1.91535 -0.323287 0.26019 -6.26902 
-0.743671 3.086 -1.93966 -0.366867 0.212384 -6.26874 
-0.705079 3.22624 -1.93717 -0.461397 0.263921 -6.26052 
-0.572499 3.89351 -1.91996 -0.57467 0.206895 -6.25341 
-0.812317 2.6926 -1.95039 -0.336441 0.2062 -6.27069 
-0.879122 2.57502 -1.95017 -0.339841 0.157654 -6.27193 
1.726 -3.39449 1.55076 5.17693 -0.454164 3.49128 
1.6533 -3.44405 1.64253 4.97745 -0.574791 3.77207 
2.05404 -3.04391 0.797251 6.01679 -0.007991 1.79814 
2.0941 -2.9998 0.654893 6.04645 0.184395 1.68873 
2.0143 -3.10239 0.917684 5.95973 -0.207487 1.97568 
1.97203 -3.15737 1.02917 5.92222 -0.249587 2.07947 
1.93376 -3.2112 1.13028 5.90862 -0.186964 2.12029 
2.15024 -2.91231 0.424889 6.09474 0.388343 1.4598 
2.12979 -3.01997 0.52525 6.07734 0.177496 1.57654 
1.85773 -3.32282 1.31394 5.70628 -0.299608 2.60947 
1.91223 -3.32271 1.18729 5.84274 -0.064239 2.30615 
2.20092 -2.65334 -0.015035 6.18593 0.915961 0.521246 
2.19922 -2.73713 0.094951 6.17916 0.714649 0.845446 
2.19222 -2.8333 0.198477 6.16034 0.526834 1.0954 
2.18057 -2.92977 0.292527 6.14253 0.322449 1.26732 
1.76663 -3.48601 1.46625 5.351 -0.742391 3.1904 
1.82896 -3.44496 1.36036 5.56284 -0.51961 2.86281 
2.21129 -2.67364 -0.149033 6.20805 0.901608 0.187016 
0.381082 -3.12954 2.33308 1.07234 1.91956 5.79249 
0.253369 -3.11105 2.34193 0.257498 1.8468 5.91273 
-0.0331 -3.11798 2.32725 -0.770677 1.69958 5.968 
-0.127243 -3.0417 2.27944 -0.697742 0.044527 5.84293 
0.169567 -3.20379 2.35893 -0.160669 1.05988 6.17512 
0.049713 -3.19136 2.35304 -0.444079 1.16032 6.12214 
0.944565 -3.43041 2.18003 -1.02942 -0.597765 6.15235 
0.822861 -3.38763 2.16672 1.5458 -0.357274 5.53919 
1.2318 -3.48099 2.08232 3.93125 0.024376 4.83166 
1.13436 -3.43511 2.15425 3.25373 0.172637 5.27812 
1.32958 -3.50708 1.99619 4.22198 -0.116091 4.60111 
1.04866 -3.50866 2.19801 0.746979 -0.498038 5.63364 
0.677118 -3.28752 2.27794 3.24506 0.95118 5.14854 
0.725166 -3.39857 2.24974 3.87407 0.290264 4.91376 
0.554592 -3.27994 2.32804 1.65652 0.890771 5.90843 
0.426051 -3.25642 2.3498 1.03037 0.730199 6.11825 
1.4219 -3.52392 1.90216 4.51644 -0.341625 4.33569 
1.51375 -3.5315 1.79919 4.72271 -0.548441 4.1002 
-0.366145 -3.02523 2.29027 0.548092 -2.33261 5.80307 
-0.249821 -3.08921 2.2599 -0.924948 -0.120517 5.71515 
1.6029 -3.57003 1.6817 4.95678 -0.732221 3.78881 
2.19579 -2.53921 -0.463532 6.23161 0.746024 0.25001 
2.20723 -2.64934 -0.403347 6.23052 0.80128 0.026378 
2.21736 -2.71468 -0.28756 6.22683 0.825025 -0.021022 
2.19332 -2.48204 -0.588128 6.2474 0.639876 0.169827 
2.18865 -2.41616 -0.719244 6.25334 0.60775 0.05435 
2.17836 -2.30632 -0.820677 6.25093 0.62992 -0.049722 
2.15238 -2.11426 -1.0418 6.24262 0.695989 -0.148556 
2.16352 -2.1863 -0.917423 6.24037 0.718319 -0.137508 
2.14401 -2.06738 -1.16553 6.24285 0.648853 -0.26788 
2.13042 -2.01692 -1.3092 6.2327 0.591387 -0.510319 
1.2591 -0.703876 -1.98724 0.696015 -0.105627 -6.24285 
1.27707 -0.837766 -1.98246 0.777341 -0.137104 -6.23264 
1.54185 -1.24176 -1.9226 1.28806 -0.276203 -6.14289 
1.66667 -1.28573 -1.89189 1.63233 -0.299966 -6.05663 
1.31276 -0.963461 -1.9744 0.887258 -0.179469 -6.21709 
1.3566 -1.08524 -1.9636 0.998735 -0.23854 -6.19825 
1.40172 -1.20695 -1.95086 1.07428 -0.275166 -6.18405 
2.06499 -1.79676 -1.58778 5.84161 0.306107 -2.15283 
2.00866 -1.81261 -1.68896 4.56332 -0.215863 -4.13877 
1.93866 -1.70638 -1.75367 3.42721 -0.443294 -5.19147 
1.85905 -1.60052 -1.80201 2.65496 -0.422387 -5.67275 
1.68868 -1.41067 -1.88022 1.77582 -0.319431 -6.01208 
1.76767 -1.50141 -1.848 2.1864 -0.42137 -5.8686 
2.11339 -1.93922 -1.40942 6.20276 0.579204 -0.78718 
2.09052 -1.92471 -1.53385 6.00682 0.473113 -1.67999 
0.79789 -0.634059 -2.02176 0.345974 -0.128393 -6.2722 
0.906704 -0.695018 -2.01325 0.378415 -0.12693 -6.27 
0.679859 -0.646102 -2.02759 0.319779 -0.079159 -6.2745 
1.02761 -0.748818 -2.00533 0.397883 -0.074095 -6.2699 
1.14883 -0.796869 -1.99678 0.547593 -0.072938 -6.25804 
0.547705 -0.689846 -2.03416 0.349918 -0.037878 -6.27329 
0.335279 -0.622269 -2.04542 0.310173 0.050546 -6.27527 
0.425966 -0.732689 -2.04113 0.382075 0.025747 -6.27139 
-0.624284 0.296788 -2.07638 -0.150855 0.169862 -6.27892 
-0.707036 0.415633 -2.07136 -0.082318 0.213276 -6.27881 
-0.791856 0.535778 -2.06597 -0.069099 0.308744 -6.27458 
-1.05208 0.802219 -2.03289 -0.35109 0.869461 -6.21224 
-0.937257 0.538288 -2.06376 -0.115898 0.369857 -6.27021 
-1.03683 0.658376 -2.05159 -0.217049 0.647607 -6.24451 
-0.518826 -0.063406 -2.0849 -0.107822 0.058558 -6.2812 
-0.431731 -0.171631 -2.08677 0.053984 0.072773 -6.28092 
-0.595384 0.053089 -2.08143 -0.185138 0.06295 -6.2801 
-0.673733 0.173832 -2.07713 -0.153444 0.103805 -6.28011 
-0.238713 -0.364671 -2.08125 0.391679 -0.000333 -6.26965 
-0.342251 -0.283802 -2.08601 0.213412 0.04567 -6.27783 
-0.000355 -0.438276 -2.06201 0.425526 -0.038981 -6.26833 
0.101093 -0.536792 -2.0556 0.329895 0.004576 -6.27424 
-0.13953 -0.47201 -2.07279 0.501932 -0.02178 -6.26305 
0.199534 -0.642728 -2.05172 0.283911 0.082803 -6.27601 
-0.976517 -2.775 2.11956 -3.35714 0.710695 5.22519 
-1.07067 -2.72205 2.04539 -3.70046 0.819866 4.9854 
-0.872147 -2.83389 2.18879 -3.06605 0.503892 5.42698 
-1.25308 -2.73952 1.89044 -4.29757 0.477782 4.55124 
-1.16926 -2.80243 1.9733 -4.10774 0.329998 4.72831 
-1.41506 -2.71987 1.71198 -4.87257 0.45771 3.93654 
-1.3426 -2.79862 1.80513 -4.54258 0.508557 4.30647 
-1.70183 -2.38862 1.08991 -5.99897 0.249362 1.84545 
-1.76274 -2.32376 0.880625 -6.07169 0.047494 1.61045 
-1.7372 -2.41493 0.973487 -6.01246 0.336635 1.77307 
-1.55464 -2.70095 1.51218 -5.06877 1.18669 3.46188 
-1.59934 -2.62962 1.41326 -5.44684 1.13187 2.8624 
-1.63307 -2.56022 1.31707 -5.69599 0.792577 2.49435 
-1.67602 -2.53709 1.20452 -5.82209 0.875002 2.15834 
-1.71487 -2.51837 1.07839 -5.82343 1.13696 1.94108 
-1.50045 -2.77513 1.60898 -4.82158 1.09933 3.84384 
-0.486029 -3.09089 2.28327 0.871272 -1.79737 5.93597 
-0.747238 -3.02902 2.25518 -2.60212 -0.090114 5.70937 
-0.637986 -3.07461 2.29411 -1.06809 -0.558976 6.07596 
-0.857767 -2.96242 2.19762 -3.15816 -0.047708 5.4271 
-1.84885 -1.5561 0.00489 -6.28048 -0.008934 -0.159756 
-1.84541 -1.98981 0.344571 -6.26779 -0.08997 0.414057 
-1.85375 -1.91631 0.119101 -6.27827 -0.067695 -0.078221 
-1.85226 -1.80813 0.0393 -6.27577 -0.010798 -0.225391 
-1.84753 -1.69678 -0.052185 -6.2737 0.007341 -0.323315 
-1.85184 -2.00731 0.209342 -6.27816 -0.096474 0.135445 
-1.84555 -1.47405 -0.106867 -6.27413 -0.064748 -0.317946 
-1.83968 -1.41066 -0.20841 -6.27272 -0.014869 -0.358021 
-1.83518 -1.26067 -0.255962 -6.27406 0.162675 -0.186526 
-1.82783 -1.15126 -0.341813 -6.19772 0.299767 0.490261 
-1.83673 -1.05147 -0.439397 -5.33449 0.436073 2.5367 
-1.89858 -0.961293 -0.519369 -4.66944 0.629459 4.13986 
-1.94855 -0.865106 -0.581509 -4.85016 0.619212 3.87602 
-1.98723 -0.768677 -0.658547 -5.59353 0.591152 2.59748 
-1.79549 -2.38125 0.745361 -6.13679 0.466244 1.21991 
-1.80836 -2.29496 0.642525 -6.2239 0.068498 0.841197 
-1.8241 -2.20217 0.52867 -6.24416 -0.139739 0.681907 
-1.83603 -2.10372 0.432332 -6.25695 -0.143871 0.550766 
-2.0107 0.262555 -1.62217 -6.27796 0.16746 -0.036587 
-2.01462 0.107126 -1.59387 -6.27768 0.219794 -0.056529 
-1.90934 0.714432 -1.9346 -3.00127 3.05905 -2.68783 
-1.96036 0.616898 -1.92398 -4.6103 1.17918 -2.97112 
-1.97904 0.487692 -1.91068 -5.26998 0.321326 -2.68422 
-2.00523 0.318787 -1.74964 -6.26311 0.131248 -0.419036 
-1.9912 0.366579 -1.87249 -5.91817 0.166879 -1.75221 
-1.65294 0.727018 -2.00204 -0.848943 1.76162 -5.92936 
-1.76796 0.674528 -1.99711 -1.38291 1.63751 -5.84402 
-1.1626 0.742692 -2.03527 -0.317335 0.88449 -6.21215 
-1.29239 0.734498 -2.02958 -0.353263 0.995565 -6.19329 
-1.41963 0.686464 -2.03006 -0.453919 1.09309 -6.16918 
-1.55287 0.648831 -2.02633 -0.502303 1.12445 -6.15976 
-1.8715 0.631171 -1.97741 -2.42237 1.23059 -5.54414 
-2.00943 -0.692712 -0.761506 -6.09453 0.545113 1.35518 
-2.0204 -0.630183 -0.869485 -6.20862 0.550689 0.761916 
-2.02799 -0.590771 -0.988239 -6.24259 0.458336 0.541772 
-2.02725 -0.377615 -1.16644 -6.26138 0.38384 0.345832 
-2.02756 -0.261814 -1.37537 -6.27667 0.269411 0.075286 
-2.03198 -0.374863 -1.2956 -6.26957 0.375604 0.163009 
-2.02441 -0.151996 -1.44801 -6.27932 0.208197 0.033224 
-2.02049 -0.030358 -1.51905 -6.27726 0.25467 0.011787 
-2.03053 -0.493288 -1.09917 -6.25586 0.394921 0.423436 
1.6899 -3.54108 1.5686 5.12631 -0.848853 3.53005 
2.08022 -3.12198 0.703399 6.02407 -0.031432 1.78451 
2.04216 -3.18603 0.822487 5.97504 -0.071448 1.9394 
2.11362 -3.15149 0.589024 6.04389 0.066647 1.7153 
2.00166 -3.25153 0.937085 5.92848 -0.042311 2.0745 
1.96353 -3.31092 1.04885 5.91599 0.016124 2.11563 
2.16492 -3.03571 0.379874 6.12424 0.191309 1.38898 
2.14818 -3.12626 0.460769 6.09054 0.127401 1.5353 
1.8929 -3.4425 1.23242 5.72009 -0.421163 2.51294 
1.94323 -3.42922 1.10848 5.86568 -0.36774 2.16379 
2.21791 -2.7797 -0.042127 6.23064 0.622221 0.464966 
2.21486 -2.8617 0.065936 6.21209 0.493632 0.762467 
2.20648 -2.96778 0.164901 6.18303 0.292812 1.06267 
2.1923 -3.06068 0.254603 6.15769 0.20715 1.23029 
1.80156 -3.59025 1.37654 5.45329 -0.790719 3.01316 
1.7322 -3.63185 1.48109 5.26127 -0.861476 3.32326 
1.86034 -3.55418 1.27196 5.64498 -0.722721 2.65176 
2.22597 -2.79634 -0.173394 6.24415 0.648747 0.191454 
0.297087 -3.23404 2.36302 0.435054 0.793628 6.18348 
-0.149183 -3.16181 2.32385 -1.29387 1.60563 5.82697 
-0.057716 -3.26813 2.35107 -0.762262 0.615589 6.19159 
0.072936 -3.31196 2.36735 -0.427563 0.444745 6.24221 
0.204475 -3.33242 2.37401 0.069411 0.308167 6.25207 
0.945867 -3.59953 2.15691 -1.03045 -0.903684 6.11313 
0.858598 -3.50869 2.14683 0.845466 -0.501247 5.63021 
0.757688 -3.51814 2.22019 4.0923 -0.174244 4.75571 
1.25262 -3.60888 2.04853 3.92193 -0.663316 4.85859 
1.14926 -3.56658 2.13379 3.35377 -0.750769 5.22418 
1.35391 -3.63926 1.95517 4.34694 -0.591505 4.49297 
1.05819 -3.6466 2.16804 1.06312 -0.969506 5.82096 
0.613541 -3.39867 2.3228 2.08988 0.279622 5.75874 
0.654356 -3.51921 2.31093 2.61538 -0.105512 5.44196 
0.474922 -3.38282 2.34474 0.957498 -0.018506 6.2062 
0.339249 -3.35658 2.36567 0.692326 0.025514 6.22782 
1.4429 -3.65083 1.86015 4.62448 -0.614039 4.20779 
1.52924 -3.64544 1.76217 4.82144 -0.652134 3.97294 
-0.360202 -3.14488 2.23722 -0.536559 -0.441026 5.61238 
-0.271232 -3.20561 2.29644 -2.20543 1.36654 5.64824 
1.6532 -3.67342 1.59079 5.13921 -0.780837 3.52766 
1.57782 -3.72623 1.68658 4.9918 -0.713948 3.74377 
2.20574 -2.62543 -0.552836 6.25769 0.5597 0.060299 
2.21702 -2.75116 -0.540834 6.24747 0.657771 -0.06981 
2.22365 -2.78695 -0.420785 6.23684 0.752819 -0.115755 
2.23286 -2.84803 -0.308176 6.24302 0.701463 -0.009634 
2.20327 -2.56935 -0.680469 6.26045 0.516719 0.060811 
2.20033 -2.52908 -0.800941 6.25764 0.553831 -0.009404 
2.19036 -2.43428 -0.871565 6.25283 0.613251 -0.0559 
2.17897 -2.32978 -0.951544 6.24645 0.662368 -0.128132 
2.15991 -2.21988 -1.16258 6.23864 0.66308 -0.326847 
2.16617 -2.23665 -1.03759 6.24112 0.700514 -0.18795 
2.14509 -2.13876 -1.26287 6.23704 0.598675 -0.463335 
2.13444 -2.141 -1.38623 6.20523 0.519744 -0.800076 
2.11604 -2.04531 -1.46292 6.14025 0.504439 -1.14742 
1.16869 -0.927489 -1.99349 0.642253 -0.101869 -6.24798 
1.57216 -1.37863 -1.91059 1.37294 -0.269553 -6.1239 
1.44281 -1.33242 -1.93837 1.12562 -0.251258 -6.17561 
1.21287 -1.04794 -1.9862 0.769394 -0.162333 -6.23169 
1.25542 -1.17615 -1.97611 0.882668 -0.266361 -6.21329 
1.29994 -1.2953 -1.96309 0.935219 -0.28515 -6.20639 
2.04947 -1.92773 -1.63578 5.08172 0.021624 -3.46695 
1.91144 -1.8338 -1.75812 3.12599 -0.510658 -5.39546 
1.97123 -1.94391 -1.70876 3.68822 -0.497682 -5.0152 
1.82532 -1.72738 -1.8082 2.52702 -0.43844 -5.72954 
1.73296 -1.62566 -1.85194 2.11076 -0.376804 -5.90066 
1.6308 -1.52662 -1.8896 1.62821 -0.32499 -6.05503 
2.08405 -2.04883 -1.58115 5.45452 0.071096 -2.82579 
0.779355 -0.765837 -2.02031 0.357594 -0.099645 -6.27218 
0.915815 -0.82983 -2.01169 0.354763 -0.045943 -6.27296 
0.64362 -0.770298 -2.02787 0.367556 -0.0897 -6.27175 
1.03298 -0.890047 -2.00497 0.418272 -0.044591 -6.26837 
0.526552 -0.846014 -2.03434 0.435595 -0.051678 -6.26773 
0.286955 -0.75461 -2.04986 0.338687 0.090351 -6.27322 
0.378512 -0.860559 -2.04559 0.416017 -0.015251 -6.26832 
-0.764683 0.293778 -2.07318 -0.080452 0.141756 -6.28088 
-0.844804 0.415762 -2.0698 -0.059884 0.197738 -6.27963 
-1.07311 0.527825 -2.06181 -0.111651 0.435022 -6.26633 
-0.978404 0.410097 -2.06901 -0.053672 0.235616 -6.27817 
-1.1764 0.616325 -2.05207 -0.19889 0.697708 -6.23828 
-0.575576 -0.192481 -2.08465 -0.15413 0.081504 -6.28066 
-0.655411 -0.076131 -2.0804 -0.170305 0.065857 -6.28026 
-0.480939 -0.29411 -2.08784 -0.031224 0.041398 -6.28189 
-0.729292 0.046676 -2.07777 -0.090096 0.05998 -6.28191 
-0.807255 0.168918 -2.07588 -0.026985 0.119874 -6.28191 
-0.270365 -0.488953 -2.08282 0.347119 -0.023704 -6.27234 
-0.385491 -0.420059 -2.08729 0.125362 -0.013815 -6.28066 
-0.041802 -0.560173 -2.06422 0.461397 0.005656 -6.26541 
0.061357 -0.659181 -2.05804 0.344385 0.082842 -6.27207 
-0.199547 -0.601237 -2.07773 0.432739 0.003639 -6.26766 
0.146049 -0.767137 -2.05705 0.293904 0.120942 -6.27502 
-0.967686 -2.9068 2.13051 -3.48934 -0.030948 5.21371 
-1.07231 -2.85475 2.05688 -3.82028 0.105817 4.96047 
-1.26262 -2.88356 1.8916 -4.22845 0.360428 4.63082 
-1.15918 -2.93444 1.9822 -3.98148 0.147531 4.85475 
-1.43979 -2.84793 1.70366 -4.68106 0.882723 4.09255 
-1.377 -2.92235 1.78954 -4.47549 0.484078 4.35854 
-1.77632 -2.44965 0.846776 -5.99272 0.749246 1.68243 
-1.75831 -2.54231 0.950186 -5.45405 2.02892 1.88431 
-1.5991 -2.82498 1.51685 -4.77772 1.44612 3.76698 
-1.64433 -2.74778 1.41231 -4.94117 2.06661 3.25775 
-1.67254 -2.6734 1.28997 -5.12397 2.2833 2.66309 
-1.71864 -2.64249 1.15717 -5.15943 2.46582 2.30506 
-1.77714 -2.64022 1.03852 -4.9787 2.92514 2.38675 
-1.53822 -2.90244 1.61278 -4.67287 0.795273 4.06174 
-0.465189 -3.21428 2.23782 0.723944 -0.585162 5.9233 
-0.591815 -3.18384 2.28756 0.46139 -0.760125 6.06557 
-0.727143 -3.16589 2.26512 -2.05414 -0.181391 5.87664 
-0.842915 -3.08943 2.20595 -3.04633 0.13315 5.48963 
-0.950236 -3.0398 2.13748 -3.44868 0.108747 5.24711 
-1.84275 -1.59596 -0.124238 -6.27328 -0.028706 -0.34818 
-1.84529 -2.12002 0.305401 -6.27031 -0.115579 0.372805 
-1.84887 -2.05617 0.061946 -6.27089 -0.126193 -0.319903 
-1.84706 -1.93621 -0.01613 -6.2592 -0.17157 -0.482528 
-1.8437 -1.82026 -0.090929 -6.26405 -0.154777 -0.451377 
-1.83804 -1.69609 -0.198382 -6.27164 0.012886 -0.015066 
-1.85037 -2.12536 0.175239 -6.27988 -0.092723 0.048673 
-1.8363 -1.54295 -0.241917 -6.26062 0.043254 0.1126 
-1.8352 -1.3925 -0.309553 -6.18896 0.201119 0.609752 
-1.8401 -1.28061 -0.391041 -5.5529 0.552004 2.12446 
-1.85723 -1.17745 -0.44806 -4.95897 0.678391 3.32634 
-1.92983 -1.08492 -0.524794 -4.50537 0.796874 4.28616 
-1.99601 -1.01263 -0.616647 -5.33596 0.707482 2.96544 
-2.0057 -0.90394 -0.670241 -5.7942 0.604376 2.18123 
-2.02172 -0.828588 -0.76824 -6.13184 0.54499 1.22167 
-1.81838 -2.42019 0.617273 -6.0816 1.09868 0.889617 
-1.82562 -2.51757 0.708212 -5.1672 2.76627 1.43429 
-1.82369 -2.32831 0.513045 -6.22957 0.265236 0.703378 
-1.83678 -2.24141 0.387562 -6.2573 -0.00056 0.556516 
-2.00909 0.176636 -1.71857 -6.26905 0.109304 -0.373281 
-2.01967 -0.042017 -1.64283 -6.2708 0.20421 -0.259825 
-2.01202 0.044839 -1.71678 -6.26501 0.187588 -0.420538 
-1.90824 0.51406 -1.97316 -3.25225 0.519061 -5.25312 
-1.93141 0.376978 -1.97138 -3.90408 0.334156 -4.62778 
-1.99812 0.224783 -1.83644 -6.18127 0.048991 -1.02427 
-1.97398 0.273884 -1.93272 -5.18716 0.163005 -3.06237 
-1.68462 0.59975 -2.02434 -0.759024 1.00183 -6.14267 
-1.80421 0.544141 -2.0127 -1.6295 0.740466 -5.97166 
-1.30638 0.612381 -2.04864 -0.239092 0.803601 -6.22161 
-1.45188 0.565323 -2.04794 -0.368667 0.762156 -6.21791 
-1.58093 0.516149 -2.04506 -0.477406 0.644796 -6.22264 
-2.03373 -0.766783 -0.881599 -6.21763 0.518271 0.703179 
-2.03877 -0.720587 -0.996718 -6.24674 0.501385 0.449296 
-2.03953 -0.626311 -1.11299 -6.25721 0.417681 0.3866 
-2.03921 -0.519007 -1.23171 -6.26449 0.399682 0.265323 
-2.03382 -0.377926 -1.44413 -6.27146 0.380265 -0.010236 
-2.02776 -0.276629 -1.52693 -6.27715 0.252353 -0.081704 
-2.04079 -0.482365 -1.35879 -6.26711 0.427808 0.093144 
-2.02431 -0.165119 -1.58267 -6.27851 0.164072 -0.133584 
2.0764 -3.25153 0.716155 5.99917 0.054531 1.86667 
2.03856 -3.32886 0.838985 5.94572 -0.071986 2.01357 
2.14568 -3.24265 0.479457 6.07272 0.136394 1.6046 
2.11175 -3.29495 0.604084 6.02121 0.071827 1.79087 
1.99738 -3.4064 0.954783 5.92502 -0.340075 2.02337 
2.1779 -3.18065 0.341861 6.12674 0.174329 1.37891 
1.9087 -3.57369 1.14968 5.81631 -0.720405 2.26182 
1.95881 -3.51709 1.02992 5.91097 -0.726146 2.00146 
2.23074 -2.91464 -0.071189 6.24838 0.473028 0.44518 
2.22611 -2.9827 0.041071 6.22627 0.328114 0.725678 
2.22225 -3.09796 0.098046 6.21254 0.170626 0.898765 
2.2061 -3.16764 0.206516 6.17228 0.181581 1.14712 
1.84912 -3.68174 1.26197 5.59575 -0.945434 2.65679 
1.77696 -3.72486 1.38419 5.38169 -1.09187 3.02385 
1.70032 -3.7675 1.49676 5.27187 -1.04626 3.24084 
2.23807 -2.9135 -0.198491 6.2512 0.563724 0.238534 
-0.187437 -3.27851 2.33372 -1.39256 0.532206 6.0493 
-0.146807 -3.38676 2.34298 -1.13928 0.075194 6.16968 
-0.022413 -3.40651 2.36149 -0.747465 0.097891 6.23172 
0.110166 -3.43548 2.37423 -0.257972 -0.030327 6.26152 
0.245576 -3.45644 2.37123 0.416622 -0.235314 6.25441 
0.983451 -3.74205 2.14824 -0.983607 -0.973817 6.03695 
0.865113 -3.7164 2.11478 0.926547 -0.971136 5.44437 
0.817087 -3.617 2.15361 2.63642 -0.66674 5.2457 
0.699211 -3.62969 2.27486 3.58803 -0.343324 4.98228 
1.28446 -3.73561 2.00785 4.06806 -0.542141 4.74574 
1.16786 -3.69434 2.09856 3.47388 -0.613453 5.19322 
1.38677 -3.77509 1.90446 4.50996 -0.59639 4.32778 
1.09599 -3.78078 2.13658 1.99906 -0.742762 5.71178 
0.520957 -3.50796 2.33474 0.917296 -0.185278 6.21158 
0.565685 -3.63923 2.32518 1.31015 -0.271697 6.10453 
0.381256 -3.48126 2.35393 0.780894 -0.291734 6.2273 
1.48394 -3.76462 1.79733 4.76744 -0.651413 4.03654 
-0.370435 -3.26516 2.25937 -2.05016 0.777501 5.85438 
-0.292264 -3.35215 2.30713 -2.08158 0.347051 5.87327 
1.62431 -3.81766 1.60209 5.17008 -0.962804 3.4222 
1.54147 -3.85698 1.70933 4.97604 -0.861424 3.72628 
2.21245 -2.7072 -0.669771 6.26348 0.491418 -0.013331 
2.23326 -2.88706 -0.541395 6.24023 0.717095 -0.148574 
2.22522 -2.84479 -0.661611 6.24742 0.654634 -0.123801 
2.24099 -2.93071 -0.423364 6.24403 0.687595 -0.101426 
2.2479 -2.9881 -0.306489 6.25529 0.546517 0.09582 
2.20936 -2.65585 -0.796904 6.26921 0.417347 -0.007973 
2.20411 -2.58446 -0.929235 6.26128 0.49696 -0.095513 
2.19138 -2.4636 -1.0042 6.25197 0.595596 -0.167878 
2.17743 -2.35197 -1.08965 6.24382 0.651206 -0.246258 
2.17078 -2.35378 -1.22126 6.22935 0.584761 -0.527987 
2.15298 -2.25591 -1.30466 6.22275 0.564868 -0.642173 
2.11331 -2.16647 -1.51537 5.79046 0.030537 -2.14506 
2.13681 -2.26637 -1.43561 6.03512 0.183788 -1.53957 
1.05906 -1.01862 -2.00174 0.474748 -0.117351 -6.26276 
1.49104 -1.4645 -1.92383 1.23648 -0.260251 -6.15374 
1.34874 -1.41893 -1.95092 0.978016 -0.235405 -6.20136 
1.12142 -1.13548 -1.99376 0.605866 -0.194798 -6.2488 
1.14963 -1.27179 -1.98515 0.72749 -0.271805 -6.23378 
1.21239 -1.39471 -1.971 0.838386 -0.255849 -6.22167 
2.01461 -2.06029 -1.66419 4.08402 -0.524577 -4.64818 
1.79888 -1.85629 -1.80834 2.46123 -0.540599 -5.75213 
1.86501 -1.96567 -1.76741 2.78004 -0.653715 -5.58532 
1.91396 -2.07807 -1.72695 3.09631 -0.752928 -5.40325 
1.7044 -1.75914 -1.85357 2.07997 -0.402099 -5.90965 
1.61614 -1.67646 -1.88568 1.65518 -0.314511 -6.04883 
1.52153 -1.58979 -1.9121 1.32211 -0.274898 -6.13514 
2.05633 -2.17456 -1.61027 4.56736 -0.632673 -4.09336 
0.676357 -0.885043 -2.02377 0.373754 -0.106744 -6.27101 
0.808401 -0.892778 -2.01671 0.319802 -0.091369 -6.27434 
0.909693 -0.980666 -2.01095 0.315857 -0.092119 -6.27422 
0.602029 -0.985585 -2.02695 0.439943 -0.109561 -6.26667 
0.467266 -0.974463 -2.03777 0.453679 -0.109038 -6.26543 
0.225376 -0.879108 -2.05471 0.32934 -0.043991 -6.27273 
0.33005 -0.984856 -2.04646 0.362541 -0.156186 -6.27041 
-0.905384 0.292191 -2.07251 -0.025515 0.165314 -6.28095 
-1.21909 0.481883 -2.06239 -0.151774 0.375741 -6.26787 
-1.10855 0.405775 -2.06817 -0.103225 0.244215 -6.27632 
-1.05266 0.288307 -2.07207 -0.086913 0.15341 -6.28035 
-0.71714 -0.204112 -2.08062 -0.144541 0.089098 -6.28072 
-0.633785 -0.320912 -2.085 -0.165058 0.014883 -6.28027 
-0.790943 -0.079899 -2.07787 -0.053945 0.042284 -6.28238 
-0.520379 -0.407504 -2.08762 -0.1059 -0.047007 -6.28066 
-0.862939 0.043389 -2.07774 -0.003099 0.052115 -6.28283 
-0.93612 0.169505 -2.07594 -0.026895 0.131239 -6.28142 
-0.359386 -0.575323 -2.08602 0.151951 -0.044539 -6.27959 
-0.484682 -0.535565 -2.08666 -0.098943 -0.073037 -6.28086 
-0.077602 -0.675917 -2.06807 0.477798 0.051066 -6.26466 
0.000101 -0.77759 -2.06383 0.356401 0.105801 -6.27181 
-0.313917 -0.696977 -2.08402 0.205712 -0.036264 -6.27798 
-0.182503 -0.734597 -2.07698 0.419348 -0.004732 -6.26828 
0.072781 -0.878581 -2.06217 0.298747 -0.047961 -6.27419 
-1.05421 -2.98738 2.0639 -3.7151 0.048298 5.06124 
-1.23381 -3.02936 1.92896 -4.11494 0.154194 4.72999 
-1.31777 -3.00469 1.8527 -4.32102 0.07463 4.53763 
-1.13617 -3.07178 2.00943 -3.83635 0.198668 4.96557 
-1.46984 -2.97932 1.69804 -4.61516 0.129905 4.2041 
-1.39893 -3.06386 1.76817 -4.55883 -0.349844 4.29365 
-1.80602 -2.55352 0.826011 -4.96426 2.95451 1.82443 
-1.8479 -2.63731 0.91339 -4.66013 3.46016 2.32856 
-1.62257 -2.95306 1.51672 -4.99818 -0.019366 3.68332 
-1.68439 -2.87812 1.42251 -5.11035 0.697439 3.42492 
-1.72897 -2.79927 1.3295 -5.02763 1.67933 3.07341 
-1.7654 -2.74098 1.22177 -4.95624 2.54723 2.53825 
-1.82128 -2.74878 1.10649 -5.24699 2.13449 2.36352 
-1.87332 -2.73389 0.981581 -5.2336 2.00709 2.54448 
-1.55033 -3.03362 1.60051 -4.88197 -0.519855 3.87459 
-0.448873 -3.35142 2.23864 -0.860738 0.136464 6.00243 
-0.552091 -3.30643 2.25772 1.15959 -0.616059 6.13391 
-0.673218 -3.28407 2.27624 -0.889279 -0.647832 5.98565 
-0.835024 -3.20705 2.21529 -2.88735 -0.233237 5.53241 
-0.783385 -3.30621 2.22942 -2.62288 -0.597023 5.66878 
-0.939398 -3.17395 2.15366 -3.36942 -0.016981 5.27801 
-1.03835 -3.12624 2.08386 -3.63215 0.142096 5.11736 
-1.84694 -2.23787 0.245386 -6.27464 0.085613 0.280745 
-1.84827 -2.21228 0.095691 -6.27734 0.107831 -0.174439 
-1.83651 -2.05367 -0.078784 -6.25533 -0.195759 -0.546438 
-1.83964 -2.17607 -0.024127 -6.25173 0.06316 -0.603628 
-1.83187 -1.9522 -0.150375 -6.25249 -0.211744 -0.169876 
-1.83602 -1.82782 -0.202778 -6.25955 -0.106506 0.167108 
-1.84676 -1.77581 -0.308092 -5.58121 0.234378 2.24149 
-1.84446 -1.64448 -0.324061 -5.48211 0.369721 2.25604 
-1.84978 -1.51707 -0.359994 -5.26832 0.584853 2.67017 
-1.86313 -1.40135 -0.407303 -4.89981 0.763044 3.39184 
-1.93215 -1.33089 -0.481865 -4.39358 0.967232 4.38067 
-1.94707 -1.21357 -0.516909 -4.42089 0.848819 4.34585 
-2.01087 -1.15232 -0.609163 -5.42412 0.755622 2.82201 
-2.03634 -1.10257 -0.714998 -6.08384 0.636651 1.35894 
-2.03327 -0.975711 -0.760964 -6.13408 0.510847 1.20897 
-2.04304 -0.899743 -0.871412 -6.2189 0.493088 0.7219 
-1.83983 -2.44824 0.48577 -5.68932 2.04985 0.92059 
-1.86273 -2.52803 0.580173 -4.56271 3.73619 1.14861 
-1.90304 -2.62052 0.776781 -4.61048 3.61832 2.03269 
-1.94086 -2.6039 0.655173 -4.53933 3.77155 1.71499 
-1.83915 -2.36952 0.395403 -6.14878 0.817217 0.775407 
-1.84931 -2.35518 0.27786 -6.15954 0.926996 0.506666 
-2.001 0.083257 -1.82805 -6.19076 0.13124 -0.98629 
-2.01867 -0.154194 -1.70675 -6.26601 0.17065 -0.414976 
-2.00787 -0.063681 -1.80488 -6.21665 0.193032 -0.82653 
-1.83308 0.417751 -2.01515 -1.96371 0.383153 -5.90407 
-1.91426 0.214119 -1.9909 -3.44373 0.140087 -5.11092 
-1.84597 0.285244 -2.01693 -1.96496 0.2774 -5.9223 
-1.97682 0.139184 -1.92602 -5.36545 0.069319 -2.87519 
-1.71227 0.468288 -2.03696 -0.883632 0.482582 -6.18368 
-1.34687 0.495382 -2.05841 -0.199569 0.415953 -6.26272 
-1.46946 0.429511 -2.05726 -0.293097 0.264568 -6.26677 
-1.59542 0.378652 -2.05194 -0.445149 0.201933 -6.26001 
-2.05121 -0.864947 -1.00361 -6.25087 0.482281 0.400208 
-2.0493 -0.765513 -1.11677 -6.25859 0.448702 0.325461 
-2.04814 -0.659229 -1.23081 -6.26438 0.399852 0.267196 
-2.04936 -0.605526 -1.37018 -6.26879 0.39469 0.085869 
-2.04195 -0.502902 -1.48929 -6.2683 0.425181 -0.062963 
-2.03336 -0.398515 -1.58838 -6.26911 0.394574 -0.139634 
-2.02423 -0.292498 -1.6777 -6.26755 0.290214 -0.315343 
2.0752 -3.38484 0.724565 5.96567 -0.14839 1.95106 
2.03339 -3.46845 0.828872 5.89848 -0.445704 2.11416 
2.1444 -3.3687 0.494858 6.06261 -0.035735 1.6309 
2.17515 -3.31839 0.371206 6.12 0.022633 1.39987 
2.10871 -3.43464 0.613715 6.00399 -0.192865 1.83019 
1.99134 -3.55743 0.913557 5.86416 -0.537042 2.15869 
2.2017 -3.28557 0.242753 6.16971 0.018783 1.16656 
1.94882 -3.6446 1.0171 5.87506 -0.678109 2.11713 
1.90455 -3.70717 1.12155 5.76257 -1.07528 2.19327 
2.24583 -3.03078 -0.1731 6.2597 0.341671 0.369435 
2.23823 -3.06292 -0.048981 6.25145 0.20882 0.554205 
2.22411 -3.24323 0.10485 6.22125 0.03827 0.851124 
2.23653 -3.18978 -0.014744 6.25237 0.063037 0.609192 
1.85744 -3.79011 1.19405 5.51688 -1.75303 2.30088 
1.79794 -3.82008 1.29818 5.38436 -1.84081 2.59442 
1.72976 -3.86152 1.40507 5.34338 -1.76604 2.74549 
1.65851 -3.90762 1.51248 5.30949 -1.60676 2.90515 
-0.117589 -3.51513 2.34723 -1.04398 -0.179048 6.18568 
-0.241673 -3.47281 2.32219 -1.63211 -0.060092 6.05238 
0.01142 -3.53546 2.36387 -0.619884 -0.244551 6.23995 
0.147532 -3.5566 2.3704 0.016865 -0.3406 6.26176 
0.284971 -3.58067 2.35971 0.572281 -0.34767 6.24615 
0.898379 -3.84491 2.09895 -0.288817 -0.939653 5.91815 
1.02071 -3.88651 2.13348 -0.174373 -1.00529 5.95591 
0.803015 -3.8303 2.13453 3.61895 -0.892317 4.85419 
0.76003 -3.72131 2.19982 4.34628 -0.572304 4.49248 
0.657232 -3.74919 2.29676 2.82133 -0.433517 5.33132 
1.29982 -3.86372 1.97785 4.2032 -0.628875 4.62025 
1.20504 -3.82013 2.06311 3.6687 -0.579753 5.04489 
1.37413 -3.91396 1.89773 4.51828 -0.648514 4.31238 
1.45519 -3.88805 1.81072 4.78563 -0.712541 4.00272 
1.12972 -3.90838 2.09996 2.59857 -0.892309 5.56422 
0.42481 -3.6055 2.34286 0.723489 -0.266302 6.23563 
0.441023 -3.73205 2.33577 0.727979 -0.279017 6.23438 
0.544881 -3.77773 2.32024 1.06792 -0.344913 6.1765 
-0.379706 -3.44587 2.27392 -2.16749 0.118298 5.8909 
1.58137 -3.95394 1.623 5.17472 -1.46682 3.2004 
1.49987 -3.99028 1.7305 4.99775 -1.33644 3.52375 
2.21816 -2.79407 -0.783413 6.26119 0.507372 -0.071061 
2.24136 -2.98695 -0.655801 6.25192 0.580761 -0.197065 
2.24851 -3.02646 -0.535365 6.25419 0.565893 -0.172711 
2.23243 -2.93488 -0.77529 6.25355 0.563464 -0.208417 
2.25556 -3.07382 -0.413178 6.26318 0.440984 -0.026928 
2.25578 -3.11756 -0.282291 6.26831 0.232976 0.258929 
2.21362 -2.73092 -0.902837 6.27016 0.399268 -0.057526 
2.19933 -2.58084 -1.07593 6.25376 0.481679 -0.330906 
2.20989 -2.69548 -1.0274 6.26306 0.396275 -0.246275 
2.18644 -2.47076 -1.14762 6.24442 0.522298 -0.416709 
2.15652 -2.37538 -1.35646 6.1498 0.307087 -1.15659 
2.17467 -2.48195 -1.27902 6.19535 0.351705 -0.921006 
2.08909 -2.29292 -1.5472 5.05177 -0.614689 -3.49101 
2.12415 -2.38805 -1.47437 5.50927 -0.298701 -2.75583 
0.954354 -1.10511 -2.0064 0.346858 -0.139448 -6.27147 
1.38627 -1.53742 -1.94075 1.04244 -0.261666 -6.1883 
1.25202 -1.51897 -1.96092 0.864168 -0.261248 -6.21778 
1.02186 -1.20433 -1.9998 0.465917 -0.181218 -6.26209 
1.08222 -1.39456 -1.98745 0.682514 -0.233831 -6.24115 
0.99945 -1.31648 -1.99818 0.474597 -0.18884 -6.26094 
1.11865 -1.51137 -1.97906 0.755502 -0.242905 -6.23213 
1.95851 -2.1925 -1.6817 3.43426 -0.936854 -5.16099 
1.68572 -1.88151 -1.85127 2.07361 -0.545879 -5.89677 
1.74842 -1.98727 -1.81512 2.30496 -0.673968 -5.80341 
1.8024 -2.09836 -1.7796 2.51809 -0.741224 -5.70253 
1.84785 -2.21099 -1.74276 2.81341 -0.90998 -5.5307 
1.58153 -1.83373 -1.88707 1.50653 -0.46039 -6.06787 
1.50404 -1.73463 -1.90912 1.21806 -0.362942 -6.14947 
1.41712 -1.65322 -1.92973 1.06858 -0.354508 -6.17917 
2.00709 -2.30198 -1.62477 3.84513 -1.03732 -4.83288 
0.751309 -1.00398 -2.01755 0.325402 -0.125439 -6.27341 
0.821424 -1.11235 -2.01185 0.281232 -0.142511 -6.27523 
0.534558 -1.10401 -2.0299 0.460999 -0.138267 -6.26466 
0.673754 -1.11164 -2.0193 0.392939 -0.148903 -6.26879 
0.399726 -1.10346 -2.03901 0.3767 -0.15193 -6.26993 
0.200923 -1.00323 -2.05238 0.303726 -0.194012 -6.27281 
0.264741 -1.1169 -2.0456 0.30028 -0.179579 -6.2734 
-1.21112 0.334728 -2.06748 -0.17539 0.145193 -6.27876 
-1.34034 0.37019 -2.06293 -0.20212 0.141464 -6.27777 
-1.05914 0.164802 -2.07459 -0.13107 0.103729 -6.28056 
-1.18111 0.208768 -2.07053 -0.187133 0.095193 -6.27954 
-0.799492 -0.312864 -2.08037 -0.154145 -0.011113 -6.28084 
-0.86377 -0.19539 -2.07828 -0.046307 0.025493 -6.2827 
-0.733623 -0.412796 -2.08128 -0.18669 -0.118084 -6.27894 
-0.620528 -0.477889 -2.08298 -0.207429 -0.117491 -6.27863 
-0.931277 -0.075051 -2.07811 -0.035891 0.027228 -6.28279 
-0.996645 0.046678 -2.07742 -0.096739 0.038218 -6.28133 
-0.465422 -0.676004 -2.08546 -0.094384 -0.071649 -6.2806 
-0.603281 -0.609965 -2.08124 -0.247967 -0.107312 -6.27733 
-0.107196 -0.844269 -2.07127 0.370111 -0.070658 -6.27106 
-0.385304 -0.809279 -2.08398 0.047767 -0.139812 -6.2797 
-0.254528 -0.835423 -2.08027 0.264936 -0.150919 -6.27339 
-0.050359 -0.960529 -2.06526 0.299128 -0.188017 -6.27322 
0.079553 -0.995934 -2.05831 0.29071 -0.197768 -6.27333 
-1.21347 -3.1576 1.94735 -4.21755 -0.210193 4.62778 
-1.31602 -3.13886 1.84607 -4.46684 -0.374063 4.39771 
-1.11898 -3.21152 2.02428 -3.8879 -0.184088 4.91843 
-1.47669 -3.1177 1.67245 -4.76878 -0.584899 4.0447 
-1.40208 -3.19899 1.74416 -4.61806 -0.215561 4.23422 
-1.93099 -2.71876 0.850543 -5.35432 1.92385 2.25885 
-1.68671 -3.00957 1.40722 -5.34424 -0.734759 3.17951 
-1.61604 -3.08134 1.49446 -5.15426 -0.841204 3.49148 
-1.74861 -2.93838 1.31332 -5.52993 -0.3539 2.83862 
-1.79077 -2.85966 1.22789 -5.63945 0.4026 2.55669 
-1.83293 -2.87862 1.12453 -5.78277 0.135242 2.36611 
-1.87629 -2.85324 1.01256 -5.74432 0.388298 2.48665 
-1.92856 -2.83824 0.892752 -5.7488 0.460485 2.45857 
