ply
format ascii 1.0
comment VCGLIB generated
element vertex 844
property float x
property float y
property float z
property float nx
property float ny
property float nz
element face 0
property list uchar int vertex_indices
end_header
0.040543 0.391921 -0.307821 0.079886 0.784953 -0.614384 
-0.242221 -0.0656 -0.432465 -0.485127 -0.129256 -0.864838 
-0.187519 -0.191807 -0.421956 -0.375604 -0.382526 -0.844154 
0.242221 -0.0656 -0.432465 0.485127 -0.129256 -0.864838 
0.187519 -0.191807 -0.421956 0.375604 -0.382526 -0.844154 
-0.118543 -0.303413 -0.379326 -0.236414 -0.60774 -0.75813 
0.118543 -0.303413 -0.379326 0.236414 -0.60774 -0.75813 
0.040543 -0.391921 -0.307821 0.079886 -0.784953 -0.614384 
-0.040543 -0.391921 -0.307821 -0.079886 -0.784953 -0.614384 
0.200484 0.458046 0 0.400748 0.916188 0 
0.16707 0.470809 -0.020651 0.334256 0.941586 -0.041095 
0.16707 0.470809 0.020651 0.334256 0.941586 0.041095 
-0.200484 0.458046 0 -0.400748 0.916188 0 
-0.16707 0.470809 0.020651 -0.334256 0.941586 0.041095 
-0.16707 0.470809 -0.020651 -0.334256 0.941586 -0.041095 
0.200484 -0.458046 0 0.400748 -0.916188 0 
0.16707 -0.470809 0.020651 0.334256 -0.941586 0.041095 
0.16707 -0.470809 -0.020651 0.334256 -0.941586 -0.041095 
-0.200484 -0.458046 0 -0.400748 -0.916188 0 
-0.16707 -0.470809 -0.020651 -0.334256 -0.941586 -0.041095 
-0.16707 -0.470809 0.020651 -0.334256 -0.941586 0.041095 
0.458046 0 -0.200484 0.916188 0 -0.400748 
0.470809 0.020651 -0.16707 0.941586 0.041095 -0.334256 
0.470809 -0.020651 -0.16707 0.941586 -0.041095 -0.334256 
0.458046 0 0.200484 0.916188 0 0.400748 
0.470809 -0.020651 0.16707 0.941586 -0.041095 0.334256 
0.470809 0.020651 0.16707 0.941586 0.041095 0.334256 
-0.458046 0 0.200484 -0.916188 0 0.400748 
-0.470809 0.020651 0.16707 -0.941586 0.041095 0.334256 
-0.470809 -0.020651 0.16707 -0.941586 -0.041095 0.334256 
-0.458046 0 -0.200484 -0.916188 0 -0.400748 
-0.470809 -0.020651 -0.16707 -0.941586 -0.041095 -0.334256 
-0.470809 0.020651 -0.16707 -0.941586 0.041095 -0.334256 
0 -0.200484 0.458046 0 -0.400748 0.916188 
0.020651 -0.16707 0.470809 0.041095 -0.334256 0.941586 
-0.020651 -0.16707 0.470809 -0.041095 -0.334256 0.941586 
0 0.200484 0.458046 0 0.400748 0.916188 
-0.020651 0.16707 0.470809 -0.041095 0.334256 0.941586 
0.020651 0.16707 0.470809 0.041095 0.334256 0.941586 
0 0.200484 -0.458046 0 0.400748 -0.916188 
0.020651 0.16707 -0.470809 0.041095 0.334256 -0.941586 
-0.020651 0.16707 -0.470809 -0.041095 0.334256 -0.941586 
0 -0.200484 -0.458046 0 -0.400748 -0.916188 
-0.020651 -0.16707 -0.470809 -0.041095 -0.334256 -0.941586 
0.020651 -0.16707 -0.470809 0.041095 -0.334256 -0.941586 
0.303739 0.290976 0.270325 0.60733 0.581932 0.540838 
0.270325 0.303739 0.290976 0.540837 0.60733 0.581932 
0.290976 0.270325 0.303739 0.581932 0.540838 0.60733 
-0.290976 0.270325 0.303739 -0.581932 0.540838 0.60733 
-0.270325 0.303739 0.290976 -0.540837 0.60733 0.581932 
-0.303739 0.290976 0.270325 -0.60733 0.581932 0.540838 
0.290976 0.270325 -0.303739 0.581932 0.540838 -0.60733 
0.270325 0.303739 -0.290976 0.540837 0.60733 -0.581932 
0.303739 0.290976 -0.270325 0.60733 0.581932 -0.540838 
-0.303739 0.290976 -0.270325 -0.60733 0.581932 -0.540838 
-0.270325 0.303739 -0.290976 -0.540837 0.60733 -0.581932 
-0.290976 0.270325 -0.303739 -0.581932 0.540838 -0.60733 
0.290976 -0.270325 0.303739 0.581932 -0.540838 0.60733 
0.270325 -0.303739 0.290976 0.540837 -0.60733 0.581932 
0.303739 -0.290976 0.270325 0.60733 -0.581932 0.540838 
-0.303739 -0.290976 0.270325 -0.60733 -0.581932 0.540838 
-0.270325 -0.303739 0.290976 -0.540837 -0.60733 0.581932 
-0.290976 -0.270325 0.303739 -0.581932 -0.540838 0.60733 
0.303739 -0.290976 -0.270325 0.60733 -0.581932 -0.540838 
0.270325 -0.303739 -0.290976 0.540837 -0.60733 -0.581932 
0.290976 -0.270325 -0.303739 0.581932 -0.540838 -0.60733 
-0.290976 -0.270325 -0.303739 -0.581932 -0.540838 -0.60733 
-0.270325 -0.303739 -0.290976 -0.540837 -0.60733 -0.581932 
-0.303739 -0.290976 -0.270325 -0.60733 -0.581932 -0.540838 
0.099547 0.472216 -0.130775 0.198986 0.944411 -0.261711 
0.099193 0.461341 -0.165303 0.198319 0.922748 -0.330461 
0.066285 0.473911 -0.144965 0.132741 0.947797 -0.289931 
0.099193 0.461341 0.165303 0.19832 0.922748 0.330461 
0.099547 0.472216 0.130775 0.198986 0.944411 0.261711 
0.066285 0.473911 0.144965 0.132741 0.947797 0.289931 
0.333751 0.371748 0.020339 0.667439 0.743561 0.040529 
0.333751 0.371748 -0.020339 0.667439 0.743561 -0.040529 
0.311146 0.391393 0 0.622445 0.782664 0 
-0.099547 0.472216 0.130775 -0.198986 0.944411 0.261711 
-0.099193 0.461341 0.165303 -0.198319 0.922748 0.330461 
-0.066285 0.473911 0.144965 -0.132741 0.947797 0.289931 
-0.099193 0.461341 -0.165303 -0.19832 0.922748 -0.330461 
-0.099547 0.472216 -0.130775 -0.198986 0.944411 -0.261711 
-0.066285 0.473911 -0.144965 -0.132741 0.947797 -0.289931 
-0.333751 0.371748 -0.020339 -0.667439 0.743561 -0.040529 
-0.333751 0.371748 0.020339 -0.667439 0.743561 0.040529 
-0.311146 0.391393 0 -0.622445 0.782664 0 
0.099547 -0.472216 0.130775 0.198986 -0.944411 0.261711 
0.099193 -0.461341 0.165303 0.198319 -0.922748 0.330461 
0.066285 -0.473911 0.144965 0.132741 -0.947797 0.289931 
0.099193 -0.461341 -0.165303 0.19832 -0.922748 -0.330461 
0.099547 -0.472216 -0.130775 0.198986 -0.944411 -0.261711 
0.066285 -0.473911 -0.144965 0.132741 -0.947797 -0.289931 
0.333751 -0.371748 -0.020339 0.667439 -0.743561 -0.040529 
0.333751 -0.371748 0.020339 0.667439 -0.743561 0.040529 
0.311146 -0.391393 0 0.622445 -0.782664 0 
-0.099547 -0.472216 -0.130775 -0.198986 -0.944411 -0.261711 
-0.099193 -0.461341 -0.165303 -0.198319 -0.922748 -0.330461 
-0.066285 -0.473911 -0.144965 -0.132741 -0.947797 -0.289931 
-0.099193 -0.461341 0.165303 -0.19832 -0.922748 0.330461 
-0.099547 -0.472216 0.130775 -0.198986 -0.944411 0.261711 
-0.066285 -0.473911 0.144965 -0.132741 -0.947797 0.289931 
-0.333751 -0.371748 0.020339 -0.667439 -0.743561 0.040529 
-0.333751 -0.371748 -0.020339 -0.667439 -0.743561 -0.040529 
-0.311146 -0.391393 0 -0.622445 -0.782664 0 
0.472216 0.130775 -0.099547 0.944411 0.261712 -0.198986 
0.461341 0.165303 -0.099193 0.922748 0.330461 -0.198319 
0.473911 0.144965 -0.066285 0.947797 0.289931 -0.132741 
0.461341 -0.165303 -0.099193 0.922748 -0.330461 -0.198319 
0.472216 -0.130775 -0.099547 0.944411 -0.261712 -0.198986 
0.473911 -0.144965 -0.066285 0.947797 -0.289931 -0.132741 
0.371748 -0.020339 -0.333751 0.743561 -0.04053 -0.667439 
0.371748 0.020339 -0.333751 0.743561 0.04053 -0.667439 
0.391393 0 -0.311146 0.782664 0 -0.622444 
0.472216 -0.130775 0.099547 0.944411 -0.261712 0.198986 
0.461341 -0.165303 0.099193 0.922748 -0.330461 0.198319 
0.473911 -0.144965 0.066285 0.947797 -0.289931 0.132741 
0.461341 0.165303 0.099193 0.922748 0.330461 0.198319 
0.472216 0.130775 0.099547 0.944411 0.261712 0.198986 
0.473911 0.144965 0.066285 0.947797 0.289931 0.132741 
0.371748 0.020339 0.333751 0.743561 0.04053 0.667439 
0.371748 -0.020339 0.333751 0.743561 -0.04053 0.667439 
0.391393 0 0.311146 0.782664 0 0.622444 
-0.472216 0.130775 0.099547 -0.944411 0.261712 0.198986 
-0.461341 0.165303 0.099193 -0.922748 0.330461 0.198319 
-0.473911 0.144965 0.066285 -0.947797 0.289931 0.132741 
-0.461341 -0.165303 0.099193 -0.922748 -0.330461 0.198319 
-0.472216 -0.130775 0.099547 -0.944411 -0.261712 0.198986 
-0.473911 -0.144965 0.066285 -0.947797 -0.289931 0.132741 
-0.371748 -0.020339 0.333751 -0.743561 -0.04053 0.667439 
-0.371748 0.020339 0.333751 -0.743561 0.04053 0.667439 
-0.391393 0 0.311146 -0.782664 0 0.622444 
-0.472216 -0.130775 -0.099547 -0.944411 -0.261712 -0.198986 
-0.461341 -0.165303 -0.099193 -0.922748 -0.330461 -0.198319 
-0.473911 -0.144965 -0.066285 -0.947797 -0.289931 -0.132741 
-0.461341 0.165303 -0.099193 -0.922748 0.330461 -0.198319 
-0.472216 0.130775 -0.099547 -0.944411 0.261712 -0.198986 
-0.473911 0.144965 -0.066285 -0.947797 0.289931 -0.132741 
-0.371748 0.020339 -0.333751 -0.743561 0.04053 -0.667439 
-0.371748 -0.020339 -0.333751 -0.743561 -0.04053 -0.667439 
-0.391393 0 -0.311146 -0.782664 0 -0.622444 
0.130775 -0.099547 0.472216 0.261712 -0.198986 0.944411 
0.165303 -0.099193 0.461341 0.330461 -0.198318 0.922749 
0.144965 -0.066285 0.473911 0.289931 -0.132741 0.947797 
-0.165303 -0.099193 0.461341 -0.330461 -0.198319 0.922749 
-0.130775 -0.099547 0.472216 -0.261712 -0.198986 0.944411 
-0.144965 -0.066285 0.473911 -0.289931 -0.132741 0.947797 
-0.020339 -0.333751 0.371748 -0.04053 -0.667439 0.743561 
0.020339 -0.333751 0.371748 0.04053 -0.667439 0.743561 
0 -0.311146 0.391393 0 -0.622444 0.782664 
-0.130775 0.099547 0.472216 -0.261712 0.198986 0.944411 
-0.165303 0.099193 0.461341 -0.330461 0.198318 0.922749 
-0.144965 0.066285 0.473911 -0.289931 0.132741 0.947797 
0.165303 0.099193 0.461341 0.330461 0.198319 0.922749 
0.130775 0.099547 0.472216 0.261712 0.198986 0.944411 
0.144965 0.066285 0.473911 0.289931 0.132741 0.947797 
0.020339 0.333751 0.371748 0.04053 0.667439 0.743561 
-0.020339 0.333751 0.371748 -0.04053 0.667439 0.743561 
0 0.311146 0.391393 0 0.622444 0.782664 
0.130775 0.099547 -0.472216 0.261712 0.198986 -0.944411 
0.165303 0.099193 -0.461341 0.330461 0.198318 -0.922749 
0.144965 0.066285 -0.473911 0.289931 0.132741 -0.947797 
-0.165303 0.099193 -0.461341 -0.330461 0.198319 -0.922749 
-0.130775 0.099547 -0.472216 -0.261712 0.198986 -0.944411 
-0.144965 0.066285 -0.473911 -0.289931 0.132741 -0.947797 
-0.020339 0.333751 -0.371748 -0.04053 0.667439 -0.743561 
0.020339 0.333751 -0.371748 0.04053 0.667439 -0.743561 
0 0.311146 -0.391393 0 0.622444 -0.782664 
-0.130775 -0.099547 -0.472216 -0.261712 -0.198986 -0.944411 
-0.165303 -0.099193 -0.461341 -0.330461 -0.198318 -0.922749 
-0.144965 -0.066285 -0.473911 -0.289931 -0.132741 -0.947797 
0.165303 -0.099193 -0.461341 0.330461 -0.198319 -0.922749 
0.130775 -0.099547 -0.472216 0.261712 -0.198986 -0.944411 
0.144965 -0.066285 -0.473911 0.289931 -0.132741 -0.947797 
0.020339 -0.333751 -0.371748 0.04053 -0.667439 -0.743561 
-0.020339 -0.333751 -0.371748 -0.04053 -0.667439 -0.743561 
0 -0.311146 -0.391393 0 -0.622444 -0.782664 
0.161071 0.372669 0.291846 0.321967 0.745424 0.583678 
0.14016 0.395056 0.272555 0.280359 0.790007 0.545241 
0.12759 0.374718 0.305463 0.255309 0.749478 0.610819 
0.305463 0.12759 0.374718 0.610819 0.255309 0.749478 
0.291846 0.161071 0.372669 0.583678 0.321967 0.745424 
0.272555 0.14016 0.395056 0.545241 0.280358 0.790007 
0.395056 0.272555 0.14016 0.790007 0.545242 0.280357 
0.374718 0.305463 0.12759 0.749478 0.610819 0.25531 
0.372669 0.291846 0.161071 0.745425 0.583678 0.321967 
-0.161071 0.372669 0.291846 -0.321967 0.745424 0.583678 
-0.12759 0.374718 0.305463 -0.255309 0.749478 0.610819 
-0.14016 0.395056 0.272555 -0.280359 0.790007 0.545241 
-0.395056 0.272555 0.14016 -0.790007 0.545242 0.280357 
-0.372669 0.291846 0.161071 -0.745425 0.583678 0.321967 
-0.374718 0.305463 0.12759 -0.749478 0.610819 0.25531 
-0.305463 0.12759 0.374718 -0.610819 0.255309 0.749478 
-0.272555 0.14016 0.395056 -0.545241 0.280358 0.790007 
-0.291846 0.161071 0.372669 -0.583678 0.321967 0.745424 
0.161071 0.372669 -0.291846 0.321967 0.745424 -0.583678 
0.12759 0.374718 -0.305463 0.255309 0.749478 -0.610819 
0.14016 0.395056 -0.272555 0.280359 0.790007 -0.545241 
0.395056 0.272555 -0.14016 0.790007 0.545242 -0.280357 
0.372669 0.291846 -0.161071 0.745425 0.583678 -0.321967 
0.374718 0.305463 -0.12759 0.749478 0.610819 -0.25531 
0.305463 0.12759 -0.374718 0.610819 0.255309 -0.749478 
0.272555 0.14016 -0.395056 0.545241 0.280358 -0.790007 
0.291846 0.161071 -0.372669 0.583678 0.321967 -0.745424 
-0.161071 0.372669 -0.291846 -0.321967 0.745424 -0.583678 
-0.14016 0.395056 -0.272555 -0.280359 0.790007 -0.545241 
-0.12759 0.374718 -0.305463 -0.255309 0.749478 -0.610819 
-0.305463 0.12759 -0.374718 -0.610819 0.255309 -0.749478 
-0.291846 0.161071 -0.372669 -0.583678 0.321967 -0.745424 
-0.272555 0.14016 -0.395056 -0.545241 0.280358 -0.790007 
-0.395056 0.272555 -0.14016 -0.790007 0.545242 -0.280357 
-0.374718 0.305463 -0.12759 -0.749478 0.610819 -0.25531 
-0.372669 0.291846 -0.161071 -0.745425 0.583678 -0.321967 
0.161071 -0.372669 0.291846 0.321967 -0.745424 0.583678 
0.12759 -0.374718 0.305463 0.255309 -0.749478 0.610819 
0.14016 -0.395056 0.272555 0.280359 -0.790007 0.545241 
0.395056 -0.272555 0.14016 0.790007 -0.545242 0.280357 
0.372669 -0.291846 0.161071 0.745425 -0.583678 0.321967 
0.374718 -0.305463 0.12759 0.749478 -0.610819 0.25531 
0.305463 -0.12759 0.374718 0.610819 -0.255309 0.749478 
0.272555 -0.14016 0.395056 0.545241 -0.280358 0.790007 
0.291846 -0.161071 0.372669 0.583678 -0.321967 0.745424 
-0.161071 -0.372669 0.291846 -0.321967 -0.745424 0.583678 
-0.14016 -0.395056 0.272555 -0.280359 -0.790007 0.545241 
-0.12759 -0.374718 0.305463 -0.255309 -0.749478 0.610819 
-0.305463 -0.12759 0.374718 -0.610819 -0.255309 0.749478 
-0.291846 -0.161071 0.372669 -0.583678 -0.321967 0.745424 
-0.272555 -0.14016 0.395056 -0.545241 -0.280358 0.790007 
-0.395056 -0.272555 0.14016 -0.790007 -0.545242 0.280357 
-0.374718 -0.305463 0.12759 -0.749478 -0.610819 0.25531 
-0.372669 -0.291846 0.161071 -0.745425 -0.583678 0.321967 
0.161071 -0.372669 -0.291846 0.321967 -0.745424 -0.583678 
0.14016 -0.395056 -0.272555 0.280359 -0.790007 -0.545241 
0.12759 -0.374718 -0.305463 0.255309 -0.749478 -0.610819 
0.305463 -0.12759 -0.374718 0.610819 -0.255309 -0.749478 
0.291846 -0.161071 -0.372669 0.583678 -0.321967 -0.745424 
0.272555 -0.14016 -0.395056 0.545241 -0.280358 -0.790007 
0.395056 -0.272555 -0.14016 0.790007 -0.545242 -0.280357 
0.374718 -0.305463 -0.12759 0.749478 -0.610819 -0.25531 
0.372669 -0.291846 -0.161071 0.745425 -0.583678 -0.321967 
-0.161071 -0.372669 -0.291846 -0.321967 -0.745424 -0.583678 
-0.12759 -0.374718 -0.305463 -0.255309 -0.749478 -0.610819 
-0.14016 -0.395056 -0.272555 -0.280359 -0.790007 -0.545241 
-0.395056 -0.272555 -0.14016 -0.790007 -0.545242 -0.280357 
-0.372669 -0.291846 -0.161071 -0.745425 -0.583678 -0.321967 
-0.374718 -0.305463 -0.12759 -0.749478 -0.610819 -0.25531 
-0.305463 -0.12759 -0.374718 -0.610819 -0.255309 -0.749478 
-0.272555 -0.14016 -0.395056 -0.545241 -0.280358 -0.790007 
-0.291846 -0.161071 -0.372669 -0.583678 -0.321967 -0.745424 
0.100184 0.489426 0.020625 0.200261 0.978882 0.041063 
0.100184 0.489426 -0.020625 0.200261 0.978882 -0.041063 
0.066762 0.495523 0 0.133749 0.991015 0 
0.227131 0.434267 0.099114 0.454177 0.868623 0.198035 
0.230441 0.439672 0.059878 0.460777 0.879373 0.119946 
0.197068 0.452419 0.080503 0.394336 0.904751 0.161008 
0.230441 0.439672 -0.059878 0.460777 0.879373 -0.119946 
0.227131 0.434267 -0.099114 0.454177 0.868623 -0.198035 
0.197068 0.452419 -0.080503 0.394336 0.904751 -0.161008 
-0.100184 0.489426 -0.020625 -0.200261 0.978882 -0.041063 
-0.100184 0.489426 0.020625 -0.200261 0.978882 0.041063 
-0.066762 0.495523 0 -0.133749 0.991015 0 
-0.227131 0.434267 -0.099114 -0.454177 0.868623 -0.198035 
-0.230441 0.439672 -0.059878 -0.460777 0.879373 -0.119946 
-0.197068 0.452419 -0.080503 -0.394336 0.904751 -0.161008 
-0.230441 0.439672 0.059878 -0.460777 0.879373 0.119946 
-0.227131 0.434267 0.099114 -0.454177 0.868623 0.198035 
-0.197068 0.452419 0.080503 -0.394336 0.904751 0.161008 
0.100184 -0.489426 -0.020625 0.200261 -0.978882 -0.041063 
0.100184 -0.489426 0.020625 0.200261 -0.978882 0.041063 
0.066762 -0.495523 0 0.133749 -0.991015 0 
0.227131 -0.434267 -0.099114 0.454177 -0.868623 -0.198035 
0.230441 -0.439672 -0.059878 0.460777 -0.879373 -0.119946 
0.197068 -0.452419 -0.080503 0.394336 -0.904751 -0.161008 
0.230441 -0.439672 0.059878 0.460777 -0.879373 0.119946 
0.227131 -0.434267 0.099114 0.454177 -0.868623 0.198035 
0.197068 -0.452419 0.080503 0.394336 -0.904751 0.161008 
-0.100184 -0.489426 0.020625 -0.200261 -0.978882 0.041063 
-0.100184 -0.489426 -0.020625 -0.200261 -0.978882 -0.041063 
-0.066762 -0.495523 0 -0.133749 -0.991015 0 
-0.227131 -0.434267 0.099114 -0.454177 -0.868623 0.198035 
-0.230441 -0.439672 0.059878 -0.460777 -0.879373 0.119946 
-0.197068 -0.452419 0.080503 -0.394336 -0.904751 0.161008 
-0.230441 -0.439672 -0.059878 -0.460777 -0.879373 -0.119946 
-0.227131 -0.434267 -0.099114 -0.454177 -0.868623 -0.198035 
-0.197068 -0.452419 -0.080503 -0.394336 -0.904751 -0.161008 
0.489426 -0.020625 -0.100184 0.978882 -0.041063 -0.200261 
0.489426 0.020625 -0.100184 0.978882 0.041063 -0.200261 
0.495523 0 -0.066762 0.991015 0 -0.133749 
0.434267 -0.099114 -0.227131 0.868623 -0.198035 -0.454177 
0.439672 -0.059878 -0.230441 0.879373 -0.119946 -0.460777 
0.452419 -0.080503 -0.197068 0.904751 -0.161008 -0.394337 
0.439672 0.059878 -0.230441 0.879373 0.119946 -0.460777 
0.434267 0.099114 -0.227131 0.868623 0.198035 -0.454177 
0.452419 0.080503 -0.197068 0.904751 0.161008 -0.394337 
0.489426 0.020625 0.100184 0.978882 0.041063 0.200261 
0.489426 -0.020625 0.100184 0.978882 -0.041063 0.200261 
0.495523 0 0.066762 0.991015 0 0.133749 
0.434267 0.099114 0.227131 0.868623 0.198035 0.454177 
0.439672 0.059878 0.230441 0.879373 0.119946 0.460777 
0.452419 0.080503 0.197068 0.904751 0.161008 0.394337 
0.439672 -0.059878 0.230441 0.879373 -0.119946 0.460777 
0.434267 -0.099114 0.227131 0.868623 -0.198035 0.454177 
0.452419 -0.080503 0.197068 0.904751 -0.161008 0.394337 
-0.489426 -0.020625 0.100184 -0.978882 -0.041063 0.200261 
-0.489426 0.020625 0.100184 -0.978882 0.041063 0.200261 
-0.495523 0 0.066762 -0.991015 0 0.133749 
-0.434267 -0.099114 0.227131 -0.868623 -0.198035 0.454177 
-0.439672 -0.059878 0.230441 -0.879373 -0.119946 0.460777 
-0.452419 -0.080503 0.197068 -0.904751 -0.161008 0.394337 
-0.439672 0.059878 0.230441 -0.879373 0.119946 0.460777 
-0.434267 0.099114 0.227131 -0.868623 0.198035 0.454177 
-0.452419 0.080503 0.197068 -0.904751 0.161008 0.394337 
-0.489426 0.020625 -0.100184 -0.978882 0.041063 -0.200261 
-0.489426 -0.020625 -0.100184 -0.978882 -0.041063 -0.200261 
-0.495523 0 -0.066762 -0.991015 0 -0.133749 
-0.434267 0.099114 -0.227131 -0.868623 0.198035 -0.454177 
-0.439672 0.059878 -0.230441 -0.879373 0.119946 -0.460777 
-0.452419 0.080503 -0.197068 -0.904751 0.161008 -0.394337 
-0.439672 -0.059878 -0.230441 -0.879373 -0.119946 -0.460777 
-0.434267 -0.099114 -0.227131 -0.868623 -0.198035 -0.454177 
-0.452419 -0.080503 -0.197068 -0.904751 -0.161008 -0.394337 
-0.020625 -0.100184 0.489426 -0.041063 -0.200261 0.978882 
0.020625 -0.100184 0.489426 0.041063 -0.200261 0.978882 
0 -0.066762 0.495523 0 -0.133749 0.991015 
-0.099114 -0.227131 0.434267 -0.198035 -0.454177 0.868623 
-0.059878 -0.230441 0.439672 -0.119946 -0.460777 0.879373 
-0.080503 -0.197068 0.452419 -0.161008 -0.394337 0.904751 
0.059878 -0.230441 0.439672 0.119946 -0.460777 0.879373 
0.099114 -0.227131 0.434267 0.198035 -0.454177 0.868623 
0.080503 -0.197068 0.452419 0.161008 -0.394337 0.904751 
0.020625 0.100184 0.489426 0.041063 0.200261 0.978882 
-0.020625 0.100184 0.489426 -0.041063 0.200261 0.978882 
0 0.066762 0.495523 0 0.133749 0.991015 
0.099114 0.227131 0.434267 0.198035 0.454177 0.868623 
0.059878 0.230441 0.439672 0.119946 0.460777 0.879373 
0.080503 0.197068 0.452419 0.161008 0.394337 0.904751 
-0.059878 0.230441 0.439672 -0.119946 0.460777 0.879373 
-0.099114 0.227131 0.434267 -0.198035 0.454177 0.868623 
-0.080503 0.197068 0.452419 -0.161008 0.394337 0.904751 
-0.020625 0.100184 -0.489426 -0.041063 0.200261 -0.978882 
0.020625 0.100184 -0.489426 0.041063 0.200261 -0.978882 
0 0.066762 -0.495523 0 0.133749 -0.991015 
-0.099114 0.227131 -0.434267 -0.198035 0.454177 -0.868623 
-0.059878 0.230441 -0.439672 -0.119946 0.460777 -0.879373 
-0.080503 0.197068 -0.452419 -0.161008 0.394337 -0.904751 
0.059878 0.230441 -0.439672 0.119946 0.460777 -0.879373 
0.099114 0.227131 -0.434267 0.198035 0.454177 -0.868623 
0.080503 0.197068 -0.452419 0.161008 0.394337 -0.904751 
0.020625 -0.100184 -0.489426 0.041063 -0.200261 -0.978882 
-0.020625 -0.100184 -0.489426 -0.041063 -0.200261 -0.978882 
0 -0.066762 -0.495523 0 -0.133749 -0.991015 
0.099114 -0.227131 -0.434267 0.198035 -0.454177 -0.868623 
0.059878 -0.230441 -0.439672 0.119946 -0.460777 -0.879373 
0.080503 -0.197068 -0.452419 0.161008 -0.394337 -0.904751 
-0.059878 -0.230441 -0.439672 -0.119946 -0.460777 -0.879373 
-0.099114 -0.227131 -0.434267 -0.198035 -0.454177 -0.868623 
-0.080503 -0.197068 -0.452419 -0.161008 -0.394337 -0.904751 
0.242604 0.258985 0.352236 0.485036 0.518105 0.70449 
0.221979 0.292358 0.339488 0.443974 0.584544 0.679113 
0.207136 0.268392 0.367506 0.414446 0.536839 0.734873 
0.367505 0.207136 0.268392 0.734873 0.414446 0.536838 
0.352236 0.242604 0.258985 0.704491 0.485036 0.518105 
0.339488 0.221979 0.292358 0.679113 0.443974 0.584545 
0.292358 0.339488 0.221979 0.584545 0.679113 0.443974 
0.268392 0.367505 0.207136 0.536838 0.734873 0.414446 
0.258985 0.352236 0.242604 0.518105 0.704491 0.485037 
-0.292358 0.339488 0.221979 -0.584545 0.679113 0.443974 
-0.258985 0.352236 0.242604 -0.518105 0.704491 0.485037 
-0.268392 0.367505 0.207136 -0.536838 0.734873 0.414446 
-0.367505 0.207136 0.268392 -0.734873 0.414446 0.536838 
-0.339488 0.221979 0.292358 -0.679113 0.443974 0.584545 
-0.352236 0.242604 0.258985 -0.704491 0.485036 0.518105 
-0.242604 0.258985 0.352236 -0.485037 0.518105 0.70449 
-0.207136 0.268392 0.367506 -0.414446 0.536839 0.734873 
-0.221979 0.292358 0.339488 -0.443974 0.584544 0.679113 
0.292358 0.339488 -0.221979 0.584545 0.679113 -0.443974 
0.258985 0.352236 -0.242604 0.518105 0.704491 -0.485037 
0.268392 0.367505 -0.207136 0.536838 0.734873 -0.414446 
0.367505 0.207136 -0.268392 0.734873 0.414446 -0.536838 
0.339488 0.221979 -0.292358 0.679113 0.443974 -0.584545 
0.352236 0.242604 -0.258985 0.704491 0.485036 -0.518105 
0.242604 0.258985 -0.352236 0.485037 0.518105 -0.70449 
0.207136 0.268392 -0.367506 0.414446 0.536839 -0.734873 
0.221979 0.292358 -0.339488 0.443974 0.584544 -0.679113 
-0.242604 0.258985 -0.352236 -0.485036 0.518105 -0.70449 
-0.221979 0.292358 -0.339488 -0.443974 0.584544 -0.679113 
-0.207136 0.268392 -0.367506 -0.414446 0.536839 -0.734873 
-0.367505 0.207136 -0.268392 -0.734873 0.414446 -0.536838 
-0.352236 0.242604 -0.258985 -0.704491 0.485036 -0.518105 
-0.339488 0.221979 -0.292358 -0.679113 0.443974 -0.584545 
-0.292358 0.339488 -0.221979 -0.584545 0.679113 -0.443974 
-0.268392 0.367505 -0.207136 -0.536838 0.734873 -0.414446 
-0.258985 0.352236 -0.242604 -0.518105 0.704491 -0.485037 
0.292358 -0.339488 0.221979 0.584545 -0.679113 0.443974 
0.258985 -0.352236 0.242604 0.518105 -0.704491 0.485037 
0.268392 -0.367505 0.207136 0.536838 -0.734873 0.414446 
0.367505 -0.207136 0.268392 0.734873 -0.414446 0.536838 
0.339488 -0.221979 0.292358 0.679113 -0.443974 0.584545 
0.352236 -0.242604 0.258985 0.704491 -0.485036 0.518105 
0.242604 -0.258985 0.352236 0.485037 -0.518105 0.70449 
0.207136 -0.268392 0.367506 0.414446 -0.536839 0.734873 
0.221979 -0.292358 0.339488 0.443974 -0.584544 0.679113 
-0.242604 -0.258985 0.352236 -0.485036 -0.518105 0.70449 
-0.221979 -0.292358 0.339488 -0.443974 -0.584544 0.679113 
-0.207136 -0.268392 0.367506 -0.414446 -0.536839 0.734873 
-0.367505 -0.207136 0.268392 -0.734873 -0.414446 0.536838 
-0.352236 -0.242604 0.258985 -0.704491 -0.485036 0.518105 
-0.339488 -0.221979 0.292358 -0.679113 -0.443974 0.584545 
-0.292358 -0.339488 0.221979 -0.584545 -0.679113 0.443974 
-0.268392 -0.367505 0.207136 -0.536838 -0.734873 0.414446 
-0.258985 -0.352236 0.242604 -0.518105 -0.704491 0.485037 
0.242604 -0.258985 -0.352236 0.485036 -0.518105 -0.70449 
0.221979 -0.292358 -0.339488 0.443974 -0.584544 -0.679113 
0.207136 -0.268392 -0.367506 0.414446 -0.536839 -0.734873 
0.367505 -0.207136 -0.268392 0.734873 -0.414446 -0.536838 
0.352236 -0.242604 -0.258985 0.704491 -0.485036 -0.518105 
0.339488 -0.221979 -0.292358 0.679113 -0.443974 -0.584545 
0.292358 -0.339488 -0.221979 0.584545 -0.679113 -0.443974 
0.268392 -0.367505 -0.207136 0.536838 -0.734873 -0.414446 
0.258985 -0.352236 -0.242604 0.518105 -0.704491 -0.485037 
-0.292358 -0.339488 -0.221979 -0.584545 -0.679113 -0.443974 
-0.258985 -0.352236 -0.242604 -0.518105 -0.704491 -0.485037 
-0.268392 -0.367505 -0.207136 -0.536838 -0.734873 -0.414446 
-0.367505 -0.207136 -0.268392 -0.734873 -0.414446 -0.536838 
-0.339488 -0.221979 -0.292358 -0.679113 -0.443974 -0.584545 
-0.352236 -0.242604 -0.258985 -0.704491 -0.485036 -0.518105 
-0.242604 -0.258985 -0.352236 -0.485037 -0.518105 -0.70449 
-0.207136 -0.268392 -0.367506 -0.414446 -0.536839 -0.734873 
-0.221979 -0.292358 -0.339488 -0.443974 -0.584544 -0.679113 
0.032994 0.460959 -0.190861 0.066049 0.921859 -0.381856 
0.065874 0.4484 -0.211182 0.131591 0.896824 -0.422364 
0.032908 0.446463 -0.222683 0.065926 0.892987 -0.445227 
0.033355 0.495824 -0.055193 0.06678 0.991626 -0.110535 
0.066628 0.489713 -0.075774 0.133097 0.979448 -0.151546 
0.033302 0.490742 -0.089798 0.066705 0.981504 -0.179444 
0.162964 0.452916 -0.135314 0.325991 0.905769 -0.270762 
0.192953 0.434863 -0.15383 0.385753 0.86979 -0.307669 
0.162432 0.441418 -0.169604 0.324966 0.882857 -0.339058 
0.033302 0.490742 0.089798 0.066705 0.981504 0.179444 
0.066628 0.489713 0.075774 0.133097 0.979448 0.151546 
0.033355 0.495824 0.055193 0.06678 0.991626 0.110535 
0.032908 0.446463 0.222683 0.065926 0.892987 0.445227 
0.065874 0.4484 0.211182 0.131591 0.896824 0.422364 
0.032994 0.460959 0.190861 0.066049 0.921859 0.381856 
0.162432 0.441418 0.169604 0.324966 0.882857 0.339058 
0.192953 0.434863 0.15383 0.385753 0.86979 0.307669 
0.162964 0.452916 0.135314 0.325991 0.905769 0.270762 
0.28557 0.406085 -0.059539 0.571199 0.812108 -0.119216 
0.307728 0.38592 -0.079806 0.615313 0.771955 -0.159614 
0.282256 0.400752 -0.098637 0.564601 0.801476 -0.197135 
0.282256 0.400752 0.098637 0.564601 0.801476 0.197135 
0.307728 0.38592 0.079806 0.615313 0.771955 0.159614 
0.28557 0.406085 0.059539 0.571199 0.812108 0.119216 
0.374694 0.330442 0.020321 0.749447 0.660824 0.040507 
0.393216 0.308838 0 0.786317 0.617823 0 
0.374694 0.330442 -0.020321 0.749447 0.660824 -0.040507 
-0.032994 0.460959 0.190861 -0.066049 0.921859 0.381856 
-0.065874 0.4484 0.211182 -0.131591 0.896824 0.422364 
-0.032908 0.446463 0.222683 -0.065926 0.892987 0.445227 
-0.033355 0.495824 0.055193 -0.06678 0.991626 0.110535 
-0.066628 0.489713 0.075774 -0.133097 0.979448 0.151546 
-0.033302 0.490742 0.089798 -0.066705 0.981504 0.179444 
-0.162964 0.452916 0.135314 -0.325991 0.905769 0.270762 
-0.192953 0.434863 0.15383 -0.385753 0.86979 0.307669 
-0.162432 0.441418 0.169604 -0.324966 0.882857 0.339058 
-0.033302 0.490742 -0.089798 -0.066705 0.981504 -0.179444 
-0.066628 0.489713 -0.075774 -0.133097 0.979448 -0.151546 
-0.033355 0.495824 -0.055193 -0.06678 0.991626 -0.110535 
-0.032908 0.446463 -0.222683 -0.065926 0.892987 -0.445227 
-0.065874 0.4484 -0.211182 -0.131591 0.896824 -0.422364 
-0.032994 0.460959 -0.190861 -0.066049 0.921859 -0.381856 
-0.162432 0.441418 -0.169604 -0.324966 0.882857 -0.339058 
-0.192953 0.434863 -0.15383 -0.385753 0.86979 -0.307669 
-0.162964 0.452916 -0.135314 -0.325991 0.905769 -0.270762 
-0.28557 0.406085 0.059539 -0.571199 0.812108 0.119216 
-0.307728 0.38592 0.079806 -0.615313 0.771955 0.159614 
-0.282256 0.400752 0.098637 -0.564601 0.801476 0.197135 
-0.282256 0.400752 -0.098637 -0.564601 0.801476 -0.197135 
-0.307728 0.38592 -0.079806 -0.615313 0.771955 -0.159614 
-0.28557 0.406085 -0.059539 -0.571199 0.812108 -0.119216 
-0.374694 0.330442 -0.020321 -0.749447 0.660824 -0.040507 
-0.393216 0.308838 0 -0.786317 0.617823 0 
-0.374694 0.330442 0.020321 -0.749447 0.660824 0.040507 
0.032994 -0.460959 0.190861 0.066049 -0.921859 0.381856 
0.065874 -0.4484 0.211182 0.131591 -0.896824 0.422364 
0.032908 -0.446463 0.222683 0.065926 -0.892987 0.445227 
0.033355 -0.495824 0.055193 0.06678 -0.991626 0.110535 
0.066628 -0.489713 0.075774 0.133097 -0.979448 0.151546 
0.033302 -0.490742 0.089798 0.066705 -0.981504 0.179444 
0.162964 -0.452916 0.135314 0.325991 -0.905769 0.270762 
0.192953 -0.434863 0.15383 0.385753 -0.86979 0.307669 
0.162432 -0.441418 0.169604 0.324966 -0.882857 0.339058 
0.033302 -0.490742 -0.089798 0.066705 -0.981504 -0.179444 
0.066628 -0.489713 -0.075774 0.133097 -0.979448 -0.151546 
0.033355 -0.495824 -0.055193 0.06678 -0.991626 -0.110535 
0.032908 -0.446463 -0.222683 0.065926 -0.892987 -0.445227 
0.065874 -0.4484 -0.211182 0.131591 -0.896824 -0.422364 
0.032994 -0.460959 -0.190861 0.066049 -0.921859 -0.381856 
0.162432 -0.441418 -0.169604 0.324966 -0.882857 -0.339058 
0.192953 -0.434863 -0.15383 0.385753 -0.86979 -0.307669 
0.162964 -0.452916 -0.135314 0.325991 -0.905769 -0.270762 
0.28557 -0.406085 0.059539 0.571199 -0.812108 0.119216 
0.307728 -0.38592 0.079806 0.615313 -0.771955 0.159614 
0.282256 -0.400752 0.098637 0.564601 -0.801476 0.197135 
0.282256 -0.400752 -0.098637 0.564601 -0.801476 -0.197135 
0.307728 -0.38592 -0.079806 0.615313 -0.771955 -0.159614 
0.28557 -0.406085 -0.059539 0.571199 -0.812108 -0.119216 
0.374694 -0.330442 -0.020321 0.749447 -0.660824 -0.040507 
0.393216 -0.308838 0 0.786317 -0.617823 0 
0.374694 -0.330442 0.020321 0.749447 -0.660824 0.040507 
-0.032994 -0.460959 -0.190861 -0.066049 -0.921859 -0.381856 
-0.065874 -0.4484 -0.211182 -0.131591 -0.896824 -0.422364 
-0.032908 -0.446463 -0.222683 -0.065926 -0.892987 -0.445227 
-0.033355 -0.495824 -0.055193 -0.06678 -0.991626 -0.110535 
-0.066628 -0.489713 -0.075774 -0.133097 -0.979448 -0.151546 
-0.033302 -0.490742 -0.089798 -0.066705 -0.981504 -0.179444 
-0.162964 -0.452916 -0.135314 -0.325991 -0.905769 -0.270762 
-0.192953 -0.434863 -0.15383 -0.385753 -0.86979 -0.307669 
-0.162432 -0.441418 -0.169604 -0.324966 -0.882857 -0.339058 
-0.033302 -0.490742 0.089798 -0.066705 -0.981504 0.179444 
-0.066628 -0.489713 0.075774 -0.133097 -0.979448 0.151546 
-0.033355 -0.495824 0.055193 -0.06678 -0.991626 0.110535 
-0.032908 -0.446463 0.222683 -0.065926 -0.892987 0.445227 
-0.065874 -0.4484 0.211182 -0.131591 -0.896824 0.422364 
-0.032994 -0.460959 0.190861 -0.066049 -0.921859 0.381856 
-0.162432 -0.441418 0.169604 -0.324966 -0.882857 0.339058 
-0.192953 -0.434863 0.15383 -0.385753 -0.86979 0.307669 
-0.162964 -0.452916 0.135314 -0.325991 -0.905769 0.270762 
-0.28557 -0.406085 -0.059539 -0.571199 -0.812108 -0.119216 
-0.307728 -0.38592 -0.079806 -0.615313 -0.771955 -0.159614 
-0.282256 -0.400752 -0.098637 -0.564601 -0.801476 -0.197135 
-0.282256 -0.400752 0.098637 -0.564601 -0.801476 0.197135 
-0.307728 -0.38592 0.079806 -0.615313 -0.771955 0.159614 
-0.28557 -0.406085 0.059539 -0.571199 -0.812108 0.119216 
-0.374694 -0.330442 0.020321 -0.749447 -0.660824 0.040507 
-0.393216 -0.308838 0 -0.786317 -0.617823 0 
-0.374694 -0.330442 -0.020321 -0.749447 -0.660824 -0.040507 
0.460959 0.190861 -0.032994 0.921859 0.381856 -0.066049 
0.4484 0.211182 -0.065874 0.896824 0.422363 -0.13159 
0.446463 0.222683 -0.032908 0.892987 0.445227 -0.065926 
0.495824 0.055193 -0.033355 0.991626 0.110535 -0.06678 
0.489713 0.075774 -0.066628 0.979448 0.151546 -0.133097 
0.490742 0.089798 -0.033302 0.981504 0.179444 -0.066705 
0.452916 0.135314 -0.162964 0.905769 0.270762 -0.325992 
0.434863 0.15383 -0.192953 0.86979 0.307669 -0.385753 
0.441418 0.169604 -0.162432 0.882857 0.339058 -0.324966 
0.490742 -0.089798 -0.033302 0.981504 -0.179444 -0.066705 
0.489713 -0.075774 -0.066628 0.979448 -0.151546 -0.133097 
0.495824 -0.055193 -0.033355 0.991626 -0.110535 -0.06678 
0.446463 -0.222683 -0.032908 0.892987 -0.445227 -0.065926 
0.4484 -0.211182 -0.065874 0.896824 -0.422363 -0.13159 
0.460959 -0.190861 -0.032994 0.921859 -0.381856 -0.066049 
0.441418 -0.169604 -0.162432 0.882857 -0.339058 -0.324966 
0.434863 -0.15383 -0.192953 0.86979 -0.307669 -0.385753 
0.452916 -0.135314 -0.162964 0.905769 -0.270762 -0.325991 
0.406085 0.059539 -0.28557 0.812108 0.119216 -0.571199 
0.38592 0.079806 -0.307728 0.771955 0.159614 -0.615313 
0.400752 0.098637 -0.282256 0.801476 0.197135 -0.564601 
0.400752 -0.098637 -0.282256 0.801476 -0.197135 -0.564601 
0.38592 -0.079806 -0.307728 0.771955 -0.159614 -0.615313 
0.406085 -0.059539 -0.28557 0.812108 -0.119216 -0.571199 
0.330442 -0.020321 -0.374694 0.660824 -0.040507 -0.749447 
0.308838 0 -0.393216 0.617822 0 -0.786318 
0.330442 0.020321 -0.374694 0.660824 0.040507 -0.749447 
0.460959 -0.190861 0.032994 0.921859 -0.381856 0.066049 
0.4484 -0.211182 0.065874 0.896824 -0.422363 0.13159 
0.446463 -0.222683 0.032908 0.892987 -0.445227 0.065926 
0.495824 -0.055193 0.033355 0.991626 -0.110535 0.06678 
0.489713 -0.075774 0.066628 0.979448 -0.151546 0.133097 
0.490742 -0.089798 0.033302 0.981504 -0.179444 0.066705 
0.452916 -0.135314 0.162964 0.905769 -0.270762 0.325992 
0.434863 -0.15383 0.192953 0.86979 -0.307669 0.385753 
0.441418 -0.169604 0.162432 0.882857 -0.339058 0.324966 
0.490742 0.089798 0.033302 0.981504 0.179444 0.066705 
0.489713 0.075774 0.066628 0.979448 0.151546 0.133097 
0.495824 0.055193 0.033355 0.991626 0.110535 0.06678 
0.446463 0.222683 0.032908 0.892987 0.445227 0.065926 
0.4484 0.211182 0.065874 0.896824 0.422363 0.13159 
0.460959 0.190861 0.032994 0.921859 0.381856 0.066049 
0.441418 0.169604 0.162432 0.882857 0.339058 0.324966 
0.434863 0.15383 0.192953 0.86979 0.307669 0.385753 
0.452916 0.135314 0.162964 0.905769 0.270762 0.325991 
0.406085 -0.059539 0.28557 0.812108 -0.119216 0.571199 
0.38592 -0.079806 0.307728 0.771955 -0.159614 0.615313 
0.400752 -0.098637 0.282256 0.801476 -0.197135 0.564601 
0.400752 0.098637 0.282256 0.801476 0.197135 0.564601 
0.38592 0.079806 0.307728 0.771955 0.159614 0.615313 
0.406085 0.059539 0.28557 0.812108 0.119216 0.571199 
0.330442 0.020321 0.374694 0.660824 0.040507 0.749447 
0.308838 0 0.393216 0.617822 0 0.786318 
0.330442 -0.020321 0.374694 0.660824 -0.040507 0.749447 
-0.460959 0.190861 0.032994 -0.921859 0.381856 0.066049 
-0.4484 0.211182 0.065874 -0.896824 0.422363 0.13159 
-0.446463 0.222683 0.032908 -0.892987 0.445227 0.065926 
-0.495824 0.055193 0.033355 -0.991626 0.110535 0.06678 
-0.489713 0.075774 0.066628 -0.979448 0.151546 0.133097 
-0.490742 0.089798 0.033302 -0.981504 0.179444 0.066705 
-0.452916 0.135314 0.162964 -0.905769 0.270762 0.325992 
-0.434863 0.15383 0.192953 -0.86979 0.307669 0.385753 
-0.441418 0.169604 0.162432 -0.882857 0.339058 0.324966 
-0.490742 -0.089798 0.033302 -0.981504 -0.179444 0.066705 
-0.489713 -0.075774 0.066628 -0.979448 -0.151546 0.133097 
-0.495824 -0.055193 0.033355 -0.991626 -0.110535 0.06678 
-0.446463 -0.222683 0.032908 -0.892987 -0.445227 0.065926 
-0.4484 -0.211182 0.065874 -0.896824 -0.422363 0.13159 
-0.460959 -0.190861 0.032994 -0.921859 -0.381856 0.066049 
-0.441418 -0.169604 0.162432 -0.882857 -0.339058 0.324966 
-0.434863 -0.15383 0.192953 -0.86979 -0.307669 0.385753 
-0.452916 -0.135314 0.162964 -0.905769 -0.270762 0.325991 
-0.406085 0.059539 0.28557 -0.812108 0.119216 0.571199 
-0.38592 0.079806 0.307728 -0.771955 0.159614 0.615313 
-0.400752 0.098637 0.282256 -0.801476 0.197135 0.564601 
-0.400752 -0.098637 0.282256 -0.801476 -0.197135 0.564601 
-0.38592 -0.079806 0.307728 -0.771955 -0.159614 0.615313 
-0.406085 -0.059539 0.28557 -0.812108 -0.119216 0.571199 
-0.330442 -0.020321 0.374694 -0.660824 -0.040507 0.749447 
-0.308838 0 0.393216 -0.617822 0 0.786318 
-0.330442 0.020321 0.374694 -0.660824 0.040507 0.749447 
-0.460959 -0.190861 -0.032994 -0.921859 -0.381856 -0.066049 
-0.4484 -0.211182 -0.065874 -0.896824 -0.422363 -0.13159 
-0.446463 -0.222683 -0.032908 -0.892987 -0.445227 -0.065926 
-0.495824 -0.055193 -0.033355 -0.991626 -0.110535 -0.06678 
-0.489713 -0.075774 -0.066628 -0.979448 -0.151546 -0.133097 
-0.490742 -0.089798 -0.033302 -0.981504 -0.179444 -0.066705 
-0.452916 -0.135314 -0.162964 -0.905769 -0.270762 -0.325992 
-0.434863 -0.15383 -0.192953 -0.86979 -0.307669 -0.385753 
-0.441418 -0.169604 -0.162432 -0.882857 -0.339058 -0.324966 
-0.490742 0.089798 -0.033302 -0.981504 0.179444 -0.066705 
-0.489713 0.075774 -0.066628 -0.979448 0.151546 -0.133097 
-0.495824 0.055193 -0.033355 -0.991626 0.110535 -0.06678 
-0.446463 0.222683 -0.032908 -0.892987 0.445227 -0.065926 
-0.4484 0.211182 -0.065874 -0.896824 0.422363 -0.13159 
-0.460959 0.190861 -0.032994 -0.921859 0.381856 -0.066049 
-0.441418 0.169604 -0.162432 -0.882857 0.339058 -0.324966 
-0.434863 0.15383 -0.192953 -0.86979 0.307669 -0.385753 
-0.452916 0.135314 -0.162964 -0.905769 0.270762 -0.325991 
-0.406085 -0.059539 -0.28557 -0.812108 -0.119216 -0.571199 
-0.38592 -0.079806 -0.307728 -0.771955 -0.159614 -0.615313 
-0.400752 -0.098637 -0.282256 -0.801476 -0.197135 -0.564601 
-0.400752 0.098637 -0.282256 -0.801476 0.197135 -0.564601 
-0.38592 0.079806 -0.307728 -0.771955 0.159614 -0.615313 
-0.406085 0.059539 -0.28557 -0.812108 0.119216 -0.571199 
-0.330442 0.020321 -0.374694 -0.660824 0.040507 -0.749447 
-0.308838 0 -0.393216 -0.617822 0 -0.786318 
-0.330442 -0.020321 -0.374694 -0.660824 -0.040507 -0.749447 
0.190861 -0.032994 0.460959 0.381857 -0.066049 0.921858 
0.211182 -0.065874 0.4484 0.422364 -0.13159 0.896824 
0.222683 -0.032908 0.446463 0.445227 -0.065926 0.892987 
0.055193 -0.033355 0.495824 0.110535 -0.06678 0.991626 
0.075774 -0.066628 0.489713 0.151546 -0.133097 0.979448 
0.089798 -0.033302 0.490742 0.179444 -0.066705 0.981504 
0.135314 -0.162964 0.452916 0.270762 -0.325991 0.905769 
0.15383 -0.192953 0.434863 0.307669 -0.385753 0.86979 
0.169604 -0.162432 0.441418 0.339058 -0.324966 0.882857 
-0.089798 -0.033302 0.490742 -0.179444 -0.066705 0.981504 
-0.075774 -0.066628 0.489713 -0.151546 -0.133097 0.979448 
-0.055193 -0.033355 0.495824 -0.110535 -0.06678 0.991626 
-0.222683 -0.032908 0.446463 -0.445227 -0.065926 0.892987 
-0.211182 -0.065874 0.4484 -0.422364 -0.13159 0.896824 
-0.190861 -0.032994 0.460959 -0.381857 -0.066049 0.921858 
-0.169604 -0.162432 0.441418 -0.339058 -0.324966 0.882857 
-0.15383 -0.192953 0.434863 -0.307669 -0.385753 0.86979 
-0.135314 -0.162964 0.452916 -0.270762 -0.325991 0.905769 
0.059539 -0.28557 0.406085 0.119216 -0.571198 0.812109 
0.079806 -0.307728 0.38592 0.159614 -0.615313 0.771955 
0.098637 -0.282256 0.400752 0.197135 -0.564601 0.801476 
-0.098637 -0.282256 0.400752 -0.197135 -0.564601 0.801476 
-0.079806 -0.307728 0.38592 -0.159614 -0.615313 0.771955 
-0.059539 -0.28557 0.406085 -0.119216 -0.571198 0.812109 
-0.020321 -0.374694 0.330442 -0.040507 -0.749447 0.660824 
0 -0.393216 0.308838 0 -0.786317 0.617823 
0.020321 -0.374694 0.330442 0.040507 -0.749447 0.660824 
-0.190861 0.032994 0.460959 -0.381857 0.066049 0.921858 
-0.211182 0.065874 0.4484 -0.422364 0.13159 0.896824 
-0.222683 0.032908 0.446463 -0.445227 0.065926 0.892987 
-0.055193 0.033355 0.495824 -0.110535 0.06678 0.991626 
-0.075774 0.066628 0.489713 -0.151546 0.133097 0.979448 
-0.089798 0.033302 0.490742 -0.179444 0.066705 0.981504 
-0.135314 0.162964 0.452916 -0.270762 0.325991 0.905769 
-0.15383 0.192953 0.434863 -0.307669 0.385753 0.86979 
-0.169604 0.162432 0.441418 -0.339058 0.324966 0.882857 
0.089798 0.033302 0.490742 0.179444 0.066705 0.981504 
0.075774 0.066628 0.489713 0.151546 0.133097 0.979448 
0.055193 0.033355 0.495824 0.110535 0.06678 0.991626 
0.222683 0.032908 0.446463 0.445227 0.065926 0.892987 
0.211182 0.065874 0.4484 0.422364 0.13159 0.896824 
0.190861 0.032994 0.460959 0.381857 0.066049 0.921858 
0.169604 0.162432 0.441418 0.339058 0.324966 0.882857 
0.15383 0.192953 0.434863 0.307669 0.385753 0.86979 
0.135314 0.162964 0.452916 0.270762 0.325991 0.905769 
-0.059539 0.28557 0.406085 -0.119216 0.571198 0.812109 
-0.079806 0.307728 0.38592 -0.159614 0.615313 0.771955 
-0.098637 0.282256 0.400752 -0.197135 0.564601 0.801476 
0.098637 0.282256 0.400752 0.197135 0.564601 0.801476 
0.079806 0.307728 0.38592 0.159614 0.615313 0.771955 
0.059539 0.28557 0.406085 0.119216 0.571198 0.812109 
0.020321 0.374694 0.330442 0.040507 0.749447 0.660824 
0 0.393216 0.308838 0 0.786317 0.617823 
-0.020321 0.374694 0.330442 -0.040507 0.749447 0.660824 
0.190861 0.032994 -0.460959 0.381857 0.066049 -0.921858 
0.211182 0.065874 -0.4484 0.422364 0.13159 -0.896824 
0.222683 0.032908 -0.446463 0.445227 0.065926 -0.892987 
0.055193 0.033355 -0.495824 0.110535 0.06678 -0.991626 
0.075774 0.066628 -0.489713 0.151546 0.133097 -0.979448 
0.089798 0.033302 -0.490742 0.179444 0.066705 -0.981504 
0.135314 0.162964 -0.452916 0.270762 0.325991 -0.905769 
0.15383 0.192953 -0.434863 0.307669 0.385753 -0.86979 
0.169604 0.162432 -0.441418 0.339058 0.324966 -0.882857 
-0.089798 0.033302 -0.490742 -0.179444 0.066705 -0.981504 
-0.075774 0.066628 -0.489713 -0.151546 0.133097 -0.979448 
-0.055193 0.033355 -0.495824 -0.110535 0.06678 -0.991626 
-0.222683 0.032908 -0.446463 -0.445227 0.065926 -0.892987 
-0.211182 0.065874 -0.4484 -0.422364 0.13159 -0.896824 
-0.190861 0.032994 -0.460959 -0.381857 0.066049 -0.921858 
-0.169604 0.162432 -0.441418 -0.339058 0.324966 -0.882857 
-0.15383 0.192953 -0.434863 -0.307669 0.385753 -0.86979 
-0.135314 0.162964 -0.452916 -0.270762 0.325991 -0.905769 
0.059539 0.28557 -0.406085 0.119216 0.571198 -0.812109 
0.079806 0.307728 -0.38592 0.159614 0.615313 -0.771955 
0.098637 0.282256 -0.400752 0.197135 0.564601 -0.801476 
-0.098637 0.282256 -0.400752 -0.197135 0.564601 -0.801476 
-0.079806 0.307728 -0.38592 -0.159614 0.615313 -0.771955 
-0.059539 0.28557 -0.406085 -0.119216 0.571198 -0.812109 
-0.020321 0.374694 -0.330442 -0.040507 0.749447 -0.660824 
0 0.393216 -0.308838 0 0.786317 -0.617823 
0.020321 0.374694 -0.330442 0.040507 0.749447 -0.660824 
-0.190861 -0.032994 -0.460959 -0.381857 -0.066049 -0.921858 
-0.211182 -0.065874 -0.4484 -0.422364 -0.13159 -0.896824 
-0.222683 -0.032908 -0.446463 -0.445227 -0.065926 -0.892987 
-0.055193 -0.033355 -0.495824 -0.110535 -0.06678 -0.991626 
-0.075774 -0.066628 -0.489713 -0.151546 -0.133097 -0.979448 
-0.089798 -0.033302 -0.490742 -0.179444 -0.066705 -0.981504 
-0.135314 -0.162964 -0.452916 -0.270762 -0.325991 -0.905769 
-0.15383 -0.192953 -0.434863 -0.307669 -0.385753 -0.86979 
-0.169604 -0.162432 -0.441418 -0.339058 -0.324966 -0.882857 
0.089798 -0.033302 -0.490742 0.179444 -0.066705 -0.981504 
0.075774 -0.066628 -0.489713 0.151546 -0.133097 -0.979448 
0.055193 -0.033355 -0.495824 0.110535 -0.06678 -0.991626 
0.222683 -0.032908 -0.446463 0.445227 -0.065926 -0.892987 
0.211182 -0.065874 -0.4484 0.422364 -0.13159 -0.896824 
0.190861 -0.032994 -0.460959 0.381857 -0.066049 -0.921858 
0.169604 -0.162432 -0.441418 0.339058 -0.324966 -0.882857 
0.15383 -0.192953 -0.434863 0.307669 -0.385753 -0.86979 
0.135314 -0.162964 -0.452916 0.270762 -0.325991 -0.905769 
-0.059539 -0.28557 -0.406085 -0.119216 -0.571198 -0.812109 
-0.079806 -0.307728 -0.38592 -0.159614 -0.615313 -0.771955 
-0.098637 -0.282256 -0.400752 -0.197135 -0.564601 -0.801476 
0.098637 -0.282256 -0.400752 0.197135 -0.564601 -0.801476 
0.079806 -0.307728 -0.38592 0.159614 -0.615313 -0.771955 
0.059539 -0.28557 -0.406085 0.119216 -0.571198 -0.812109 
0.020321 -0.374694 -0.330442 0.040507 -0.749447 -0.660824 
0 -0.393216 -0.308838 0 -0.786317 -0.617823 
-0.020321 -0.374694 -0.330442 -0.040507 -0.749447 -0.660824 
0.073707 0.395085 0.297448 0.147376 0.790268 0.594775 
0.086266 0.415406 0.264568 0.172411 0.830775 0.529233 
0.053247 0.413555 0.27593 0.106669 0.827062 0.551897 
0.152606 0.302871 0.367397 0.305188 0.605874 0.734695 
0.167346 0.326749 0.339457 0.334572 0.653456 0.679012 
0.133691 0.32831 0.352618 0.267545 0.656538 0.70525 
0.204143 0.386288 0.24312 0.40825 0.772672 0.486118 
0.213567 0.401508 0.207799 0.427025 0.803009 0.415723 
0.183014 0.408116 0.223489 0.366192 0.816153 0.446988 
0.223489 0.183014 0.408116 0.446988 0.366191 0.816153 
0.24312 0.204143 0.386288 0.486117 0.40825 0.772672 
0.207799 0.213567 0.401508 0.415723 0.427025 0.803009 
0.27593 0.053247 0.413555 0.551897 0.106669 0.827062 
0.297448 0.073707 0.395085 0.594775 0.147377 0.790268 
0.264568 0.086266 0.415406 0.529233 0.172411 0.830775 
0.352618 0.133691 0.32831 0.70525 0.267545 0.656538 
0.367397 0.152606 0.302871 0.734695 0.305188 0.605874 
0.339457 0.167346 0.326749 0.679012 0.334571 0.653456 
0.326749 0.339457 0.167346 0.653457 0.679012 0.33457 
0.32831 0.352618 0.133691 0.656538 0.70525 0.267545 
0.302871 0.367397 0.152606 0.605874 0.734695 0.305188 
0.401508 0.207799 0.213567 0.803009 0.415723 0.427025 
0.408116 0.223489 0.183014 0.816152 0.446989 0.366192 
0.386288 0.24312 0.204143 0.772672 0.486117 0.40825 
0.415406 0.264568 0.086266 0.830774 0.529234 0.172411 
0.413555 0.27593 0.053247 0.827062 0.551897 0.10667 
0.395085 0.297448 0.073707 0.790268 0.594774 0.147376 
-0.086266 0.415406 0.264568 -0.172411 0.830775 0.529233 
-0.073707 0.395085 0.297448 -0.147376 0.790268 0.594775 
-0.053247 0.413555 0.27593 -0.106669 0.827062 0.551897 
-0.213567 0.401508 0.207799 -0.427025 0.803009 0.415723 
-0.204143 0.386288 0.24312 -0.40825 0.772672 0.486118 
-0.183014 0.408116 0.223489 -0.366192 0.816153 0.446988 
-0.167346 0.326749 0.339457 -0.334572 0.653456 0.679012 
-0.152606 0.302871 0.367397 -0.305188 0.605874 0.734695 
-0.133691 0.32831 0.352618 -0.267545 0.656538 0.70525 
-0.32831 0.352618 0.133691 -0.656538 0.70525 0.267545 
-0.326749 0.339457 0.167346 -0.653457 0.679012 0.33457 
-0.302871 0.367397 0.152606 -0.605874 0.734695 0.305188 
-0.413555 0.27593 0.053247 -0.827062 0.551897 0.10667 
-0.415406 0.264568 0.086266 -0.830774 0.529234 0.172411 
-0.395085 0.297448 0.073707 -0.790268 0.594774 0.147376 
-0.408116 0.223489 0.183014 -0.816152 0.446989 0.366192 
-0.401508 0.207799 0.213567 -0.803009 0.415723 0.427025 
-0.386288 0.24312 0.204143 -0.772672 0.486117 0.40825 
-0.24312 0.204143 0.386288 -0.486117 0.40825 0.772672 
-0.223489 0.183014 0.408116 -0.446988 0.366191 0.816153 
-0.207799 0.213567 0.401508 -0.415723 0.427025 0.803009 
-0.367397 0.152606 0.302871 -0.734695 0.305188 0.605874 
-0.352618 0.133691 0.32831 -0.70525 0.267545 0.656538 
-0.339457 0.167346 0.326749 -0.679012 0.334571 0.653456 
-0.297448 0.073707 0.395085 -0.594775 0.147377 0.790268 
-0.27593 0.053247 0.413555 -0.551897 0.106669 0.827062 
-0.264568 0.086266 0.415406 -0.529233 0.172411 0.830775 
0.086266 0.415406 -0.264568 0.172411 0.830775 -0.529233 
0.073707 0.395085 -0.297448 0.147376 0.790268 -0.594775 
0.053247 0.413555 -0.27593 0.106669 0.827062 -0.551897 
0.213567 0.401508 -0.207799 0.427025 0.803009 -0.415723 
0.204143 0.386288 -0.24312 0.40825 0.772672 -0.486118 
0.183014 0.408116 -0.223489 0.366192 0.816153 -0.446988 
0.167346 0.326749 -0.339457 0.334572 0.653456 -0.679012 
0.152606 0.302871 -0.367397 0.305188 0.605874 -0.734695 
0.133691 0.32831 -0.352618 0.267545 0.656538 -0.70525 
0.32831 0.352618 -0.133691 0.656538 0.70525 -0.267545 
0.326749 0.339457 -0.167346 0.653457 0.679012 -0.33457 
0.302871 0.367397 -0.152606 0.605874 0.734695 -0.305188 
0.413555 0.27593 -0.053247 0.827062 0.551897 -0.10667 
0.415406 0.264568 -0.086266 0.830774 0.529234 -0.172411 
0.395085 0.297448 -0.073707 0.790268 0.594774 -0.147376 
0.408116 0.223489 -0.183014 0.816152 0.446989 -0.366192 
0.401508 0.207799 -0.213567 0.803009 0.415723 -0.427025 
0.386288 0.24312 -0.204143 0.772672 0.486117 -0.40825 
0.24312 0.204143 -0.386288 0.486117 0.40825 -0.772672 
0.223489 0.183014 -0.408116 0.446988 0.366191 -0.816153 
0.207799 0.213567 -0.401508 0.415723 0.427025 -0.803009 
0.367397 0.152606 -0.302871 0.734695 0.305188 -0.605874 
0.352618 0.133691 -0.32831 0.70525 0.267545 -0.656538 
0.339457 0.167346 -0.326749 0.679012 0.334571 -0.653456 
0.297448 0.073707 -0.395085 0.594775 0.147377 -0.790268 
0.27593 0.053247 -0.413555 0.551897 0.106669 -0.827062 
0.264568 0.086266 -0.415406 0.529233 0.172411 -0.830775 
-0.073707 0.395085 -0.297448 -0.147376 0.790268 -0.594775 
-0.086266 0.415406 -0.264568 -0.172411 0.830775 -0.529233 
-0.053247 0.413555 -0.27593 -0.106669 0.827062 -0.551897 
-0.152606 0.302871 -0.367397 -0.305188 0.605874 -0.734695 
-0.167346 0.326749 -0.339457 -0.334572 0.653456 -0.679012 
-0.133691 0.32831 -0.352618 -0.267545 0.656538 -0.70525 
-0.204143 0.386288 -0.24312 -0.40825 0.772672 -0.486118 
-0.213567 0.401508 -0.207799 -0.427025 0.803009 -0.415723 
-0.183014 0.408116 -0.223489 -0.366192 0.816153 -0.446988 
-0.223489 0.183014 -0.408116 -0.446988 0.366191 -0.816153 
