ply
format ascii 1.0
element vertex 1570
property float x
property float y
property float z
end_header
-0.0201209 -0.113548 0.206877
-0.0164948 -0.113001 0.205132
-0.0123858 -0.114183 0.199494
-0.0079982 -0.114141 0.19349
-0.00414554 -0.114053 0.189633
-0.000174187 -0.114887 0.182607
0.00438285 -0.115388 0.175021
0.00828892 -0.115609 0.167933
-0.279744 -0.12186 -0.000494719
-0.274494 -0.121506 0.00439584
-0.269452 -0.121555 0.00838363
-0.264488 -0.121553 0.0117686
-0.259742 -0.121298 0.01353
-0.254984 -0.120847 0.0151395
-0.250205 -0.121028 0.0183073
-0.245558 -0.120768 0.0195761
-0.241203 -0.120404 0.0215899
-0.236485 -0.120127 0.0225585
-0.231815 -0.120322 0.0234377
-0.227411 -0.120019 0.0236022
-0.222721 -0.120327 0.0245556
-0.218523 -0.120413 0.0246769
-0.213519 -0.120178 0.0246003
-0.20957 -0.120739 0.0235417
-0.205346 -0.120766 0.0214252
-0.201164 -0.120835 0.0178235
-0.196981 -0.120921 0.0138927
-0.193212 -0.121206 0.0102817
-0.189104 -0.121399 0.00409508
-0.161197 -0.111884 0.164423
-0.156774 -0.111205 0.172245
-0.15191 -0.110729 0.177433
-0.147304 -0.110649 0.183445
-0.143125 -0.110527 0.187783
-0.138898 -0.109941 0.191624
-0.13414 -0.110252 0.195882
-0.12995 -0.10937 0.199093
-0.125374 -0.109596 0.203536
-0.12178 -0.109295 0.204705
-0.11703 -0.109346 0.208953
-0.112965 -0.108927 0.212024
-0.108842 -0.108856 0.213279
-0.104893 -0.108624 0.214841
-0.100649 -0.108501 0.2161
-0.0962794 -0.108112 0.217836
-0.0919804 -0.10855 0.219893
-0.087882 -0.108127 0.221153
-0.0843119 -0.108084 0.221322
-0.0801042 -0.108113 0.222401
-0.075889 -0.108199 0.223456
-0.0717712 -0.107954 0.222473
-0.067762 -0.108383 0.223165
-0.0642084 -0.108147 0.222907
-0.0601037 -0.108244 0.2226
-0.0560726 -0.108107 0.221968
-0.0521369 -0.108193 0.221076
-0.0481745 -0.10799 0.219333
-0.0442716 -0.10839 0.219917
-0.0404562 -0.108236 0.218326
-0.0366793 -0.108575 0.216041
-0.0321959 -0.10886 0.213921
-0.0281875 -0.108999 0.210528
-0.0242724 -0.10923 0.209019
-0.0203088 -0.109705 0.205351
-0.01628 -0.109618 0.201482
-0.0123721 -0.109732 0.195271
-0.00833226 -0.110351 0.191188
-0.00380136 -0.110632 0.185703
0.000244908 -0.11088 0.178689
0.00404076 -0.111251 0.173198
0.00850483 -0.111613 0.166254
-0.271196 -0.117391 -0.00473452
-0.265573 -0.11716 0.00503409
-0.260317 -0.11658 0.00912881
-0.255224 -0.116677 0.0133971
-0.250824 -0.116696 0.0147516
-0.245933 -0.116076 0.0182683
-0.240992 -0.116175 0.0198827
-0.236563 -0.115976 0.022191
-0.232178 -0.116055 0.0226313
-0.227562 -0.116061 0.0225309
-0.222604 -0.115854 0.0242221
-0.217954 -0.115785 0.024857
-0.213882 -0.115995 0.0240366
-0.209657 -0.116014 0.0234194
-0.20468 -0.116054 0.0224583
-0.201031 -0.116131 0.0199479
-0.196783 -0.116169 0.0166824
-0.192576 -0.116209 0.0147536
-0.188286 -0.116435 0.0123665
-0.183906 -0.116426 0.0119402
-0.179753 -0.117095 0.00829053
-0.16231 -0.108217 0.159885
-0.156899 -0.107689 0.170069
-0.152421 -0.106771 0.175067
-0.147842 -0.106555 0.182656
-0.142821 -0.106043 0.18724
-0.138544 -0.105912 0.190975
-0.134388 -0.105881 0.19464
-0.130129 -0.105566 0.198486
-0.12587 -0.105506 0.20197
-0.12152 -0.105101 0.203372
-0.116771 -0.104962 0.208784
-0.113158 -0.105111 0.211065
-0.108629 -0.104693 0.213628
-0.104526 -0.105035 0.214838
-0.100692 -0.104503 0.214697
-0.0966951 -0.104564 0.216947
-0.0924507 -0.104528 0.220203
-0.0883558 -0.104721 0.221138
-0.0841609 -0.104688 0.221726
-0.0804693 -0.104554 0.222715
-0.0761718 -0.104103 0.223084
-0.0717904 -0.104299 0.223887
-0.0680906 -0.104063 0.223213
-0.0640162 -0.104091 0.221054
-0.0605855 -0.104414 0.221362
-0.0560779 -0.104481 0.220454
-0.0519922 -0.104512 0.220793
-0.0481476 -0.104368 0.219048
-0.0442551 -0.104639 0.218469
-0.0403718 -0.104544 0.217356
-0.0360599 -0.104912 0.214087
-0.0322813 -0.104709 0.212855
-0.0280905 -0.105104 0.209107
-0.0240645 -0.105197 0.206578
-0.0201682 -0.105411 0.205296
-0.0167777 -0.10543 0.200581
-0.0123644 -0.105793 0.194129
-0.00861347 -0.1064 0.189733
-0.00420977 -0.10659 0.184739
-2.45464e-05 -0.106835 0.177787
0.00437382 -0.107386 0.170702
0.00849252 -0.107294 0.16315
-0.261362 -0.113133 -6.05583e-05
-0.25627 -0.112367 0.00500071
-0.251167 -0.112264 0.00975931
-0.246556 -0.111989 0.0154268
-0.24102 -0.111993 0.0181664
-0.23684 -0.111516 0.0190595
-0.232262 -0.111181 0.0216165
-0.227404 -0.111367 0.0232483
-0.223288 -0.111458 0.0223759
-0.218149 -0.111699 0.0234516
-0.213705 -0.111668 0.0240595
-0.209055 -0.111355 0.0245742
-0.205265 -0.11142 0.0237129
-0.20098 -0.111579 0.0223354
-0.196553 -0.11125 0.0205747
-0.192116 -0.111903 0.0205698
-0.187893 -0.111515 0.0203185
-0.183226 -0.111612 0.0205193
-0.167292 -0.104036 0.147666
-0.161873 -0.10349 0.161598
-0.156784 -0.103277 0.16707
-0.152689 -0.102989 0.172817
-0.147721 -0.102538 0.181499
-0.143212 -0.102627 0.185517
-0.138771 -0.102128 0.190015
-0.134379 -0.101399 0.19467
-0.129725 -0.101601 0.198082
-0.125825 -0.101266 0.199954
-0.121537 -0.1013 0.20352
-0.117056 -0.100992 0.206832
-0.112631 -0.101183 0.211359
-0.108795 -0.100962 0.211789
-0.104811 -0.100606 0.213237
-0.100368 -0.100755 0.214828
-0.0964331 -0.100306 0.216513
-0.0920092 -0.100443 0.219528
-0.0881163 -0.100295 0.220091
-0.0847024 -0.0999416 0.220745
-0.0800549 -0.100211 0.221485
-0.0759121 -0.100168 0.223011
-0.0720228 -0.100374 0.221903
-0.0683132 -0.100374 0.221743
-0.0645824 -0.10011 0.221457
-0.0601835 -0.100504 0.219474
-0.0561281 -0.100528 0.22031
-0.0524459 -0.100541 0.219921
-0.0480548 -0.100257 0.218287
-0.0441823 -0.100415 0.217175
-0.0401435 -0.100673 0.216422
-0.0361686 -0.100805 0.213715
-0.0320278 -0.100794 0.210532
-0.0281661 -0.100955 0.208469
-0.0238377 -0.101457 0.205335
-0.0198864 -0.101129 0.202492
-0.0162955 -0.101431 0.198848
-0.0125011 -0.101674 0.192052
-0.00820041 -0.102096 0.187638
-0.00406024 -0.102621 0.18183
-0.000110848 -0.103019 0.173163
0.00418284 -0.103378 0.168197
0.00833319 -0.103767 0.158147
-0.252605 -0.108211 -3.6478e-05
-0.24703 -0.107859 0.00817132
-0.241801 -0.107774 0.0148683
-0.236801 -0.10726 0.0176125
-0.232515 -0.10715 0.0185075
-0.227236 -0.107346 0.022634
-0.222799 -0.107127 0.0231378
-0.218214 -0.106911 0.0236267
-0.213982 -0.107044 0.0235153
-0.209484 -0.106493 0.0244924
-0.204504 -0.107378 0.0241854
-0.200601 -0.107079 0.0238409
-0.196164 -0.10672 0.0232815
-0.191569 -0.107051 0.0231915
-0.187366 -0.107025 0.0226988
-0.182893 -0.107278 0.0219966
-0.166867 -0.100155 0.150051
-0.161734 -0.0992806 0.161783
-0.157188 -0.099111 0.166313
-0.152547 -0.0987928 0.173115
-0.148119 -0.0987074 0.178856
-0.143494 -0.098133 0.184467
-0.138251 -0.0979242 0.189642
-0.134643 -0.0978725 0.193864
-0.130028 -0.0973987 0.198122
-0.125662 -0.09785 0.199079
-0.121607 -0.0971294 0.201698
-0.117576 -0.0972351 0.207258
-0.113078 -0.097239 0.210106
-0.109294 -0.0967632 0.21107
-0.104865 -0.0966661 0.211448
-0.100601 -0.0967252 0.213656
-0.0962847 -0.0965275 0.216152
-0.0924134 -0.0960868 0.217358
-0.0884775 -0.0962386 0.21883
-0.0844063 -0.096628 0.220403
-0.0800047 -0.0959765 0.220675
-0.0760791 -0.0958618 0.219965
-0.0725747 -0.0966562 0.221103
-0.0683959 -0.0961871 0.219941
-0.0644717 -0.0962601 0.219902
-0.05997 -0.0960142 0.219074
-0.0562138 -0.0967297 0.219471
-0.0516733 -0.0965608 0.218488
-0.048277 -0.0964977 0.217767
-0.0441099 -0.0965214 0.216036
-0.0403306 -0.0968762 0.214938
-0.0361608 -0.0966652 0.211806
-0.0324073 -0.0969331 0.208811
-0.0282979 -0.096834 0.206112
-0.0243656 -0.097088 0.20391
-0.0204835 -0.0973441 0.199224
-0.0166769 -0.0973439 0.19691
-0.0123567 -0.0983411 0.18914
-0.00799779 -0.0987147 0.184737
-0.00458611 -0.0985347 0.179832
1.74672e-05 -0.0989943 0.168426
0.00415212 -0.0993964 0.164205
0.00829374 -0.0999767 0.148179
-0.242926 -0.103115 0.0061599
-0.237663 -0.103029 0.0133235
-0.232341 -0.102892 0.0170691
-0.227484 -0.10209 0.0193434
-0.223029 -0.102568 0.0210495
-0.218404 -0.102528 0.0227367
-0.214123 -0.102617 0.0231932
-0.209234 -0.102658 0.0239568
-0.204776 -0.102397 0.0249178
-0.200325 -0.102734 0.0241525
-0.196111 -0.102316 0.0255471
-0.19152 -0.102472 0.0240952
-0.187526 -0.102333 0.0232427
-0.182458 -0.10242 0.0235963
-0.166605 -0.0957343 0.150882
-0.161994 -0.0955295 0.160335
-0.157045 -0.0952821 0.166341
-0.152423 -0.0947862 0.174537
-0.148046 -0.0942277 0.178326
-0.143829 -0.0941 0.18285
-0.138501 -0.0938989 0.187622
-0.134886 -0.0941282 0.191805
-0.130463 -0.0938609 0.194926
-0.125719 -0.0933374 0.19778
-0.12196 -0.0933551 0.201491
-0.117253 -0.0933306 0.204684
-0.113717 -0.0928735 0.207818
-0.109478 -0.0927592 0.208615
-0.104516 -0.0926514 0.211186
-0.100736 -0.0926344 0.2138
-0.0967342 -0.0927279 0.214567
-0.0925559 -0.0926448 0.216957
-0.0884726 -0.0922941 0.21838
-0.0845912 -0.0927406 0.218844
-0.0800801 -0.0924225 0.219482
-0.0765071 -0.0920161 0.218536
-0.0724888 -0.0926583 0.219817
-0.0687281 -0.0921541 0.219132
-0.0641896 -0.0922157 0.218639
-0.0606396 -0.0926128 0.216935
-0.0561792 -0.0924568 0.217377
-0.0526927 -0.0924706 0.216209
-0.0480341 -0.0927258 0.21548
-0.0444329 -0.0928934 0.213893
-0.0401661 -0.0927047 0.213393
-0.0362659 -0.0930347 0.210446
-0.0325687 -0.0929923 0.207381
-0.0281893 -0.0928918 0.20397
-0.0245301 -0.093184 0.200684
-0.0203139 -0.0934057 0.197606
-0.0162998 -0.0936412 0.193519
-0.0122633 -0.0943357 0.18654
-0.00804179 -0.0944635 0.180509
-0.00395188 -0.0946227 0.172503
-0.000248281 -0.0953113 0.166609
0.00385031 -0.095475 0.159722
-0.238441 -0.0991269 0.00516164
-0.233178 -0.0989665 0.0139064
-0.228145 -0.0986881 0.0164555
-0.223141 -0.0987418 0.0192357
-0.218435 -0.0979829 0.0210145
-0.214259 -0.0979967 0.0219777
-0.209642 -0.0983647 0.0222644
-0.205057 -0.0977061 0.0228878
-0.200844 -0.0984954 0.0230664
-0.195888 -0.097919 0.025305
-0.191578 -0.097706 0.0255189
-0.18774 -0.0977248 0.0246912
-0.182373 -0.0982604 0.0257952
-0.177898 -0.0974729 0.0259489
-0.161639 -0.0913539 0.159669
-0.15726 -0.091152 0.166457
-0.152476 -0.0907734 0.174502
-0.147773 -0.0900634 0.179389
-0.143348 -0.0901698 0.182981
-0.139034 -0.090068 0.187007
-0.134777 -0.0895204 0.190256
-0.130238 -0.089828 0.194372
-0.125991 -0.0892363 0.196486
-0.121906 -0.0892632 0.199408
-0.117221 -0.0890545 0.203666
-0.113623 -0.0895643 0.206048
-0.109485 -0.0890024 0.208271
-0.105161 -0.0887611 0.209682
-0.10066 -0.0886075 0.212257
-0.0966592 -0.0884192 0.213616
-0.0925521 -0.0880848 0.215575
-0.0885252 -0.0885392 0.216092
-0.0845466 -0.0886758 0.217827
-0.080348 -0.0885085 0.21756
-0.0763811 -0.0884423 0.217661
-0.0725431 -0.0883453 0.217967
-0.0683552 -0.0886014 0.217079
-0.0644289 -0.088651 0.21582
-0.0603918 -0.0888674 0.215476
-0.0564175 -0.0885445 0.215571
-0.0524795 -0.0884916 0.214316
-0.0483263 -0.0882605 0.214061
-0.0443026 -0.0885559 0.21196
-0.0406517 -0.0888885 0.21031
-0.0369142 -0.089084 0.207673
-0.0321609 -0.0889277 0.204544
-0.0283563 -0.0891979 0.201133
-0.0244549 -0.0892063 0.199431
-0.0206256 -0.0894858 0.196077
-0.0164855 -0.0898103 0.190058
-0.0124392 -0.0902149 0.183047
-0.00819723 -0.0905114 0.177875
-0.00408218 -0.0907449 0.167701
8.87925e-05 -0.091378 0.160875
0.00506782 -0.10631 -0.154248
-0.233919 -0.0944876 0.00483358
-0.22837 -0.0942132 0.0127037
-0.223621 -0.0939912 0.0165486
-0.218747 -0.0933898 0.0198451
-0.213959 -0.0933052 0.0211241
-0.209546 -0.0934814 0.0209508
-0.204732 -0.0936018 0.022364
-0.200298 -0.093501 0.0230143
-0.196459 -0.093375 0.0250661
-0.191319 -0.0934804 0.025341
-0.187036 -0.0934131 0.0260723
-0.182612 -0.093449 0.0270025
-0.178004 -0.0934957 0.026837
-0.161906 -0.0874876 0.157222
-0.156897 -0.0870162 0.167023
-0.152194 -0.086442 0.174773
-0.147564 -0.0864485 0.180316
-0.143278 -0.0864259 0.183485
-0.13911 -0.0859648 0.187463
-0.135135 -0.0856447 0.190465
-0.130623 -0.0855059 0.192194
-0.125841 -0.0853356 0.195877
-0.121747 -0.0853099 0.19821
-0.118044 -0.0851052 0.201307
-0.113436 -0.0854441 0.20298
-0.109528 -0.0847447 0.205438
-0.104755 -0.0851147 0.208657
-0.101193 -0.0847506 0.210063
-0.096393 -0.084815 0.212932
-0.0928808 -0.084416 0.213238
-0.0890029 -0.0844508 0.21494
-0.0843225 -0.0846796 0.21566
-0.0802809 -0.0848115 0.215467
-0.0764309 -0.0844508 0.21636
-0.0721185 -0.0844617 0.216358
-0.0687524 -0.0847528 0.215471
-0.0645403 -0.0840148 0.213173
-0.060456 -0.0845048 0.21324
-0.056297 -0.0843047 0.212569
-0.0524236 -0.0846887 0.212033
-0.0485851 -0.084652 0.211272
-0.0444827 -0.0850163 0.20961
-0.0401794 -0.0849186 0.207918
-0.0364405 -0.0850497 0.205346
-0.0327247 -0.0851727 0.20218
-0.0286247 -0.0853263 0.199749
-0.0241091 -0.0852282 0.195748
-0.0206549 -0.085831 0.193136
-0.0163597 -0.0859029 0.183834
-0.012162 -0.0861978 0.178596
-0.00821401 -0.0867067 0.172013
-0.00453924 -0.0871148 0.162264
0.000146736 -0.0876289 0.154552
0.00384265 -0.0884087 0.137811
-0.229007 -0.090125 0.00525737
-0.223824 -0.0897451 0.0119667
-0.218977 -0.0891063 0.0166637
-0.214402 -0.0892831 0.019508
-0.209884 -0.0894344 0.0215651
-0.205349 -0.0894044 0.0215974
-0.200487 -0.0893558 0.0233926
-0.196293 -0.0893383 0.0246974
-0.19186 -0.0893655 0.0250373
-0.18709 -0.0889541 0.0254834
-0.182274 -0.0888606 0.0284507
-0.177987 -0.0887495 0.0287325
-0.163281 -0.0837011 0.147038
-0.157141 -0.083124 0.164907
-0.15271 -0.0824659 0.174209
-0.148244 -0.082339 0.177822
-0.143419 -0.0822033 0.182819
-0.138898 -0.0819973 0.187884
-0.134602 -0.081756 0.190159
-0.130304 -0.0814815 0.192081
-0.126619 -0.0814315 0.195118
-0.121693 -0.0810011 0.198991
-0.117583 -0.0815981 0.20038
-0.113564 -0.0809532 0.202843
-0.109439 -0.0808603 0.202337
-0.105327 -0.0810269 0.205008
-0.100996 -0.0809182 0.207941
-0.0970621 -0.0807874 0.210975
-0.0928249 -0.081072 0.211776
-0.0885539 -0.0807508 0.212478
-0.0849804 -0.080532 0.21312
-0.0805315 -0.0802641 0.213608
-0.0768635 -0.0803652 0.213679
-0.072454 -0.0806203 0.213613
-0.068491 -0.0808146 0.213815
-0.0648618 -0.0805268 0.211432
-0.0606174 -0.0806418 0.211148
-0.0565563 -0.0805126 0.210487
-0.053049 -0.0807095 0.210119
-0.0484801 -0.0806101 0.208534
-0.0444238 -0.0807337 0.206248
-0.0406459 -0.0809437 0.205233
-0.0366064 -0.0810094 0.203334
-0.0325799 -0.0815602 0.198643
-0.027886 -0.0811184 0.195236
-0.0244997 -0.0816097 0.193131
-0.0204444 -0.0818799 0.187642
-0.0167652 -0.0821873 0.17995
-0.0127215 -0.0822858 0.17427
-0.00814669 -0.0827279 0.16514
-0.00436394 -0.0828086 0.157654
-0.000327741 -0.0831461 0.151117
0.00487442 -0.0972894 -0.151746
-0.225063 -0.0854191 0.00373971
-0.219912 -0.0854952 0.0117872
-0.214413 -0.0848095 0.0178874
-0.210111 -0.0844848 0.018814
-0.205245 -0.084967 0.0208837
-0.200628 -0.085041 0.0236667
-0.196066 -0.0847773 0.0249473
-0.191126 -0.0844535 0.0261586
-0.186554 -0.0846238 0.0273279
-0.182477 -0.0844748 0.0289825
-0.177997 -0.0842007 0.0301073
-0.163196 -0.0794007 0.144138
-0.158507 -0.0790811 0.151963
-0.152853 -0.0780814 0.170095
-0.147678 -0.0777897 0.177267
-0.143724 -0.0779503 0.182263
-0.13899 -0.0775178 0.186798
-0.134805 -0.0774383 0.189759
-0.130281 -0.0773175 0.191227
-0.126033 -0.0776172 0.194832
-0.121761 -0.0773965 0.197637
-0.117287 -0.0773549 0.199746
-0.11359 -0.0772715 0.200439
-0.109573 -0.0770212 0.202695
-0.105168 -0.0765975 0.204216
-0.100976 -0.0769408 0.206546
-0.0972578 -0.0770309 0.206792
-0.0927369 -0.0766115 0.208706
-0.0887834 -0.0765926 0.209004
-0.0848047 -0.0769178 0.20948
-0.0807633 -0.07674 0.21071
-0.0767338 -0.0764554 0.210283
-0.0725256 -0.0768563 0.210683
-0.0686097 -0.0769233 0.208403
-0.0649959 -0.0765743 0.208058
-0.0607524 -0.0767981 0.20792
-0.0569545 -0.0766198 0.207878
-0.0527679 -0.076698 0.206524
-0.048475 -0.0768231 0.205601
-0.0449488 -0.0769041 0.203544
-0.0407919 -0.0775027 0.200197
-0.0366669 -0.0775694 0.197275
-0.0323302 -0.0769951 0.194625
-0.0288341 -0.0774624 0.192415
-0.0248042 -0.0776009 0.188325
-0.0206168 -0.0777675 0.181597
-0.0160427 -0.0781996 0.174795
-0.0125601 -0.0781792 0.17134
-0.00847489 -0.0784243 0.163886
-0.00394711 -0.0786972 0.155081
-7.34652e-05 -0.0794564 0.149338
0.00443545 -0.085662 -0.00372887
-0.22022 -0.0808086 0.00449991
-0.215006 -0.0804816 0.0133052
-0.210254 -0.0803633 0.0170318
-0.205641 -0.0801142 0.0205171
-0.200668 -0.0801615 0.023062
-0.195667 -0.0802854 0.0249367
-0.191027 -0.080363 0.0262798
-0.187011 -0.0801613 0.0278209
-0.182215 -0.0797001 0.0288545
-0.172936 -0.0779166 0.0825856
-0.167253 -0.0773204 0.0994816
-0.158759 -0.0755658 0.148962
-0.153067 -0.0741322 0.164906
-0.148167 -0.0739936 0.173646
-0.143522 -0.0741422 0.180603
-0.139561 -0.0736766 0.184337
-0.134615 -0.073759 0.188809
-0.130706 -0.0734094 0.189108
-0.126021 -0.0737741 0.194057
-0.121552 -0.0739 0.197829
-0.117476 -0.073149 0.199027
-0.113972 -0.0729988 0.199401
-0.109373 -0.0734087 0.20197
-0.105227 -0.0728593 0.20384
-0.100789 -0.0731376 0.204615
-0.0971165 -0.0724816 0.207072
-0.0929257 -0.0727955 0.206505
-0.089431 -0.0726136 0.207685
-0.0850409 -0.0727277 0.20661
-0.0808713 -0.0726062 0.206914
-0.0769423 -0.0727284 0.207452
-0.0726754 -0.0726844 0.206355
-0.0690019 -0.0727917 0.206002
-0.0647639 -0.0727911 0.204328
-0.0609187 -0.072787 0.205464
-0.0570077 -0.0729581 0.205045
-0.0528572 -0.0728734 0.203388
-0.0487669 -0.0731117 0.202341
-0.0442973 -0.0730195 0.200965
-0.0406177 -0.0731954 0.197007
-0.0368006 -0.0733023 0.19563
-0.0324113 -0.0735209 0.190865
-0.0285876 -0.0734946 0.188595
-0.0245698 -0.0736293 0.185428
-0.0203492 -0.0737346 0.179341
-0.0165932 -0.0744696 0.173408
-0.012045 -0.0743378 0.168759
-0.00870756 -0.0751126 0.161668
-0.00436666 -0.0750305 0.15279
0.000109041 -0.0759235 0.140841
0.00446472 -0.0813754 -0.00239539
-0.215641 -0.0764992 0.00682878
-0.210651 -0.076359 0.0141144
-0.205441 -0.0761232 0.0191036
-0.200557 -0.0757702 0.0224727
-0.196093 -0.075607 0.0247228
-0.191161 -0.0754755 0.0266834
-0.18671 -0.0758205 0.0272995
-0.182407 -0.0755081 0.0295916
-0.171837 -0.0732845 0.0910592
-0.167242 -0.072906 0.100118
-0.159491 -0.0714412 0.141436
-0.153497 -0.0707677 0.161004
-0.148955 -0.0699213 0.167822
-0.14358 -0.0700606 0.177606
-0.139286 -0.0694872 0.182314
-0.134985 -0.0693912 0.185871
-0.130986 -0.0691867 0.186726
-0.12654 -0.0693295 0.192133
-0.122321 -0.0692947 0.195873
-0.118116 -0.0692914 0.197158
-0.113756 -0.0687875 0.198657
-0.10964 -0.0688478 0.198961
-0.105522 -0.0688253 0.202354
-0.101016 -0.0687461 0.203713
-0.0970874 -0.06881 0.205406
-0.0928202 -0.068781 0.206425
-0.0891033 -0.0684676 0.20605
-0.0850655 -0.068705 0.206204
-0.0812998 -0.068656 0.205634
-0.0768349 -0.0686895 0.205834
-0.0732417 -0.0686645 0.205703
-0.0687849 -0.0689889 0.204264
-0.0648954 -0.0687182 0.203182
-0.0604565 -0.068827 0.203622
-0.056432 -0.0690121 0.201556
-0.0527381 -0.0690251 0.200486
-0.048775 -0.0688662 0.199722
-0.0451652 -0.0690357 0.197346
-0.0408903 -0.06905 0.196029
-0.0369296 -0.0691157 0.192287
-0.0327381 -0.069062 0.189348
-0.0286814 -0.0694104 0.187539
-0.0245095 -0.0695237 0.183099
-0.0205343 -0.0702123 0.177374
-0.0166038 -0.0703239 0.170532
-0.0126039 -0.0704456 0.166143
-0.00854415 -0.0707071 0.155121
-0.00398808 -0.0710214 0.146977
-0.000343517 -0.0765931 0.0113003
0.00394076 -0.0763815 0.00690317
0.00935548 -0.0773218 -0.0130165
-0.217611 -0.07248 -0.00560141
-0.210849 -0.0724799 0.0108881
-0.205898 -0.0712658 0.0169618
-0.200938 -0.0712686 0.0212884
-0.196519 -0.0712325 0.0238669
-0.191581 -0.070924 0.0261571
-0.186911 -0.0707152 0.0288825
-0.182443 -0.0712331 0.0306675
-0.172176 -0.0686847 0.0901877
-0.167222 -0.0685756 0.101804
-0.161985 -0.0681182 0.111872
-0.155268 -0.067336 0.141361
-0.14917 -0.0663846 0.164014
-0.143967 -0.0658119 0.169807
-0.139925 -0.0661081 0.175433
-0.135366 -0.065746 0.181006
-0.131104 -0.0652578 0.183151
-0.126197 -0.0653944 0.190065
-0.122476 -0.0652801 0.193145
-0.117932 -0.0653657 0.194445
-0.1141 -0.0646309 0.196834
-0.109778 -0.0651792 0.197988
-0.105519 -0.0647756 0.200934
-0.101368 -0.0646036 0.202481
-0.0974602 -0.0646913 0.202871
-0.0932185 -0.0647303 0.206055
-0.0890381 -0.0646734 0.204945
-0.0851859 -0.0647806 0.20655
-0.0812409 -0.0646815 0.205544
-0.0768532 -0.0648039 0.204483
-0.0731281 -0.0643968 0.203359
-0.0692791 -0.0652534 0.203416
-0.0647501 -0.065057 0.202085
-0.0606173 -0.0651627 0.200693
-0.0566066 -0.0648788 0.199494
-0.0531044 -0.0643945 0.198198
-0.0482961 -0.0648947 0.196881
-0.0447578 -0.0649778 0.195688
-0.0406845 -0.0654161 0.192242
-0.0367353 -0.0656826 0.18952
-0.033131 -0.0653697 0.187537
-0.0286965 -0.0656201 0.184804
-0.0246598 -0.0658324 0.17987
-0.0209852 -0.0659949 0.172413
-0.0166696 -0.0661429 0.167157
-0.012561 -0.0662136 0.162152
-0.0086841 -0.0669957 0.150187
-0.00456981 -0.0670694 0.141454
-9.24992e-05 -0.0695538 0.0698029
0.00455971 -0.0717304 0.0137303
0.0090102 -0.0716465 0.0101353
-0.211623 -0.067841 0.00295508
-0.206316 -0.0671696 0.0131837
-0.200866 -0.0670162 0.0198202
-0.196419 -0.066783 0.0236268
-0.191276 -0.0664789 0.02592
-0.186491 -0.0663183 0.0291487
-0.18203 -0.0665628 0.0322753
-0.172357 -0.0643337 0.0888852
-0.166591 -0.0640334 0.103656
-0.161495 -0.0639448 0.112794
-0.156227 -0.0636258 0.122297
-0.149518 -0.0622782 0.155002
-0.144683 -0.0619333 0.16541
-0.140386 -0.0615396 0.170833
-0.136162 -0.0616748 0.173015
-0.131831 -0.0617362 0.175076
-0.127265 -0.0616078 0.179975
-0.12288 -0.0609288 0.1879
-0.118247 -0.0610958 0.19224
-0.114164 -0.0607028 0.193258
-0.109968 -0.06102 0.1946
-0.105528 -0.0608508 0.198587
-0.101359 -0.060848 0.199783
-0.0973772 -0.0606915 0.201222
-0.0931668 -0.0610489 0.20291
-0.089287 -0.0606939 0.204094
-0.0851564 -0.0605708 0.203827
-0.0808333 -0.0606002 0.203636
-0.0769626 -0.0608303 0.202423
-0.0729998 -0.0609633 0.200477
-0.0689807 -0.0609966 0.198234
-0.065366 -0.060943 0.199152
-0.0611114 -0.0610049 0.19875
-0.0570462 -0.0610634 0.197834
-0.053206 -0.0607761 0.196605
-0.0488238 -0.0609319 0.19504
-0.0448879 -0.0610922 0.192129
-0.0409558 -0.0609155 0.188316
-0.0370835 -0.0613541 0.186391
-0.0329152 -0.0615422 0.184987
-0.0287229 -0.0613253 0.180707
-0.0251836 -0.0619585 0.175923
-0.0206123 -0.0622604 0.167895
-0.0163775 -0.0617835 0.161783
-0.0125678 -0.0625017 0.150445
-0.00846666 -0.0628636 0.140601
-0.00418528 -0.0643955 0.102644
-0.000327327 -0.0650548 0.0758104
0.00452288 -0.0669199 0.0164844
0.00905493 -0.0668748 0.013904
0.0131537 -0.067265 0.00899827
0.0180149 -0.0676333 -0.000976801
-0.206831 -0.062783 0.0082891
-0.201171 -0.0622765 0.0181983
-0.195835 -0.0626442 0.0236495
-0.19132 -0.062193 0.0257145
-0.186805 -0.0621652 0.0281856
-0.181961 -0.0620047 0.0324665
-0.172725 -0.0604507 0.0877112
-0.166521 -0.0601089 0.104076
-0.161963 -0.0598079 0.111996
-0.156923 -0.0595063 0.119747
-0.152732 -0.0594347 0.126964
-0.145429 -0.0587195 0.154838
-0.140615 -0.0576694 0.164584
-0.136082 -0.0574091 0.169918
-0.132204 -0.0578066 0.172202
-0.127845 -0.0574322 0.176203
-0.122887 -0.057491 0.182591
-0.118816 -0.0569477 0.185834
-0.114612 -0.0573393 0.18914
-0.110774 -0.0572187 0.191177
-0.105994 -0.057036 0.194805
-0.10145 -0.0569596 0.197194
-0.0971653 -0.0569055 0.200056
-0.093018 -0.0571744 0.199865
-0.089184 -0.0569877 0.200245
-0.0852631 -0.0569349 0.201059
-0.0809812 -0.0568852 0.199367
-0.077321 -0.0568735 0.199145
-0.0731998 -0.0568409 0.198316
-0.0690089 -0.05718 0.197075
-0.0653149 -0.0569771 0.196043
-0.0610817 -0.0568835 0.195586
-0.0572735 -0.0571736 0.194285
-0.0527541 -0.0571337 0.192707
-0.0487357 -0.0566378 0.191847
-0.0450733 -0.0569792 0.188757
-0.040913 -0.0574931 0.185418
-0.0369851 -0.0572937 0.183483
-0.0328775 -0.0578607 0.181158
-0.0284699 -0.0573454 0.175437
-0.0246626 -0.0580408 0.169142
-0.0207383 -0.0578429 0.161315
-0.01645 -0.0583914 0.155052
-0.0126376 -0.0587496 0.142398
-0.00840708 -0.0587844 0.133108
-0.00402031 -0.0599382 0.103643
0.000154072 -0.0607607 0.0738441
0.00473344 -0.0627801 0.0180219
0.00933807 -0.0626958 0.0158209
0.0133928 -0.062734 0.0123991
0.0178598 -0.0628002 0.005548
-0.201359 -0.058375 0.0154521
-0.196365 -0.0579201 0.0213841
-0.19129 -0.0579167 0.0255855
-0.186668 -0.0576873 0.0288054
-0.180417 -0.0574572 0.0495173
-0.172022 -0.0558645 0.0917687
-0.16646 -0.0558096 0.104204
-0.161989 -0.0550958 0.110531
-0.157364 -0.0552483 0.117889
-0.152191 -0.0550654 0.126413
-0.147399 -0.0550321 0.133858
-0.142591 -0.0546424 0.142455
-0.136855 -0.053709 0.160852
-0.132751 -0.053486 0.165613
-0.127918 -0.0536814 0.171694
-0.123591 -0.0534729 0.177714
-0.118858 -0.053662 0.181639
-0.114895 -0.052944 0.182216
-0.110462 -0.0535679 0.185562
-0.106149 -0.0531056 0.187985
-0.101734 -0.0531242 0.192901
-0.0977494 -0.0527182 0.19418
-0.0940648 -0.0526045 0.195291
-0.0890732 -0.0529645 0.19755
-0.0851841 -0.0531561 0.198245
-0.0812738 -0.0528347 0.196356
-0.0775965 -0.0529672 0.1965
-0.0735816 -0.0531199 0.193816
-0.0693647 -0.0530365 0.192973
-0.0654958 -0.0533431 0.193818
-0.0611488 -0.0530626 0.192649
-0.0571531 -0.0531545 0.192271
-0.052842 -0.0527297 0.188847
-0.049344 -0.0532288 0.187844
-0.0447443 -0.0530641 0.184216
-0.0410463 -0.0533923 0.181878
-0.0372554 -0.0531355 0.178728
-0.0329436 -0.0534006 0.176385
-0.0290129 -0.0537737 0.170658
-0.0247665 -0.0539522 0.16052
-0.0208585 -0.0537549 0.153877
-0.0169221 -0.0541734 0.145454
-0.0123939 -0.0545616 0.138024
-0.00845725 -0.0551345 0.11888
-0.00402388 -0.0557157 0.105582
-0.000119819 -0.0563388 0.0781814
0.0043007 -0.0576565 0.0193872
0.00917055 -0.0579675 0.0163964
0.0131447 -0.0583333 0.0133753
0.017587 -0.0586721 0.00825977
0.022555 -0.0588478 -0.00796819
-0.202253 -0.0543787 0.0100273
-0.196243 -0.0532253 0.0199041
-0.191782 -0.053345 0.0250944
-0.186517 -0.0533312 0.0294579
-0.180584 -0.052672 0.0497414
-0.171875 -0.0517282 0.0924848
-0.166886 -0.0513753 0.10468
-0.16179 -0.050627 0.111969
-0.156958 -0.0509518 0.118699
-0.152636 -0.0504651 0.124259
-0.147697 -0.0507651 0.131578
-0.143011 -0.0504694 0.136273
-0.138644 -0.0503136 0.143145
-0.13366 -0.0500867 0.149516
-0.128871 -0.0499315 0.161834
-0.123063 -0.0494859 0.174286
-0.118938 -0.0495244 0.177938
-0.115008 -0.0488177 0.180357
-0.1109 -0.0494061 0.181048
-0.106494 -0.0490071 0.184975
-0.102188 -0.0488027 0.186807
-0.0981537 -0.0490409 0.188044
-0.0939049 -0.048879 0.190304
-0.089715 -0.0486841 0.189889
-0.0854391 -0.0487835 0.192387
-0.0816888 -0.0488225 0.192426
-0.0778477 -0.0487161 0.190174
-0.0737671 -0.0489498 0.187433
-0.069322 -0.0490805 0.188535
-0.0656392 -0.0490208 0.188882
-0.0609617 -0.049004 0.188258
-0.0570948 -0.0490456 0.187253
-0.053285 -0.0491137 0.185546
-0.0491812 -0.0492463 0.182193
-0.0453568 -0.049351 0.180216
-0.0414988 -0.0489193 0.17653
-0.0366818 -0.0492642 0.174059
-0.0328984 -0.0497942 0.170324
-0.0289346 -0.0496695 0.161523
-0.0248656 -0.0499595 0.154987
-0.020903 -0.0498331 0.150012
-0.0168957 -0.0502159 0.140377
-0.012681 -0.0508846 0.13303
-0.00868811 -0.0513684 0.112523
-0.00399653 -0.051106 0.105166
-0.000234938 -0.0521414 0.0810096
0.00443114 -0.0538175 0.0217621
0.00896711 -0.053643 0.0180329
0.0134563 -0.0537835 0.0135223
0.018183 -0.0539408 0.00674009
0.0220219 -0.0542638 -0.00448108
-0.197001 -0.0492572 0.0172224
-0.191991 -0.0491806 0.0230948
-0.186528 -0.0489453 0.0317127
-0.180481 -0.0487355 0.0481392
-0.171474 -0.0471459 0.0949057
-0.166817 -0.0468935 0.105166
-0.161706 -0.0466968 0.111414
-0.157187 -0.0467774 0.118973
-0.152261 -0.0464846 0.124985
-0.147809 -0.0466016 0.129761
-0.143665 -0.0458656 0.133275
-0.138627 -0.0464043 0.138036
-0.133709 -0.046153 0.144652
-0.12956 -0.0459564 0.148897
-0.125046 -0.0458463 0.15353
-0.119794 -0.0452388 0.170777
-0.115119 -0.045383 0.174861
-0.110721 -0.0452955 0.177587
-0.106909 -0.044983 0.181173
-0.102724 -0.0448332 0.183297
-0.0984035 -0.0448096 0.185832
-0.0936436 -0.0453045 0.187266
-0.0900143 -0.0451386 0.186664
-0.0859385 -0.0447189 0.187475
-0.081835 -0.0450163 0.186626
-0.0779925 -0.0447528 0.186015
-0.0736106 -0.0448895 0.185278
-0.0697296 -0.045253 0.185232
-0.0657623 -0.0452845 0.184776
-0.0614106 -0.0447535 0.183675
-0.0571934 -0.045174 0.183214
-0.0531565 -0.0451177 0.179999
-0.0492342 -0.0451792 0.178142
-0.0452298 -0.0452234 0.173617
-0.0410525 -0.0453832 0.171584
-0.0372077 -0.0451053 0.169639
-0.0331901 -0.0454971 0.165146
-0.0289763 -0.0454693 0.159435
-0.0250299 -0.0455657 0.150962
-0.0209196 -0.045864 0.145392
-0.0168599 -0.0466433 0.131522
-0.0126003 -0.0469847 0.118
-0.00858426 -0.0468585 0.112401
-0.00451058 -0.0470959 0.105474
-2.32964e-05 -0.0475733 0.0840755
0.00447766 -0.0488027 0.0329216
0.00868992 -0.0489415 0.022935
0.0136254 -0.0490668 0.0194764
0.0177297 -0.0491422 0.0100964
-0.19664 -0.0444222 0.0152521
-0.19192 -0.0444217 0.0214823
-0.185437 -0.0439238 0.0400457
-0.180829 -0.0438977 0.0468004
-0.17282 -0.0429876 0.0860037
-0.166929 -0.0429098 0.104113
-0.161994 -0.0423362 0.109802
-0.157392 -0.0426541 0.115885
-0.152029 -0.0421117 0.125134
-0.147747 -0.0422684 0.1292
-0.142844 -0.0424107 0.132969
-0.139156 -0.0420562 0.135247
-0.134286 -0.0419928 0.139185
-0.129957 -0.0420752 0.144133
-0.125212 -0.0416312 0.149627
-0.120653 -0.0417581 0.154276
-0.116059 -0.0414122 0.161255
-0.111746 -0.041238 0.168409
-0.107004 -0.0411452 0.175803
-0.10268 -0.0410836 0.179834
-0.0987243 -0.040705 0.181692
-0.0946609 -0.0412501 0.184004
-0.0899368 -0.0409998 0.184235
-0.0857927 -0.0411492 0.184749
-0.0820246 -0.0410199 0.18416
-0.0780052 -0.04091 0.183148
-0.0738636 -0.041063 0.183066
-0.0699247 -0.0411582 0.18349
-0.0653866 -0.0409742 0.182521
-0.0617417 -0.0409502 0.181961
-0.0572313 -0.0412814 0.179376
-0.0535355 -0.0410912 0.178406
-0.0494964 -0.0410212 0.174759
-0.0454047 -0.04129 0.171508
-0.0413746 -0.0408777 0.168672
-0.0374188 -0.0414605 0.167121
-0.0334374 -0.0412691 0.163614
-0.0289604 -0.0418621 0.153494
-0.0251887 -0.0418639 0.145518
-0.0207379 -0.0423335 0.128793
-0.0169655 -0.0424321 0.123112
-0.0127702 -0.0428847 0.116765
-0.00831891 -0.0425566 0.110062
-0.0043075 -0.0427107 0.104401
0.000234572 -0.0431167 0.0858635
0.00381702 -0.0433829 0.071926
0.00920769 -0.0444023 0.0260242
0.013502 -0.0446397 0.0223958
0.0177465 -0.0446226 0.0193681
0.0228891 -0.0452723 0.00119221
-0.198404 -0.0406743 0.00234711
-0.190608 -0.0399875 0.0309824
-0.185756 -0.0400629 0.0395056
-0.179633 -0.0391274 0.0554734
-0.172568 -0.0389272 0.0860912
-0.166825 -0.0384419 0.103808
-0.162146 -0.0381859 0.108306
-0.157469 -0.0383918 0.113709
-0.15263 -0.0381266 0.121547
-0.147779 -0.0379867 0.128452
-0.143269 -0.0378074 0.131194
-0.138943 -0.0376562 0.134447
-0.134445 -0.038114 0.137417
-0.12983 -0.0375879 0.139084
-0.125213 -0.0377103 0.143615
-0.120765 -0.0372824 0.149654
-0.116188 -0.03723 0.154112
-0.111582 -0.037183 0.158033
-0.108167 -0.0372124 0.160281
-0.103089 -0.0372244 0.172918
-0.098981 -0.0367979 0.175285
-0.0942378 -0.037187 0.178572
-0.0905331 -0.0373817 0.179766
-0.0861401 -0.0367652 0.180534
-0.0819117 -0.0369837 0.180422
-0.0781299 -0.0367117 0.179228
-0.073615 -0.0371957 0.179867
-0.0698542 -0.0370953 0.180181
-0.0658334 -0.0372454 0.179705
-0.0618373 -0.0373897 0.179401
-0.0577284 -0.0369941 0.176254
-0.053422 -0.037132 0.175288
-0.0495343 -0.037145 0.171586
-0.0454758 -0.0371327 0.167159
-0.0412822 -0.0370425 0.165956
-0.0373157 -0.0373862 0.163399
-0.0332998 -0.0375422 0.157028
-0.0295815 -0.0379492 0.142734
-0.025329 -0.037899 0.131839
-0.0212119 -0.0380937 0.127949
-0.0169502 -0.0385659 0.122704
-0.0127535 -0.0382555 0.116117
-0.0088889 -0.0382426 0.109826
-0.00432771 -0.0386734 0.103564
0.000109323 -0.0390129 0.0894507
0.00446357 -0.0392809 0.0551033
0.00905629 -0.0402126 0.0298831
0.012994 -0.0397753 0.0250759
0.0177508 -0.0402551 0.0220225
0.0221331 -0.0403653 0.0144771
0.0274209 -0.040655 -0.00766993
-0.190734 -0.0354764 0.0345062
-0.184898 -0.0354466 0.0449873
-0.179569 -0.0349365 0.0592663
-0.172965 -0.0345696 0.0849977
-0.166935 -0.0342318 0.10066
-0.162272 -0.03366 0.107632
-0.157503 -0.0338236 0.111973
-0.152926 -0.0341089 0.118273
-0.148079 -0.0336606 0.12669
-0.142886 -0.0335078 0.130645
-0.138817 -0.0336652 0.132827
-0.134933 -0.0338984 0.134438
-0.130316 -0.033737 0.137686
-0.125827 -0.0331726 0.138352
-0.121584 -0.0334843 0.14279
-0.117087 -0.0332995 0.147294
-0.112676 -0.0334349 0.152355
-0.108309 -0.0329768 0.155769
-0.103356 -0.0331292 0.159297
-0.0993077 -0.0331771 0.162912
-0.0949259 -0.0333035 0.172153
-0.0908811 -0.0332263 0.173387
-0.0859758 -0.0330334 0.173366
-0.0825621 -0.0329129 0.173044
-0.078059 -0.0330831 0.174898
-0.0741264 -0.0331529 0.17538
-0.0701974 -0.0330203 0.17636
-0.0656423 -0.0329621 0.174936
-0.0622358 -0.0329864 0.174626
-0.0577382 -0.0328423 0.173178
-0.0534969 -0.0332387 0.170668
-0.0495842 -0.0330113 0.165309
-0.0454478 -0.0333616 0.162919
-0.0415123 -0.0333112 0.160877
-0.0373812 -0.0332462 0.154067
-0.0338169 -0.0334251 0.139923
-0.0295427 -0.033515 0.135018
-0.0249509 -0.033618 0.131122
-0.0214924 -0.0339558 0.127874
-0.0168606 -0.0339139 0.122833
-0.0128512 -0.0338544 0.115356
-0.00882581 -0.0339806 0.109874
-0.00432487 -0.0340918 0.102332
0.000616547 -0.0347142 0.0901136
0.004568 -0.0347693 0.0630243
0.00856718 -0.0354971 0.0369114
0.0136708 -0.0354837 0.025805
0.0180225 -0.0356708 0.0214715
0.0220448 -0.035735 0.0172948
0.0273983 -0.0361461 0.00342906
-0.195907 -0.030976 0.0279484
-0.19155 -0.0312867 0.032653
-0.184129 -0.0309805 0.0554045
-0.179322 -0.0305437 0.0618846
-0.172413 -0.0305051 0.0868055
-0.167061 -0.0297714 0.0968539
-0.162018 -0.0299058 0.107345
-0.157517 -0.0296396 0.111464
-0.152938 -0.0297328 0.118052
-0.147597 -0.0300421 0.125444
-0.143404 -0.0292731 0.129307
-0.139245 -0.0293681 0.131034
-0.13467 -0.0294768 0.133434
-0.130588 -0.0295544 0.135436
-0.125865 -0.0293446 0.136855
-0.121601 -0.0292373 0.138473
-0.117316 -0.0291702 0.140755
-0.113051 -0.0295868 0.144246
-0.10881 -0.0291876 0.148537
-0.103999 -0.0293829 0.15433
-0.0996248 -0.0288402 0.158374
-0.0950746 -0.029174 0.160943
-0.0914946 -0.0289692 0.161162
-0.0872781 -0.0287488 0.16109
-0.0831667 -0.0283317 0.162049
-0.0786603 -0.0291794 0.162975
-0.0745023 -0.0290169 0.165644
-0.0705544 -0.0285736 0.167654
-0.0661646 -0.0288287 0.168099
-0.0618154 -0.0287819 0.165961
-0.0581248 -0.0285777 0.16173
-0.0538983 -0.0290348 0.158437
-0.0500521 -0.0292442 0.153741
-0.045714 -0.0291864 0.152008
-0.0415497 -0.0290977 0.149927
-0.0376267 -0.0293996 0.14369
-0.0336307 -0.0296299 0.138301
-0.0294329 -0.0294598 0.133526
-0.0251727 -0.029254 0.131223
-0.0214293 -0.0293274 0.126777
-0.0170023 -0.029199 0.121791
-0.0133013 -0.0294208 0.115949
-0.00858249 -0.0301693 0.109123
-0.00429655 -0.0299977 0.10095
0.000125623 -0.03016 0.0909344
0.00446919 -0.0303958 0.0708899
0.0090716 -0.0312999 0.0378993
0.0134412 -0.0313212 0.026862
0.0180402 -0.0311889 0.0216169
0.0224113 -0.0311794 0.0163412
0.0264945 -0.0316265 0.00895798
-0.196084 -0.0270723 0.0262078
-0.190517 -0.0267993 0.0358692
-0.184157 -0.0260139 0.0575193
-0.178656 -0.026206 0.0646393
-0.17264 -0.0260081 0.0853549
-0.167525 -0.0257203 0.0941651
-0.162462 -0.0254932 0.105625
-0.157889 -0.0255411 0.110031
-0.152838 -0.0252601 0.117242
-0.147695 -0.025413 0.124457
-0.143563 -0.0254413 0.128575
-0.139466 -0.0255629 0.130127
-0.134771 -0.0252426 0.132365
-0.13056 -0.0250676 0.133594
-0.125906 -0.025247 0.136085
-0.121654 -0.0254074 0.136821
-0.117275 -0.0251883 0.137958
-0.113406 -0.0254129 0.139735
-0.108888 -0.0254525 0.143286
-0.104369 -0.0248125 0.145294
-0.100244 -0.0251835 0.150264
-0.0953709 -0.0251181 0.154617
-0.0912348 -0.0248868 0.157112
-0.0870496 -0.0248723 0.157617
-0.0832557 -0.0252569 0.158098
-0.0790583 -0.0246912 0.158349
-0.0745706 -0.0250975 0.160911
-0.0706121 -0.0250389 0.16005
-0.0662915 -0.0250545 0.159259
-0.0626249 -0.0249588 0.157668
-0.0584683 -0.0247459 0.155124
-0.0543109 -0.025058 0.151716
-0.0502188 -0.0249097 0.149575
-0.0458428 -0.0247484 0.148059
-0.0417895 -0.0248654 0.145228
-0.0378094 -0.025346 0.141095
-0.0332819 -0.0250048 0.137378
-0.0295967 -0.0252539 0.132818
-0.0255142 -0.0253908 0.130655
-0.0210235 -0.0254833 0.124712
-0.016665 -0.0253014 0.119027
-0.0130197 -0.0256139 0.115387
-0.00903757 -0.0259049 0.108278
-0.00423662 -0.0256182 0.0989943
-0.000146714 -0.0259852 0.0889403
0.00453892 -0.0259111 0.0707737
0.00874965 -0.0263379 0.052346
0.0134134 -0.0267175 0.027735
0.017793 -0.026367 0.0238475
0.0222898 -0.0269655 0.0186472
0.0271893 -0.0271807 0.00739002
-0.19659 -0.0220313 0.021711
-0.189102 -0.0218411 0.0503057
-0.183841 -0.0222773 0.0589828
-0.1791 -0.0218516 0.0650575
-0.17408 -0.0215851 0.0713512
-0.167462 -0.0214412 0.09438
-0.162842 -0.021455 0.10276
-0.158059 -0.021073 0.109115
-0.152761 -0.0211631 0.11638
-0.148662 -0.021267 0.121977
-0.143322 -0.0211431 0.126099
-0.139093 -0.0213136 0.129306
-0.135029 -0.0214146 0.1311
-0.130427 -0.0209255 0.133071
-0.125838 -0.0213604 0.134626
-0.121812 -0.021111 0.135324
-0.117152 -0.0213029 0.13631
-0.113436 -0.0212587 0.138005
-0.108984 -0.0210524 0.139501
-0.104553 -0.0209161 0.140523
-0.100279 -0.0212706 0.144054
-0.0962753 -0.0209237 0.145306
-0.092163 -0.0208339 0.147081
-0.0876275 -0.0208409 0.149326
-0.0831202 -0.0204136 0.149598
-0.0791192 -0.0210771 0.152633
-0.0750954 -0.0206428 0.152777
-0.0705974 -0.0210558 0.153907
-0.0665526 -0.0204703 0.152144
-0.0624785 -0.0210781 0.153303
-0.05841 -0.020914 0.151483
-0.0541648 -0.0210279 0.149196
-0.0502631 -0.0207357 0.146812
-0.0459857 -0.0209102 0.145188
-0.041732 -0.0208473 0.14272
-0.0378387 -0.0209104 0.139347
-0.0338198 -0.0208937 0.136368
-0.029829 -0.0213291 0.132574
-0.0254404 -0.0205887 0.128365
-0.0214284 -0.0210939 0.123058
-0.0164617 -0.0211512 0.11712
-0.0128449 -0.0212735 0.113541
-0.00875935 -0.0210022 0.104948
-0.0044002 -0.0215931 0.0948886
0.000213203 -0.0214644 0.0789717
0.00462296 -0.0215357 0.0709236
0.00885529 -0.0219823 0.0571339
0.0136701 -0.0222354 0.0305552
0.0180479 -0.0224908 0.0273482
0.0221264 -0.0224043 0.0245067
0.0273464 -0.022388 0.0156567
-0.196189 -0.0179381 0.0245062
-0.188693 -0.0174897 0.0538559
-0.183643 -0.0175375 0.061852
-0.178708 -0.0171468 0.0678164
-0.173661 -0.016862 0.0735145
-0.167945 -0.0171102 0.09262
-0.162912 -0.0171987 0.101619
-0.157666 -0.0170744 0.109623
-0.152659 -0.0164712 0.114746
-0.14849 -0.0168889 0.120406
-0.143877 -0.0169449 0.124176
-0.139088 -0.017294 0.128677
-0.134999 -0.0169091 0.130579
-0.131137 -0.0167127 0.132038
-0.125874 -0.0170071 0.133208
-0.122062 -0.0167379 0.13392
-0.118023 -0.0166059 0.134972
-0.112845 -0.016776 0.135662
-0.109306 -0.0169683 0.13754
-0.104632 -0.0168546 0.139354
-0.100724 -0.0165128 0.14083
-0.0960595 -0.0165628 0.142227
-0.091946 -0.016584 0.142858
-0.0880298 -0.0166367 0.144492
-0.0833586 -0.0166953 0.145934
-0.079208 -0.016808 0.146722
-0.0751107 -0.0167133 0.148614
-0.0708785 -0.0170619 0.149082
-0.0667691 -0.0167375 0.147451
-0.0625126 -0.0165885 0.148412
-0.0583577 -0.016978 0.147185
-0.0543984 -0.0167794 0.145977
-0.0502913 -0.0167674 0.143022
-0.0462512 -0.0167467 0.142963
-0.0421596 -0.0165448 0.139598
-0.0376369 -0.0168443 0.137721
-0.0336937 -0.0167121 0.135179
-0.0297151 -0.0165554 0.129906
-0.0256962 -0.0168615 0.124107
-0.0207492 -0.0170346 0.119384
-0.0171645 -0.0170792 0.116574
-0.0128465 -0.0163818 0.10934
-0.00857007 -0.016905 0.101187
-0.00457639 -0.0171113 0.0903578
0.000231593 -0.0173126 0.0764931
0.00431549 -0.0172636 0.0701048
0.00848453 -0.0177454 0.060671
0.0135776 -0.0181329 0.0336392
0.0178415 -0.017846 0.029989
0.022175 -0.0173762 0.0288879
0.0267612 -0.0181616 0.0244192
0.0312111 -0.0180034 0.0161396
-0.193834 -0.0129672 0.0487468
-0.18837 -0.0130642 0.0582569
-0.182948 -0.0131632 0.0658829
-0.177771 -0.0129639 0.0725696
-0.173459 -0.0132237 0.0763241
-0.168882 -0.0132091 0.0815169
-0.162827 -0.0128582 0.100542
-0.158072 -0.0130546 0.107552
-0.153235 -0.0129476 0.113225
-0.148678 -0.0126668 0.11872
-0.144312 -0.0126686 0.122371
-0.139523 -0.012855 0.12636
-0.134959 -0.0127341 0.12906
-0.13088 -0.0123523 0.130467
-0.126704 -0.0124538 0.132634
-0.121903 -0.012326 0.133604
-0.117939 -0.0123179 0.134605
-0.113901 -0.0128187 0.134927
-0.109424 -0.0122369 0.136771
-0.105285 -0.0122935 0.13756
-0.10051 -0.0126232 0.139644
-0.0964547 -0.0129191 0.142669
-0.0921081 -0.0122421 0.142523
-0.0881571 -0.0121199 0.143782
-0.0837387 -0.0127446 0.146019
-0.0791705 -0.0127138 0.144742
-0.0752097 -0.0121165 0.145275
-0.070918 -0.0123453 0.145719
-0.066907 -0.0124811 0.1456
-0.0627953 -0.0127276 0.145407
-0.0586998 -0.0123524 0.143155
-0.0542336 -0.0127046 0.14334
-0.0499588 -0.0125189 0.141598
-0.0462504 -0.0124135 0.139264
-0.0420157 -0.012552 0.138891
-0.0379982 -0.012709 0.135495
-0.0339666 -0.0126201 0.130646
-0.0292577 -0.0124986 0.126019
-0.0254042 -0.0128201 0.122185
-0.0213039 -0.0126479 0.11789
-0.0172587 -0.0124254 0.112871
-0.0127632 -0.0125566 0.107375
-0.00871831 -0.0129654 0.0968436
-0.00456451 -0.0132396 0.0815715
0.000288484 -0.0132716 0.0747967
0.00420556 -0.013299 0.0703009
0.00893112 -0.0131218 0.0586735
0.0131545 -0.0129444 0.0396494
0.0178313 -0.0129815 0.0311937
0.021739 -0.0136063 0.0298597
0.0263887 -0.0134839 0.0278128
0.0315443 -0.0133575 0.0212454
0.0355582 -0.0134725 0.0114154
-0.198656 -0.00909556 0.0420561
-0.19335 -0.00882932 0.0530031
-0.187554 -0.00839278 0.0633309
-0.182464 -0.0088038 0.0701966
-0.177968 -0.00867771 0.0753542
-0.173071 -0.00829649 0.0789983
-0.168751 -0.00888464 0.0816523
-0.162699 -0.00882612 0.0992773
-0.158186 -0.00853267 0.105922
-0.153799 -0.00854244 0.110553
-0.148586 -0.00837042 0.115659
-0.144026 -0.00824076 0.120486
-0.139673 -0.00852373 0.125171
-0.134859 -0.00838363 0.128059
-0.130413 -0.00792294 0.130504
-0.12634 -0.00832 0.130721
-0.122517 -0.00834293 0.132424
-0.11763 -0.00856719 0.134494
-0.113858 -0.00834774 0.134184
-0.109087 -0.00846245 0.136059
-0.104792 -0.00816217 0.137703
-0.10083 -0.00839541 0.138558
-0.0961946 -0.00848125 0.141289
-0.0919008 -0.00879021 0.141458
-0.0878437 -0.00843921 0.14347
-0.0836669 -0.00803485 0.143728
-0.079729 -0.00859672 0.14544
-0.0752034 -0.0084624 0.144548
-0.0713569 -0.00822815 0.143202
-0.0671659 -0.00853585 0.143534
-0.0624978 -0.00816041 0.143154
-0.0582547 -0.00836446 0.14085
-0.0547385 -0.00774837 0.139564
-0.0502386 -0.00824688 0.138224
-0.0464741 -0.00845379 0.138602
-0.0417274 -0.00822125 0.135027
-0.0379981 -0.00839637 0.131282
-0.0334672 -0.00884876 0.128278
-0.0296642 -0.00873221 0.124699
-0.0254713 -0.0082454 0.119991
-0.0211696 -0.00855015 0.115407
-0.0173174 -0.00859705 0.112064
-0.0130985 -0.00866282 0.103875
-0.00843696 -0.00880722 0.0898126
-0.00443249 -0.00903375 0.0789257
0.000127461 -0.00890409 0.0734844
0.00409602 -0.00890559 0.0697745
0.00835745 -0.00879291 0.0600634
0.0135966 -0.00885678 0.0396295
0.0176544 -0.00883341 0.0337526
0.0217494 -0.00874181 0.031471
0.0267973 -0.00884269 0.0276575
0.0312097 -0.00872415 0.0236163
0.0360643 -0.00882141 0.012906
-0.198117 -0.00455893 0.0468309
-0.192754 -0.00454087 0.0563525
-0.187948 -0.00384916 0.0654811
-0.182107 -0.00445758 0.0729288
-0.178124 -0.00428643 0.0755081
-0.17309 -0.00405857 0.0811732
-0.168426 -0.00414139 0.0820129
-0.163762 -0.00419876 0.0879585
-0.158136 -0.00438961 0.104558
-0.153385 -0.00438238 0.111374
-0.148925 -0.00452624 0.114475
-0.143911 -0.00406728 0.119555
-0.139795 -0.00415279 0.122343
-0.135421 -0.0039677 0.12614
-0.130969 -0.0038998 0.128494
-0.126643 -0.0046249 0.12939
-0.122641 -0.00434075 0.131333
-0.118191 -0.00386125 0.132896
-0.113685 -0.00402146 0.134156
-0.109431 -0.00435524 0.134479
-0.104618 -0.00465286 0.136766
-0.100977 -0.00436435 0.1378
-0.0962609 -0.00359235 0.139598
-0.0922612 -0.0042087 0.141446
-0.087933 -0.00445919 0.142406
-0.0842355 -0.00409286 0.143437
-0.0798472 -0.00396909 0.142738
-0.0752078 -0.0041568 0.143052
-0.0710219 -0.00419013 0.143194
-0.0668642 -0.00439653 0.142681
-0.0629487 -0.00451308 0.141093
-0.0587919 -0.00414546 0.139896
-0.0546299 -0.00418435 0.138479
-0.0504635 -0.00377338 0.136499
-0.0463292 -0.00422926 0.134133
-0.0422883 -0.00420863 0.132231
-0.0383026 -0.00443662 0.129138
-0.0337738 -0.00378896 0.126047
-0.0295956 -0.00415467 0.1221
-0.025297 -0.00447799 0.119066
-0.0207582 -0.0037226 0.113488
-0.0174138 -0.00427011 0.105148
-0.0131098 -0.00433362 0.0955044
-0.00859845 -0.00440381 0.0865093
-0.004293 -0.00466013 0.0763689
0.000462014 -0.0046344 0.070855
0.00413966 -0.00414588 0.0677722
0.00863506 -0.00422523 0.0594693
0.0130432 -0.00459455 0.041274
0.0180781 -0.00436915 0.0342678
0.0221527 -0.00416075 0.0316428
0.026752 -0.00456009 0.0282047
0.0308427 -0.00437268 0.0235626
0.0359006 -0.00428571 0.0147378
-0.1985 -0.000286352 0.0454899
-0.192757 -0.000115582 0.0569685
-0.187307 -0.00022027 0.067198
-0.18281 0.000359863 0.0735484
-0.177544 7.51603e-05 0.0777727
-0.173007 -0.00013694 0.0822465
-0.168796 -0.000306073 0.0839335
-0.164079 -7.16276e-05 0.086446
-0.158515 -8.36615e-05 0.0980932
-0.153533 -0.00012423 0.108675
-0.149014 -0.00013111 0.113493
-0.144409 -0.000238485 0.11801
-0.140293 -0.000201874 0.120491
-0.135122 1.34136e-05 0.124648
-0.130531 0.00020863 0.126211
-0.126852 -0.000478957 0.128652
-0.122671 0.000541438 0.130131
-0.117967 -0.000139919 0.131005
-0.113112 0.000120192 0.132885
-0.109413 4.09447e-05 0.13332
-0.105102 0.000236191 0.134357
-0.100201 -0.000172606 0.136519
-0.0966226 0.000246107 0.138414
-0.0924596 0.000155069 0.139034
-0.0876917 3.67852e-05 0.141105
-0.0837861 -5.75965e-05 0.141714
-0.0796761 0.000166951 0.142587
-0.0758507 -6.84525e-05 0.141678
-0.0712727 0.0002231 0.141515
-0.0673098 -0.00010131 0.140377
-0.0630132 -9.82758e-05 0.139058
-0.0586424 0.000139883 0.137425
-0.0545512 0.000251585 0.135648
-0.0505113 0.000101738 0.132514
-0.0464875 -0.000264857 0.131384
-0.0422348 0.00010525 0.129453
-0.037936 0.00019497 0.126548
-0.0335966 -0.00039153 0.122132
-0.0293933 0.000100625 0.120034
-0.0252371 -0.000281155 0.116212
-0.0214147 -0.000183849 0.107684
-0.0171858 7.48542e-05 0.0972043
-0.0126256 -0.000158562 0.0916536
-0.00893751 6.92175e-05 0.0837011
-0.00405165 3.23838e-05 0.073368
-0.000278956 -6.42151e-05 0.0692654
0.0047814 0.000234168 0.0646901
0.0087086 1.73515e-05 0.0592684
0.013424 -0.000108185 0.0399133
0.0177167 0.000176951 0.0339427
0.0222493 -7.67468e-05 0.0311962
0.0268983 3.29203e-05 0.0274597
0.0310627 0.000150648 0.0223386
0.0359581 0.000186829 0.0136411
-0.204592 0.0044882 0.0282916
-0.197637 0.004167 0.050675
-0.192677 0.00438399 0.0599523
-0.186687 0.00418229 0.0693582
-0.182411 0.00443735 0.0748268
-0.178027 0.00426299 0.0774919
-0.173617 0.00446931 0.0815021
-0.168489 0.00461836 0.0863601
-0.164262 0.00439218 0.0872053
-0.159693 0.00478336 0.0915226
-0.154261 0.00467419 0.100845
-0.149201 0.00437952 0.111445
-0.144137 0.00436166 0.115949
-0.140148 0.00422688 0.118061
-0.135852 0.0045206 0.122324
-0.130913 0.00395733 0.125235
-0.126709 0.00425713 0.126665
-0.122689 0.00432704 0.127916
-0.118155 0.00442185 0.129629
-0.113739 0.00422594 0.130187
-0.109469 0.00411373 0.131547
-0.105261 0.00467805 0.13363
-0.101051 0.00445551 0.135049
-0.0967643 0.0047085 0.135315
-0.0925706 0.00418667 0.13715
-0.0885868 0.00386472 0.138513
-0.0839437 0.0042768 0.138322
-0.0800892 0.00422892 0.139177
-0.0754998 0.00403072 0.139124
-0.0716988 0.00434212 0.140001
-0.0671099 0.00412683 0.138598
-0.0626065 0.00428375 0.137616
-0.0589082 0.00434968 0.136289
-0.0546229 0.00421881 0.133443
-0.0506639 0.00412794 0.132575
-0.0466269 0.00396995 0.128452
-0.0419354 0.00412767 0.126431
-0.038255 0.00411457 0.124056
-0.0337343 0.00434435 0.120619
-0.0297516 0.00457893 0.115636
-0.0256132 0.00438824 0.108169
-0.0215122 0.00436811 0.101529
-0.0171521 0.00422321 0.0952296
-0.0130393 0.00443436 0.089072
-0.0084713 0.00448705 0.0801736
-0.00393392 0.00429285 0.0711826
-0.000396311 0.00459099 0.0671514
0.00411322 0.00401303 0.0634121
0.00894165 0.00438398 0.0573922
0.0135367 0.00458955 0.0425088
0.0178982 0.00409016 0.0344416
0.021895 0.00433032 0.0328519
0.0266558 0.00455098 0.0305192
0.0316404 0.00436036 0.0232716
0.0361732 0.00430758 0.0121784
-0.203349 0.00871127 0.0422373
-0.197456 0.00895637 0.0565097
-0.191783 0.00862564 0.0664035
-0.186909 0.0081962 0.0729634
-0.182398 0.00869894 0.076444
-0.176789 0.00876408 0.0819602
-0.173017 0.00838926 0.0833875
-0.168055 0.00819217 0.0874743
-0.163269 0.00847623 0.0909688
-0.159549 0.00851071 0.0928298
-0.154786 0.00866078 0.0976695
-0.149457 0.00889741 0.10571
-0.144311 0.00855794 0.114036
