ply
format ascii 1.0
element vertex 1712
property float x
property float y
property float z
end_header
-0.0416868 0.270731 0.152251
-0.0375885 0.27134 0.150219
-0.0334268 0.271883 0.145669
-0.0288657 0.273811 0.131961
-0.0252848 0.275078 0.125378
-0.0210832 0.275418 0.121679
-0.016737 0.275955 0.11915
-0.012378 0.276238 0.118608
-0.00875823 0.275979 0.118197
-0.00438549 0.276162 0.118541
-0.000479664 0.275197 0.11976
0.00462283 0.275251 0.121257
0.00822607 0.27516 0.122766
0.0129401 0.275006 0.124384
0.0168418 0.274787 0.124676
0.0210748 0.274462 0.126591
0.0252853 0.274193 0.127471
0.0295297 0.274289 0.12951
0.0333922 0.274034 0.131724
0.0377146 0.27303 0.138196
0.0416141 0.272401 0.141844
0.0461064 0.271478 0.146241
0.0501276 0.271304 0.147737
0.0539266 0.271256 0.150575
0.0582102 0.269887 0.158558
0.0617367 0.266603 0.179359
0.0654829 0.266479 0.181675
0.0695262 0.265891 0.183798
0.0738608 0.266091 0.185222
0.0778593 0.265917 0.187413
0.0818757 0.265442 0.18814
0.0856729 0.26516 0.191072
0.0892581 0.264978 0.193398
0.0932344 0.26422 0.198483
0.0974587 0.263438 0.203084
0.101175 0.263041 0.206771
0.104798 0.26237 0.210176
0.108782 0.262267 0.211938
0.112699 0.261766 0.214992
0.116786 0.26133 0.216922
0.120778 0.261371 0.216943
0.12441 0.261655 0.217053
0.128663 0.261384 0.217609
0.132796 0.26118 0.218192
0.136882 0.261238 0.217456
0.140672 0.261671 0.216446
0.14472 0.261678 0.21642
0.148071 0.261489 0.218527
0.152716 0.261229 0.218837
0.156776 0.260754 0.221095
0.159911 0.260655 0.223901
0.163544 0.259911 0.227804
0.16766 0.259798 0.22951
0.171312 0.258763 0.232079
0.175222 0.259154 0.232577
0.17938 0.258912 0.233195
0.183185 0.258196 0.235578
0.186951 0.258774 0.234242
0.191274 0.259551 0.230624
0.293954 0.303176 -0.0695283
0.297917 0.30279 -0.0631437
0.301715 0.301838 -0.0588775
0.306057 0.301591 -0.0569139
0.310103 0.300588 -0.0522354
0.313781 0.300163 -0.0460889
0.318062 0.299145 -0.0426028
0.321996 0.299357 -0.0409257
0.326624 0.298878 -0.0392644
0.33052 0.2987 -0.0373278
0.335381 0.298175 -0.0354993
0.339326 0.298456 -0.0341659
0.344297 0.298118 -0.0346715
0.348842 0.298018 -0.033807
0.353087 0.298085 -0.0351937
0.358218 0.298813 -0.0368707
0.363046 0.298887 -0.0379009
0.367298 0.298212 -0.0375402
0.372009 0.298482 -0.0363727
0.37601 0.298381 -0.0341864
0.380401 0.298344 -0.0339003
0.384667 0.29824 -0.0332086
0.389292 0.297528 -0.0306969
0.393728 0.297689 -0.0301695
0.398127 0.297055 -0.0294859
0.402581 0.297183 -0.028141
0.406495 0.296966 -0.0270793
0.411271 0.297253 -0.0256805
0.415525 0.296859 -0.0251603
0.419946 0.297135 -0.0238295
0.423812 0.296224 -0.0215108
0.428168 0.295858 -0.0199215
0.431957 0.296082 -0.0164511
0.436099 0.295666 -0.0153747
0.440113 0.295115 -0.0136192
0.444276 0.294791 -0.0110652
0.448361 0.294544 -0.00930715
0.452311 0.294429 -0.00789976
0.457019 0.294338 -0.00715542
0.461195 0.29406 -0.00493956
0.465011 0.293186 -0.00212336
0.469232 0.292657 0.000844002
0.472766 0.292699 0.00413072
0.475973 0.292095 0.00797224
0.47977 0.291588 0.0111817
0.484013 0.29154 0.0119698
0.487759 0.291301 0.0152936
0.491863 0.290285 0.016778
0.49642 0.29086 0.0169783
0.500048 0.290169 0.0212773
0.502746 0.289506 0.0256439
0.505623 0.288445 0.0328197
0.50799 0.286964 0.0425054
0.510112 0.285707 0.0499004
0.511279 0.284663 0.0621933
0.512856 0.282387 0.0725737
0.516195 0.281958 0.0780158
0.520066 0.281944 0.0775757
-0.25689 0.249274 0.325075
-0.25211 0.248768 0.330443
-0.247692 0.248257 0.334988
-0.24368 0.247461 0.338865
-0.239453 0.24685 0.341126
-0.235244 0.246201 0.343408
-0.231423 0.246366 0.345373
-0.227195 0.245797 0.348102
-0.223092 0.245188 0.352167
-0.218569 0.244969 0.355902
-0.21479 0.244017 0.358416
-0.210812 0.24418 0.36028
-0.206804 0.243641 0.364809
-0.202428 0.243035 0.368681
-0.198318 0.242679 0.370839
-0.194503 0.242138 0.372585
-0.191041 0.242018 0.373179
-0.187095 0.242165 0.373728
-0.183032 0.242121 0.374695
-0.179382 0.241331 0.377004
-0.175731 0.241479 0.377535
-0.171968 0.241314 0.376677
-0.168185 0.241357 0.377607
-0.164868 0.241153 0.377935
-0.16132 0.241751 0.375811
-0.15777 0.241833 0.375386
-0.1541 0.242143 0.373832
-0.150587 0.242271 0.373459
-0.146483 0.242174 0.372292
-0.14327 0.242533 0.371758
-0.139542 0.24297 0.370126
-0.136639 0.243081 0.367127
-0.132808 0.243784 0.364563
-0.129135 0.243804 0.363008
-0.125936 0.244289 0.359287
-0.130166 0.260168 0.252604
-0.12625 0.260848 0.248303
-0.129468 0.276396 0.144873
-0.125882 0.277055 0.141159
-0.121576 0.276955 0.139795
-0.117422 0.276363 0.139914
-0.113483 0.276668 0.140819
-0.109017 0.276667 0.141062
-0.104738 0.276722 0.138856
-0.100867 0.27698 0.137998
-0.0967354 0.277124 0.135983
-0.0926719 0.277457 0.135862
-0.0879753 0.277098 0.137367
-0.0835306 0.277243 0.139238
-0.0792057 0.276597 0.142501
-0.0755795 0.276341 0.143248
-0.0709186 0.276251 0.144883
-0.0667533 0.275743 0.147418
-0.062879 0.275577 0.148528
-0.0586235 0.275588 0.148947
-0.0544353 0.27552 0.14981
-0.0497268 0.275116 0.151563
-0.0460052 0.275012 0.152841
-0.0414605 0.274863 0.152989
-0.0373477 0.275013 0.151783
-0.0335262 0.275149 0.149153
-0.0295677 0.27591 0.145278
-0.0254445 0.278263 0.131435
-0.0214009 0.279216 0.12225
-0.0168738 0.279429 0.119994
-0.0128372 0.279727 0.120067
-0.00858436 0.280315 0.118249
-0.00428032 0.280078 0.118236
0.00034286 0.28019 0.118952
0.00442781 0.279854 0.120284
0.00864398 0.279457 0.121574
0.012804 0.279247 0.123885
0.0171203 0.278848 0.125616
0.0210961 0.279073 0.125871
0.0251873 0.278958 0.127312
0.0295431 0.27819 0.131793
0.0338144 0.277067 0.137164
0.0379427 0.277064 0.139842
0.0420484 0.276437 0.144311
0.0458213 0.275798 0.146937
0.0505745 0.275189 0.150031
0.053428 0.270722 0.180735
0.0572662 0.27027 0.182506
0.0613373 0.269881 0.18452
0.0654091 0.270113 0.186278
0.0690155 0.269954 0.188019
0.0735705 0.269605 0.187873
0.0776927 0.269276 0.188642
0.0817881 0.269157 0.189875
0.0858279 0.269329 0.191304
0.0893683 0.269273 0.192115
0.0935075 0.268684 0.195024
0.0973868 0.268424 0.198538
0.101207 0.267505 0.202003
0.105219 0.267498 0.203861
0.108713 0.266865 0.207173
0.11293 0.266826 0.207726
0.1169 0.266721 0.208533
0.12122 0.26669 0.207854
0.125087 0.266561 0.208894
0.128959 0.266564 0.208471
0.133291 0.266924 0.208093
0.137219 0.26652 0.209423
0.140989 0.265971 0.210331
0.145112 0.265924 0.211916
0.148882 0.265791 0.213976
0.152617 0.265042 0.217417
0.156696 0.264938 0.219397
0.160466 0.264748 0.219932
0.164329 0.264499 0.222733
0.167906 0.264173 0.225467
0.17173 0.26359 0.228255
0.175574 0.26366 0.229078
0.180251 0.263734 0.227158
0.184097 0.264035 0.225127
0.188685 0.26509 0.221067
0.298796 0.308266 -0.0712113
0.302653 0.307236 -0.0640912
0.306851 0.306535 -0.0607183
0.310777 0.306057 -0.0569451
0.31429 0.305531 -0.052897
0.31849 0.30481 -0.0470469
0.322297 0.303982 -0.0434785
0.327069 0.304021 -0.0429115
0.331134 0.304059 -0.0408313
0.335318 0.303147 -0.0355904
0.339517 0.302556 -0.0330551
0.343904 0.302073 -0.0311773
0.347945 0.302419 -0.0304825
0.352787 0.302367 -0.0306005
0.356977 0.301953 -0.0298343
0.361588 0.302087 -0.0298803
0.366303 0.302137 -0.031234
0.371166 0.302442 -0.0319352
0.375499 0.302181 -0.0315902
0.380444 0.302611 -0.0323017
0.38526 0.302382 -0.033124
0.389638 0.302272 -0.0320361
0.393793 0.302083 -0.030416
0.398543 0.302549 -0.0303228
0.402669 0.30226 -0.030076
0.407349 0.302053 -0.0281157
0.410913 0.302025 -0.0267851
0.415249 0.301057 -0.023891
0.419838 0.300896 -0.0233922
0.423189 0.300571 -0.0196588
0.428198 0.300607 -0.0187156
0.432212 0.299871 -0.0169549
0.436027 0.299715 -0.0149837
0.440387 0.299682 -0.0117636
0.444244 0.299376 -0.0098877
0.447865 0.29898 -0.00709271
0.452527 0.298737 -0.00552964
0.456437 0.298613 -0.00324368
0.460523 0.297966 -0.00109911
0.464105 0.297875 0.000964165
0.468325 0.29724 0.00219846
0.472837 0.297428 0.00354004
0.476798 0.296572 0.00646949
0.480371 0.296106 0.00965321
0.484215 0.295969 0.0114855
0.488245 0.295559 0.0136375
0.492453 0.294924 0.0163774
0.496311 0.294729 0.0176455
0.499778 0.294635 0.0201168
0.502943 0.293749 0.0267652
0.505341 0.292263 0.0353403
0.507484 0.291279 0.0425559
0.509425 0.289957 0.0515715
0.511017 0.288382 0.0630521
0.512765 0.287271 0.0722328
0.5156 0.285919 0.0781318
0.520175 0.286078 0.0782213
-0.256279 0.252586 0.328994
-0.251798 0.251591 0.333165
-0.248073 0.251388 0.336563
-0.243268 0.250722 0.341444
-0.238877 0.250166 0.344725
-0.234459 0.249587 0.34701
-0.230637 0.249209 0.349148
-0.226901 0.249379 0.350225
-0.222641 0.249075 0.354661
-0.218234 0.247879 0.358429
-0.214111 0.247607 0.360776
-0.210607 0.247273 0.363773
-0.205979 0.246459 0.368161
-0.202022 0.246071 0.371726
-0.197829 0.245871 0.374809
-0.194459 0.24576 0.375053
-0.190466 0.245585 0.375893
-0.186676 0.245335 0.376412
-0.183205 0.245286 0.376946
-0.179268 0.244998 0.379024
-0.175335 0.245203 0.379704
-0.172071 0.24486 0.379004
-0.16821 0.245251 0.378611
-0.164672 0.245084 0.378628
-0.160946 0.24521 0.378378
-0.157382 0.24525 0.377007
-0.153942 0.245142 0.376318
-0.150315 0.245652 0.374595
-0.146452 0.245863 0.374047
-0.143266 0.245823 0.373071
-0.139681 0.245802 0.372528
-0.13591 0.24672 0.368364
-0.132577 0.246586 0.367152
-0.129213 0.246989 0.365992
-0.125424 0.247191 0.363169
-0.130049 0.264044 0.252624
-0.134404 0.282296 0.134903
-0.130314 0.282031 0.134131
-0.126046 0.281701 0.134502
-0.122 0.281473 0.136177
-0.117983 0.281748 0.135543
-0.113524 0.281417 0.137226
-0.109191 0.281354 0.136948
-0.105047 0.281478 0.136019
-0.101078 0.281892 0.13483
-0.0968326 0.281641 0.134436
-0.0927125 0.28172 0.13462
-0.0883738 0.281641 0.136437
-0.0840059 0.281413 0.138531
-0.0793798 0.280981 0.140471
-0.0754487 0.281039 0.14172
-0.0714095 0.280276 0.144233
-0.0672278 0.280049 0.147145
-0.0628672 0.279995 0.147414
-0.0582212 0.280228 0.14875
-0.0543415 0.279788 0.149121
-0.0502414 0.279412 0.149708
-0.0461641 0.27914 0.151355
-0.0419573 0.279183 0.15255
-0.0376823 0.27912 0.152486
-0.033041 0.279237 0.151288
-0.0290755 0.279608 0.148532
-0.0248291 0.280704 0.140511
-0.0213839 0.282595 0.129618
-0.0168923 0.283802 0.122224
-0.0127981 0.284258 0.119026
-0.00868359 0.284467 0.118962
-0.00408478 0.28462 0.1181
0.000323498 0.284057 0.119408
0.00432874 0.284223 0.119423
0.00848609 0.284208 0.12044
0.0125153 0.283687 0.12327
0.0168649 0.28331 0.125073
0.0215495 0.282968 0.127218
0.0254736 0.282497 0.130803
0.0296546 0.281274 0.136359
0.0333215 0.280719 0.140199
0.0377445 0.280385 0.143904
0.0416751 0.279883 0.146874
0.0452302 0.275493 0.174672
0.0492837 0.274979 0.181131
0.0527984 0.274328 0.18363
0.0573619 0.274033 0.185686
0.0613696 0.274143 0.187056
0.065241 0.273746 0.187679
0.0693538 0.273465 0.188133
0.0734075 0.274047 0.187898
0.0774404 0.274071 0.188928
0.0813819 0.273584 0.189175
0.0857651 0.273602 0.190364
0.0898025 0.27301 0.192272
0.0937856 0.27269 0.193484
0.0976627 0.272911 0.195794
0.101539 0.272314 0.196908
0.105778 0.272493 0.198565
0.109549 0.272233 0.198768
0.113531 0.271952 0.199011
0.11783 0.271617 0.199385
0.121736 0.271688 0.200182
0.125957 0.271814 0.200872
0.130075 0.27146 0.20264
0.133787 0.271201 0.204841
0.137826 0.271184 0.206182
0.141409 0.270945 0.207311
0.144802 0.270625 0.209907
0.148915 0.269711 0.213954
0.153073 0.269989 0.216568
0.156683 0.269317 0.218024
0.160737 0.269602 0.217236
0.164607 0.269666 0.21587
0.169255 0.26991 0.213573
0.173715 0.270525 0.210427
0.17827 0.270638 0.207565
0.182314 0.271906 0.201796
0.306892 0.316421 -0.0943086
0.308135 0.312788 -0.0701001
0.311668 0.311741 -0.062171
0.315431 0.310802 -0.056596
0.319441 0.309848 -0.0520122
0.324041 0.309804 -0.0511243
0.328168 0.309385 -0.0474448
0.331897 0.308906 -0.0428722
0.335168 0.307974 -0.0381896
0.339484 0.307348 -0.0333896
0.343766 0.307018 -0.0321755
0.348049 0.306309 -0.030247
0.35225 0.306549 -0.0285997
0.356495 0.305789 -0.0263662
0.360608 0.305829 -0.0252447
0.365079 0.306122 -0.0233116
0.369536 0.306155 -0.0237446
0.37426 0.305269 -0.0242574
0.378879 0.306035 -0.0258236
0.384505 0.306637 -0.029197
0.389032 0.30652 -0.0299027
0.393831 0.306742 -0.0307219
0.398515 0.306979 -0.0305679
0.402512 0.30631 -0.0298431
0.407162 0.306428 -0.0277965
0.411231 0.306155 -0.0257707
0.415163 0.305678 -0.023735
0.419334 0.305393 -0.021487
0.42354 0.304867 -0.0203187
0.427691 0.305047 -0.0181556
0.431648 0.304808 -0.0159621
0.435751 0.304333 -0.0136678
0.440291 0.303673 -0.0115268
0.443509 0.303623 -0.0082078
0.448098 0.302903 -0.00555134
0.451994 0.302637 -0.00331283
0.455653 0.302407 -8.27312e-05
0.459671 0.302051 0.00114608
0.463813 0.301441 0.00357008
0.468017 0.301002 0.00482273
0.472131 0.301003 0.00613976
0.476237 0.300768 0.00777638
0.480305 0.301032 0.00915194
0.484451 0.300697 0.0106111
0.488285 0.29965 0.0146111
0.491853 0.299836 0.015818
0.496921 0.299959 0.0163175
0.500611 0.299455 0.0185388
0.503591 0.298769 0.0237335
0.50587 0.297488 0.0311764
0.508084 0.296256 0.040435
0.510127 0.294505 0.0504295
0.512167 0.293253 0.0599562
0.514341 0.291757 0.0688285
0.517324 0.29105 0.0730795
0.522896 0.292256 0.067506
-0.26096 0.257097 0.322633
-0.255664 0.255869 0.332107
-0.251322 0.254854 0.336629
-0.246854 0.25449 0.340528
-0.242675 0.254274 0.345574
-0.238622 0.253422 0.347836
-0.234025 0.253066 0.350941
-0.230713 0.252831 0.351417
-0.225999 0.252452 0.354734
-0.222629 0.252214 0.356937
-0.218497 0.251382 0.361047
-0.213895 0.250935 0.36517
-0.209739 0.250062 0.368069
-0.205609 0.249625 0.371879
-0.201726 0.24911 0.375376
-0.19759 0.248738 0.376663
-0.193769 0.248715 0.377822
-0.190422 0.248462 0.378135
-0.186441 0.248622 0.379662
-0.183086 0.248573 0.378753
-0.178962 0.248194 0.379424
-0.175116 0.248352 0.381051
-0.171746 0.248382 0.381619
-0.167941 0.248441 0.380429
-0.164057 0.248529 0.380757
-0.160745 0.24851 0.380874
-0.15749 0.248968 0.378408
-0.153849 0.249171 0.377444
-0.150232 0.249166 0.376045
-0.14662 0.249622 0.375621
-0.142872 0.249654 0.374847
-0.139678 0.249543 0.372622
-0.136064 0.249817 0.370155
-0.13252 0.250366 0.368382
-0.128696 0.25028 0.366601
-0.125356 0.250754 0.366507
-0.129865 0.267874 0.252285
-0.135292 0.286996 0.127388
-0.130693 0.287104 0.127768
-0.126937 0.287414 0.127798
-0.122316 0.286494 0.130897
-0.11814 0.286679 0.130821
-0.114064 0.286845 0.130337
-0.109721 0.286425 0.130525
-0.105627 0.286329 0.130837
-0.100949 0.286843 0.130569
-0.0970146 0.286505 0.130939
-0.0925675 0.286774 0.131681
-0.0885214 0.286242 0.133525
-0.0841414 0.285851 0.136778
-0.0794467 0.285296 0.139054
-0.0754271 0.284987 0.141286
-0.0710877 0.284616 0.142748
-0.0668914 0.284537 0.145683
-0.0628598 0.284614 0.146194
-0.0587307 0.284288 0.146782
-0.0541975 0.284118 0.148462
-0.0499685 0.283758 0.148993
-0.0456748 0.283776 0.150731
-0.0416509 0.283285 0.151135
-0.0376876 0.283718 0.15184
-0.0331803 0.283257 0.151434
-0.0293833 0.283435 0.151661
-0.0251695 0.283949 0.148115
-0.0204475 0.285087 0.14132
-0.0170973 0.28676 0.12923
-0.0128519 0.287764 0.12241
-0.00788755 0.287836 0.1188
-0.00443524 0.288184 0.117895
3.99282e-05 0.288283 0.118305
0.00396381 0.288677 0.118659
0.00825688 0.288437 0.120387
0.0133153 0.288109 0.122231
0.0169506 0.287533 0.123724
0.02051 0.287 0.127367
0.0254193 0.286314 0.132228
0.0293118 0.285528 0.137433
0.0331594 0.285341 0.140436
0.0374995 0.284137 0.147022
0.0406958 0.280136 0.174043
0.0452652 0.279246 0.178323
0.049147 0.278937 0.181672
0.0527653 0.278337 0.184437
0.0571274 0.278054 0.187061
0.0613872 0.277929 0.18767
0.065548 0.278018 0.188473
0.0694114 0.277884 0.188961
0.073342 0.277755 0.18897
0.077644 0.277662 0.189718
0.0817424 0.27763 0.189228
0.0860433 0.277671 0.191191
0.0899304 0.277282 0.192353
0.0936554 0.276673 0.194101
0.0978225 0.276458 0.1959
0.101739 0.276633 0.19613
0.105773 0.276476 0.196627
0.109805 0.27701 0.196677
0.113987 0.276594 0.195724
0.117995 0.276467 0.196268
0.122214 0.276686 0.196527
0.125757 0.275967 0.198866
0.130173 0.275899 0.200943
0.133808 0.275492 0.203312
0.137606 0.275178 0.205102
0.141554 0.27495 0.206169
0.144856 0.274872 0.208455
0.149112 0.274009 0.212757
0.152918 0.273727 0.214443
0.156632 0.273233 0.217026
0.161072 0.273801 0.215857
0.164941 0.27374 0.214687
0.169603 0.274763 0.209797
0.173923 0.274699 0.207575
0.178389 0.275123 0.20405
0.316755 0.316732 -0.0642512
0.319984 0.315692 -0.0570648
0.324537 0.314887 -0.0554438
0.328402 0.315252 -0.0527925
0.332582 0.313994 -0.0483961
0.336038 0.313677 -0.0432353
0.340075 0.31227 -0.0377049
0.344278 0.312261 -0.0353115
0.348073 0.311519 -0.0336668
0.352393 0.311076 -0.0288949
0.356112 0.310552 -0.0268447
0.360552 0.310908 -0.0240691
0.36484 0.310172 -0.0234125
0.369602 0.309836 -0.0221908
0.373722 0.310121 -0.022104
0.378664 0.310339 -0.0234728
0.383963 0.31098 -0.0265288
0.388876 0.310477 -0.0286038
0.394149 0.310876 -0.0298584
0.39872 0.311448 -0.0320182
0.403244 0.311722 -0.0315042
0.407226 0.311134 -0.0286424
0.411451 0.310492 -0.0262229
0.415627 0.310317 -0.0233567
0.419279 0.310019 -0.0211143
0.423572 0.309391 -0.0192592
0.427985 0.309422 -0.0183237
0.431554 0.309132 -0.0160766
0.435985 0.308719 -0.0137186
0.439896 0.308799 -0.0108397
0.443835 0.307993 -0.00774503
0.447478 0.307709 -0.00472546
0.45154 0.307203 -0.00159764
0.45541 0.306449 0.00170982
0.459079 0.306224 0.00414348
0.462853 0.305595 0.00632215
0.467184 0.305309 0.00803721
0.471258 0.305161 0.00990546
0.476091 0.305452 0.0089246
0.479847 0.304686 0.0104501
0.483987 0.304561 0.0125107
0.487708 0.304749 0.0160631
0.492852 0.304182 0.0161314
0.496529 0.304105 0.0167692
0.505439 0.306252 -0.000699282
-0.260359 0.260212 0.3273
-0.255576 0.259231 0.335172
-0.250447 0.258087 0.34075
-0.246614 0.257432 0.344477
-0.242411 0.256907 0.347934
-0.237956 0.256625 0.350852
-0.233733 0.256386 0.354589
-0.229699 0.255875 0.356159
-0.226055 0.255329 0.357758
-0.221641 0.255122 0.36094
-0.217624 0.254023 0.364855
-0.213828 0.253667 0.367759
-0.209345 0.25352 0.370641
-0.205348 0.253205 0.374557
-0.201119 0.252637 0.376451
-0.197714 0.252374 0.378524
-0.193861 0.251998 0.379843
-0.189932 0.252037 0.38021
-0.186395 0.252056 0.379737
-0.182278 0.251862 0.381095
-0.178857 0.251853 0.381205
-0.175265 0.252141 0.381392
-0.171494 0.251723 0.383187
-0.167574 0.251551 0.382594
-0.164066 0.251701 0.382609
-0.160655 0.251666 0.380928
-0.157002 0.252217 0.380937
-0.153593 0.252138 0.379566
-0.150284 0.252484 0.378441
-0.146522 0.2525 0.376618
-0.142996 0.252586 0.375838
-0.139161 0.252898 0.374051
-0.135746 0.253393 0.370515
-0.132421 0.253674 0.369324
-0.128862 0.254359 0.366985
-0.125525 0.254543 0.365723
-0.129984 0.272371 0.250488
-0.135479 0.29257 0.119916
-0.131323 0.292331 0.121794
-0.126685 0.291814 0.123851
-0.122618 0.291817 0.124457
-0.118397 0.291664 0.125784
-0.113921 0.291738 0.124689
-0.109969 0.292172 0.123516
-0.105362 0.291579 0.125902
-0.10163 0.291475 0.126049
-0.0970533 0.291478 0.12738
-0.0927578 0.291102 0.129793
-0.0884584 0.290125 0.132435
-0.0841174 0.290026 0.134419
-0.0798685 0.289879 0.136647
-0.0758446 0.289766 0.138916
-0.0713648 0.289526 0.141291
-0.0670679 0.289073 0.142423
-0.0626324 0.288745 0.143945
-0.0584529 0.288881 0.145152
-0.0543821 0.288669 0.146428
-0.0501807 0.28788 0.149509
-0.0458237 0.287707 0.150534
-0.0413711 0.287947 0.150617
-0.0374902 0.288033 0.151011
-0.0332473 0.287504 0.152
-0.0293872 0.287612 0.152043
-0.0251531 0.287785 0.150232
-0.0208584 0.288245 0.148314
-0.0168149 0.288954 0.144735
-0.0126127 0.290442 0.13373
-0.00827644 0.291693 0.123065
-0.00445061 0.292718 0.12012
0.000196876 0.292665 0.119007
0.00403033 0.292881 0.118491
0.00869932 0.2924 0.120795
0.0125812 0.292318 0.121481
0.0165879 0.291858 0.123434
0.0210917 0.291999 0.127603
0.0252709 0.290389 0.133088
0.0294331 0.290036 0.137119
0.0333198 0.28882 0.144216
0.0373089 0.284415 0.172429
0.0410568 0.283887 0.17685
0.0450799 0.283242 0.179868
0.0490685 0.282724 0.18238
0.053373 0.282516 0.18485
0.0572621 0.282099 0.186397
0.0611062 0.282224 0.187657
0.0657047 0.281807 0.189813
0.0692606 0.281952 0.189055
0.0737405 0.281927 0.18859
0.0776071 0.282185 0.189466
0.0814904 0.281579 0.190199
0.0858324 0.281188 0.191406
0.0895783 0.281184 0.192626
0.0938458 0.281111 0.194216
0.0973745 0.280685 0.195705
0.101756 0.280907 0.195755
0.105667 0.280645 0.196147
0.10986 0.280608 0.195675
0.113982 0.281195 0.195419
0.118109 0.280597 0.194872
0.122124 0.280769 0.195425
0.125938 0.280434 0.198715
0.129824 0.280054 0.200435
0.13373 0.279498 0.203362
0.137769 0.279093 0.204799
0.141823 0.279463 0.205026
0.145431 0.279177 0.205684
0.150173 0.279336 0.205552
0.153233 0.278859 0.207812
0.157284 0.27834 0.211107
0.161334 0.278192 0.211326
0.165566 0.278204 0.210222
0.16968 0.27926 0.20629
0.179414 0.288082 0.150265
0.325903 0.32122 -0.0639389
0.329945 0.320305 -0.0582571
0.333416 0.319595 -0.0529573
0.337196 0.318587 -0.0483177
0.341109 0.318397 -0.0458994
0.345861 0.318052 -0.0429468
0.349949 0.317264 -0.0383165
0.353428 0.31623 -0.0335889
0.35708 0.315938 -0.0300899
0.360986 0.315695 -0.0264294
0.365361 0.315576 -0.026391
0.369827 0.315478 -0.0259614
0.374618 0.315557 -0.0270715
0.379599 0.315636 -0.0279312
0.384763 0.315799 -0.0312099
0.389935 0.31636 -0.0327804
0.394601 0.316139 -0.0339494
0.39909 0.316491 -0.0339639
0.40333 0.316672 -0.0331926
0.407147 0.315414 -0.0287075
0.411112 0.315485 -0.0255971
0.415069 0.314601 -0.0227313
0.418988 0.314613 -0.0203862
0.422848 0.31381 -0.0185122
0.427699 0.31387 -0.0174882
0.431912 0.313479 -0.0161593
0.435948 0.313928 -0.0143316
0.440099 0.313191 -0.0119843
0.443565 0.312827 -0.00814581
0.4476 0.311656 -0.00413656
0.451109 0.311774 -0.00143576
0.454449 0.310785 0.00330353
0.45897 0.310297 0.0045929
0.462893 0.309954 0.0075326
0.466837 0.309668 0.0097574
0.471033 0.309777 0.0105696
0.475375 0.309699 0.0126851
0.479135 0.308736 0.0152555
0.483288 0.308507 0.0170327
0.487192 0.308354 0.0183774
0.491116 0.30844 0.0191829
0.49598 0.308506 0.0172067
-0.25916 0.263221 0.333973
-0.25471 0.262396 0.338907
-0.250413 0.261598 0.343722
-0.2459 0.260807 0.347364
-0.241884 0.260383 0.350622
-0.237419 0.259868 0.354632
-0.233586 0.259449 0.356939
-0.229233 0.258467 0.359955
-0.225672 0.25876 0.360657
-0.221429 0.258444 0.36386
-0.217273 0.25741 0.36825
-0.213077 0.257278 0.369717
-0.209025 0.256857 0.372605
-0.205135 0.256253 0.376049
-0.201205 0.255923 0.37848
-0.19739 0.25578 0.379664
-0.193266 0.255741 0.380767
-0.190008 0.255396 0.381571
-0.186107 0.255297 0.381547
-0.18228 0.255507 0.382341
-0.178537 0.255341 0.382563
-0.174786 0.255309 0.383604
-0.171542 0.25515 0.384146
-0.167625 0.254653 0.384977
-0.163798 0.2548 0.385414
-0.160419 0.255544 0.383899
-0.157015 0.255739 0.381954
-0.153238 0.256002 0.380138
-0.149941 0.256043 0.379399
-0.146082 0.255629 0.378863
-0.142642 0.256154 0.377301
-0.139321 0.256589 0.375559
-0.135564 0.256914 0.372782
-0.132479 0.257197 0.369652
-0.128869 0.257647 0.369056
-0.125577 0.25787 0.367629
-0.129944 0.276052 0.249452
-0.13604 0.297541 0.115727
-0.131664 0.29757 0.116206
-0.127485 0.297343 0.116907
-0.123166 0.297119 0.118975
-0.118999 0.297095 0.119314
-0.114625 0.296104 0.121763
-0.110227 0.297428 0.119432
-0.105493 0.297027 0.120645
-0.101354 0.295778 0.123699
-0.0972431 0.296368 0.124422
-0.0931241 0.295603 0.126761
-0.0886007 0.295323 0.1293
-0.0840145 0.294955 0.132227
-0.0799464 0.294819 0.133369
-0.0755154 0.294635 0.135731
-0.0708849 0.29434 0.137498
-0.067015 0.293728 0.14059
-0.0629378 0.293901 0.140197
-0.0583554 0.293126 0.14285
-0.0543854 0.2927 0.145117
-0.0505497 0.292784 0.147814
-0.0457731 0.291965 0.14995
-0.0419594 0.291669 0.150457
-0.037659 0.292197 0.149705
-0.0328321 0.29208 0.150802
-0.0284942 0.291875 0.150895
-0.0250219 0.291793 0.151353
-0.0209374 0.292037 0.152102
-0.0167013 0.292261 0.149262
-0.0129189 0.292314 0.146127
-0.00845605 0.293936 0.136637
-0.0039383 0.295251 0.128435
-0.000161164 0.296524 0.122307
0.00394964 0.297195 0.120598
0.00839902 0.296211 0.120821
0.0125381 0.296675 0.121775
0.0170023 0.295809 0.124063
0.0207228 0.295847 0.127818
0.0252642 0.295036 0.132863
0.0298028 0.293009 0.143012
0.0332764 0.289488 0.166794
0.0370161 0.288865 0.171707
0.0411303 0.288095 0.176759
0.0453435 0.287782 0.178868
0.0491812 0.287 0.181867
0.0529729 0.286648 0.184324
0.0575211 0.286393 0.186472
0.0612466 0.286141 0.187038
0.065178 0.286259 0.187635
0.0692238 0.286031 0.187672
0.0736111 0.28604 0.188282
0.0777561 0.286339 0.188005
0.0817943 0.285321 0.19075
0.0859888 0.285621 0.191743
0.0893914 0.285232 0.19231
0.0934416 0.285023 0.193634
0.0975227 0.284803 0.194515
0.102121 0.284933 0.195796
0.105462 0.28475 0.196512
0.109527 0.284936 0.195731
0.113954 0.284951 0.194762
0.117826 0.284912 0.195429
0.121565 0.285194 0.197091
0.125894 0.284334 0.198041
0.129666 0.28439 0.1992
0.133621 0.284027 0.201037
0.137832 0.283956 0.203138
0.141748 0.283495 0.203938
0.146035 0.283775 0.202779
0.150058 0.283887 0.201763
0.154417 0.284352 0.200114
0.158774 0.284674 0.196836
0.162906 0.284734 0.194943
0.166899 0.28569 0.19075
0.173071 0.288223 0.17242
0.179087 0.291244 0.155118
0.183956 0.292527 0.147895
0.337985 0.32391 -0.0532975
0.341838 0.323535 -0.0489995
0.346188 0.322874 -0.0469313
0.350454 0.32259 -0.0445364
0.354395 0.322027 -0.0404932
0.35849 0.321946 -0.0368145
0.362348 0.320966 -0.0338163
0.366836 0.321284 -0.0333889
0.371504 0.320601 -0.0329392
0.376288 0.320874 -0.0323496
0.380377 0.320774 -0.032656
0.385542 0.320967 -0.0339966
0.390126 0.321157 -0.0358882
0.395458 0.322025 -0.038743
0.400076 0.321536 -0.0376163
0.403456 0.321024 -0.0332458
0.407265 0.320258 -0.0287983
0.411101 0.319594 -0.0253804
0.414901 0.319379 -0.0218828
0.41883 0.318874 -0.0200658
0.422829 0.318515 -0.0178564
0.427246 0.318151 -0.0152025
0.431701 0.317805 -0.0144937
0.435399 0.317451 -0.0124621
0.440009 0.317486 -0.011584
0.444083 0.317386 -0.00945258
0.447848 0.316311 -0.00546026
0.451583 0.315921 -0.000295877
0.454884 0.314957 0.00347543
0.459185 0.31446 0.005934
0.46256 0.314177 0.00888324
0.466783 0.313499 0.0110739
0.470574 0.313491 0.0131323
0.474555 0.313588 0.0148095
0.478334 0.312801 0.0169177
0.482567 0.312985 0.0189915
0.486863 0.312623 0.0196613
0.490752 0.312294 0.0216644
0.494535 0.311666 0.0249486
0.498654 0.311733 0.0245055
-0.258622 0.266265 0.335523
-0.253791 0.265461 0.342976
-0.249944 0.264851 0.346783
-0.245823 0.264343 0.349564
-0.241291 0.263407 0.35443
-0.237226 0.262931 0.357221
-0.233297 0.262576 0.359743
-0.228872 0.262332 0.363002
-0.224946 0.262155 0.363266
-0.221 0.261584 0.367157
-0.217026 0.260902 0.369794
-0.212753 0.260428 0.37298
-0.208876 0.260283 0.374195
-0.204778 0.25988 0.377221
-0.201295 0.259642 0.379201
-0.197407 0.259218 0.380492
-0.19311 0.259222 0.382591
-0.189637 0.258712 0.383983
-0.185964 0.258661 0.384116
-0.181783 0.258609 0.383913
-0.178766 0.258753 0.383692
-0.17473 0.258573 0.385002
-0.170822 0.258492 0.385396
-0.167188 0.25816 0.387053
-0.163815 0.258299 0.385548
-0.160018 0.258177 0.385583
-0.156714 0.258596 0.38387
-0.153306 0.259189 0.381821
-0.149719 0.259328 0.379739
-0.146361 0.259751 0.378801
-0.14257 0.259016 0.378574
-0.139398 0.259545 0.376741
-0.135821 0.260496 0.373333
-0.132225 0.260742 0.371416
-0.128726 0.260967 0.369806
-0.125119 0.261614 0.366833
-0.130219 0.280863 0.248501
-0.136661 0.302995 0.110694
-0.132146 0.302592 0.112672
-0.127607 0.302571 0.112341
-0.122857 0.302566 0.111571
-0.1194 0.302504 0.111438
-0.114726 0.302749 0.111477
-0.110496 0.30213 0.113865
-0.106218 0.302128 0.114889
-0.101513 0.301513 0.117982
-0.0973037 0.301445 0.120362
-0.0928438 0.30076 0.12364
-0.0888729 0.299885 0.126519
-0.0846635 0.299383 0.12876
-0.0802127 0.299739 0.129256
-0.0758013 0.299587 0.130829
-0.0714502 0.298938 0.132817
-0.0671222 0.298335 0.135039
-0.0629422 0.298877 0.134977
-0.0590568 0.298225 0.138586
-0.054267 0.297268 0.14404
-0.049807 0.296705 0.146198
-0.0461367 0.296647 0.146816
-0.0414852 0.296782 0.148459
-0.0376296 0.296485 0.148101
-0.0337753 0.296625 0.14856
-0.029642 0.296586 0.149376
-0.0248215 0.295812 0.151773
-0.0211196 0.295854 0.150924
-0.0167554 0.295792 0.151548
-0.0123852 0.296436 0.150059
-0.00828411 0.296627 0.14811
-0.00384917 0.297579 0.141631
-0.000255419 0.298259 0.138478
0.00454231 0.299415 0.126757
0.00830614 0.300192 0.124695
0.0125566 0.30034 0.124491
0.0171271 0.300145 0.127733
0.0209589 0.299121 0.132105
0.0250682 0.297023 0.145467
0.0292166 0.293807 0.164327
0.0327992 0.293242 0.168884
0.0368718 0.292558 0.172736
0.0410536 0.291989 0.176451
0.0449454 0.291339 0.180492
0.0491753 0.291139 0.182597
0.0531842 0.290306 0.186056
0.05702 0.290254 0.186491
0.0615182 0.289816 0.187758
0.0654911 0.290311 0.186772
0.0692888 0.290492 0.18682
0.0738728 0.290694 0.186608
0.0774889 0.290205 0.187415
0.0815442 0.289931 0.188615
0.0855925 0.289804 0.19083
0.090002 0.289113 0.192896
0.0936219 0.289189 0.194103
0.0975323 0.288757 0.197115
0.101519 0.288806 0.198294
0.105675 0.288121 0.199929
0.109635 0.288431 0.198343
0.113647 0.288812 0.198428
0.118008 0.288587 0.197952
0.122167 0.288655 0.19795
0.125957 0.288531 0.198531
0.130019 0.288324 0.200181
0.134039 0.287899 0.200037
0.137663 0.287826 0.202444
0.142248 0.287845 0.202563
0.145785 0.287743 0.201871
0.150335 0.287874 0.201144
0.154511 0.288565 0.19835
0.158749 0.288952 0.195574
0.163119 0.289127 0.192363
0.167378 0.28976 0.188309
0.173097 0.292618 0.17195
0.177673 0.29333 0.167414
0.183266 0.295727 0.152369
0.345703 0.331857 -0.0720353
0.349115 0.329869 -0.0627954
0.353257 0.330162 -0.0622971
0.35591 0.32806 -0.0468719
0.359202 0.326524 -0.0408475
0.362987 0.325543 -0.037075
0.367429 0.326468 -0.0379686
0.372857 0.326522 -0.0379968
0.37689 0.325749 -0.0360174
0.381727 0.326655 -0.0392296
0.386811 0.327082 -0.0420308
0.391934 0.327294 -0.0432043
0.396285 0.327148 -0.0436323
0.400939 0.327158 -0.0440421
0.403284 0.325298 -0.0318441
0.406946 0.324618 -0.0282521
0.410874 0.324238 -0.0243428
0.414668 0.323882 -0.0220127
0.418865 0.323196 -0.0198302
0.423037 0.322672 -0.0169234
0.427165 0.322236 -0.0143831
0.431253 0.322625 -0.0127783
0.435132 0.32204 -0.0105085
0.439482 0.322093 -0.00976372
0.444092 0.321469 -0.00852966
0.447608 0.32142 -0.00619268
0.451512 0.320508 -0.00281215
0.455141 0.319937 0.00147724
0.458669 0.31921 0.00755477
0.462542 0.318625 0.0097276
0.466683 0.318294 0.0115579
0.470013 0.318047 0.0138408
0.47411 0.317918 0.0167664
0.478176 0.317434 0.0182208
0.482091 0.317146 0.0200971
0.486091 0.316627 0.0226687
0.489679 0.316052 0.0266894
0.492893 0.315677 0.0312046
0.496604 0.315195 0.033789
0.501605 0.315168 0.0311209
-0.264243 0.271934 0.325159
-0.258685 0.269933 0.336997
-0.253976 0.26902 0.34331
-0.249844 0.268065 0.348197
-0.245655 0.267628 0.351209
-0.240928 0.266886 0.356468
-0.236792 0.266268 0.360053
-0.232468 0.266129 0.362764
-0.228419 0.265898 0.364884
-0.224357 0.265412 0.366403
-0.220972 0.264592 0.368488
-0.216713 0.264356 0.372317
-0.212732 0.263832 0.374343
-0.208814 0.26379 0.375908
-0.204848 0.263576 0.378532
-0.200697 0.262931 0.381113
-0.196237 0.262406 0.384665
-0.193274 0.261943 0.385197
-0.188984 0.262409 0.385977
-0.185814 0.262107 0.385716
-0.182281 0.262386 0.385181
-0.178347 0.26202 0.386032
-0.174516 0.261973 0.386015
-0.171227 0.261852 0.386568
-0.167423 0.261805 0.38708
-0.163412 0.26203 0.387137
-0.160323 0.262226 0.386925
-0.156685 0.262458 0.385432
-0.153286 0.26239 0.383358
-0.149611 0.262928 0.381197
-0.146005 0.263002 0.380701
-0.14291 0.263102 0.378716
-0.139655 0.263506 0.377076
-0.136053 0.264375 0.373624
-0.132205 0.264025 0.371793
-0.12887 0.264136 0.370483
-0.133812 0.283577 0.253588
-0.141408 0.308618 0.101282
-0.13669 0.307551 0.106498
-0.132291 0.307359 0.109029
-0.127741 0.306922 0.110003
-0.123864 0.307223 0.108577
-0.119225 0.307588 0.106175
-0.115308 0.307826 0.105036
-0.111362 0.307839 0.104902
-0.106542 0.306455 0.109666
-0.101721 0.306901 0.111621
-0.0978248 0.306046 0.114814
-0.0933206 0.305428 0.118274
-0.0893232 0.305253 0.119851
-0.0847062 0.304193 0.124301
-0.0805208 0.304691 0.125406
-0.0762772 0.303843 0.12807
-0.0716802 0.303789 0.129272
-0.0675035 0.303962 0.129325
-0.0634225 0.303931 0.130879
-0.058669 0.303293 0.133713
-0.0546125 0.30281 0.138309
-0.0502507 0.301611 0.143107
-0.0460038 0.301022 0.144369
-0.0418387 0.30174 0.144505
-0.0376866 0.301155 0.146599
-0.0333789 0.301171 0.147271
-0.0292369 0.300817 0.147609
-0.0250334 0.300283 0.150881
-0.020889 0.300319 0.150415
-0.0165609 0.299868 0.151567
-0.0127184 0.300009 0.151984
-0.00786019 0.30019 0.15155
-0.00449945 0.300222 0.151431
9.48465e-06 0.300426 0.149697
0.00458791 0.300853 0.146675
0.0084155 0.301131 0.145377
0.0125285 0.30133 0.145304
0.0163431 0.301094 0.145677
0.0209844 0.300497 0.150774
0.0247434 0.298728 0.160946
0.0290287 0.297389 0.166366
0.0332137 0.296707 0.168985
0.0372712 0.2962 0.173711
0.0411366 0.296191 0.177369
0.0451742 0.295516 0.180615
0.0489668 0.294787 0.182632
0.0532078 0.295035 0.184735
0.0574049 0.294819 0.18471
0.0616263 0.294968 0.184861
0.065529 0.294784 0.185693
0.0694646 0.294636 0.185683
0.0737725 0.294597 0.185896
0.0775505 0.294568 0.185903
0.0817499 0.294133 0.188118
0.0859462 0.29385 0.190706
0.0896689 0.29328 0.193167
0.093441 0.292904 0.195988
0.0976718 0.292374 0.200049
0.101522 0.291831 0.201174
0.105329 0.292053 0.201739
0.109779 0.292051 0.201907
0.113994 0.292414 0.200365
0.117574 0.291635 0.200543
0.121263 0.292018 0.201577
0.125602 0.29188 0.201544
0.130105 0.292146 0.201199
0.133906 0.292669 0.199525
0.138368 0.292854 0.199514
0.142154 0.292467 0.199962
0.146213 0.292214 0.199259
0.150688 0.292302 0.197939
0.154665 0.292623 0.196858
0.158765 0.29344 0.193269
0.163294 0.294096 0.18811
0.1686 0.295563 0.177958
0.17305 0.296578 0.172163
0.177692 0.297551 0.168569
0.183094 0.299372 0.154403
0.36245 0.335163 -0.0612323
0.365585 0.333421 -0.0532653
0.370379 0.333285 -0.0522635
0.374797 0.333095 -0.0514576
0.379482 0.333134 -0.0497077
0.382874 0.332577 -0.0481689
0.388054 0.332978 -0.0481241
0.392683 0.332907 -0.0482876
0.398025 0.333199 -0.0514369
0.403644 0.333797 -0.0554366
0.407116 0.333503 -0.0525229
0.407088 0.329378 -0.0271871
0.410848 0.328783 -0.0245419
0.414967 0.328416 -0.0223584
0.419067 0.327765 -0.018856
0.422918 0.327426 -0.0163324
0.426804 0.327129 -0.0144801
0.430448 0.326581 -0.0107057
0.434688 0.326147 -0.00964046
0.439239 0.325812 -0.00770164
0.443392 0.325685 -0.00593925
0.447591 0.325498 -0.00505018
0.451988 0.325128 -0.00219393
0.454969 0.324615 0.00164723
0.458841 0.32374 0.00647318
0.462518 0.323369 0.00856185
0.466413 0.32261 0.0120363
0.469697 0.321993 0.015777
0.473545 0.322008 0.0166466
0.477709 0.32164 0.0191997
0.482213 0.321727 0.0213743
0.485101 0.321088 0.026111
0.487911 0.319651 0.0319792
0.491654 0.318596 0.0365462
0.495138 0.318337 0.0397415
0.499864 0.31768 0.040804
0.50456 0.318963 0.0373315
-0.259063 0.273977 0.335541
-0.254291 0.27279 0.342048
-0.249654 0.272016 0.347807
-0.245167 0.271109 0.353764
-0.240439 0.27051 0.358288
-0.236699 0.270085 0.360578
-0.232463 0.269255 0.36348
-0.228427 0.269302 0.364885
-0.224581 0.26845 0.367431
-0.220221 0.268288 0.369869
-0.216555 0.267845 0.372642
-0.212559 0.267488 0.374901
-0.208499 0.267419 0.3773
-0.204412 0.266832 0.380216
-0.200752 0.266014 0.382892
-0.196557 0.265813 0.385486
-0.192753 0.265509 0.386268
-0.18926 0.265494 0.387255
-0.18575 0.26535 0.387667
-0.182035 0.265756 0.386619
-0.178083 0.265602 0.386958
-0.174617 0.265116 0.388228
-0.170888 0.265468 0.387672
-0.167414 0.265314 0.388644
-0.163332 0.26543 0.388207
-0.159731 0.265928 0.38713
-0.156711 0.26585 0.386494
-0.153104 0.266183 0.384312
-0.149661 0.266614 0.381534
-0.146218 0.266285 0.38061
-0.142626 0.26684 0.378361
-0.139339 0.267533 0.37645
-0.135866 0.267542 0.374078
-0.132352 0.267796 0.372033
-0.128848 0.268657 0.368082
-0.133717 0.287337 0.255652
-0.141487 0.313202 0.0985508
-0.137132 0.312116 0.103406
-0.132381 0.311769 0.106158
-0.128005 0.311607 0.108931
-0.12368 0.311556 0.108244
-0.119178 0.311594 0.107648
-0.115127 0.312066 0.106036
-0.111249 0.311906 0.10571
-0.107252 0.312395 0.104825
-0.102616 0.311789 0.105827
-0.0985289 0.311735 0.107041
-0.09396 0.311225 0.109961
-0.0895703 0.311153 0.111381
-0.0850871 0.310598 0.114159
-0.0805203 0.310242 0.116579
-0.0767754 0.309459 0.12016
-0.0716772 0.308662 0.124155
-0.0675582 0.309009 0.125496
-0.0634421 0.307781 0.128296
-0.0590808 0.307109 0.131419
-0.0546663 0.307374 0.134072
-0.0502316 0.306511 0.137503
-0.0459367 0.306401 0.139543
-0.0414911 0.305793 0.140932
-0.0376514 0.305291 0.144362
-0.0335271 0.305102 0.14626
-0.0293749 0.304768 0.148361
-0.025117 0.305013 0.149075
-0.0206888 0.304807 0.148361
-0.0165984 0.304331 0.150361
-0.0128091 0.303995 0.151765
-0.00840833 0.303608 0.153701
-0.00408461 0.304201 0.152873
0.000222491 0.304349 0.15209
0.00434431 0.304022 0.152741
0.00830192 0.304221 0.152352
0.0125244 0.304301 0.151805
0.0166567 0.303972 0.155299
0.021009 0.303269 0.158775
0.0248204 0.302219 0.162635
0.0287083 0.30186 0.165566
0.0326807 0.301883 0.168434
0.0368789 0.300582 0.172922
0.0414486 0.299705 0.17775
0.0452106 0.299702 0.180346
0.0489389 0.29955 0.181511
0.0531882 0.29931 0.183506
0.0574256 0.299012 0.183345
0.0616718 0.29885 0.18407
0.0656593 0.299261 0.184439
0.0696123 0.298435 0.186032
0.0733916 0.298821 0.184829
0.0779614 0.298557 0.186753
0.0815492 0.298728 0.187611
0.0858842 0.29783 0.190392
0.0894561 0.297128 0.194697
0.0935781 0.296727 0.198904
0.0973514 0.296258 0.201488
0.101297 0.295892 0.202956
0.105509 0.295938 0.203065
0.110005 0.295959 0.203696
0.113165 0.295942 0.202919
0.117699 0.295783 0.204867
0.121673 0.295288 0.204786
0.125454 0.295593 0.205579
0.129873 0.296013 0.202677
0.133847 0.296366 0.200193
0.137962 0.297029 0.197593
0.142246 0.296796 0.196806
0.146867 0.296747 0.195372
0.150942 0.297492 0.193238
0.155177 0.298617 0.189468
0.159435 0.298666 0.186688
0.164483 0.299604 0.181339
0.168717 0.300781 0.174456
0.173434 0.301162 0.170219
0.177477 0.301847 0.168322
0.181764 0.301646 0.1658
0.407335 0.333744 -0.0289032
0.411178 0.333601 -0.0255389
0.414722 0.333226 -0.0229425
0.418706 0.332552 -0.0195794
0.422803 0.331942 -0.0151381
0.426554 0.331452 -0.0128849
0.430971 0.330801 -0.0101702
0.433965 0.330182 -0.00633955
0.43853 0.330264 -0.00541544
0.442504 0.330063 -0.00291681
0.446909 0.329526 -0.00118232
0.451132 0.329016 -5.72205e-05
0.455099 0.32936 0.00156474
0.458819 0.328685 0.00442028
0.462632 0.328142 0.00780463
0.46625 0.327084 0.0120709
0.469935 0.326541 0.0160679
0.473693 0.326191 0.0177239
0.477613 0.325813 0.0194097
0.481668 0.325548 0.0222633
0.484468 0.324494 0.0286599
0.487228 0.32364 0.0345608
0.490584 0.32281 0.0388863
0.493558 0.321594 0.0444884
0.497097 0.320895 0.0491995
0.502197 0.321438 0.0480857
0.508235 0.322773 0.039254
-0.259193 0.277968 0.334454
-0.254403 0.276832 0.34121
-0.249377 0.275662 0.348445
-0.24465 0.274799 0.354037
-0.240621 0.274201 0.357582
-0.23665 0.273353 0.361759
-0.232547 0.272932 0.363874
-0.229022 0.272718 0.36628
-0.224554 0.272424 0.367306
-0.220416 0.271864 0.370707
-0.216419 0.271511 0.374484
-0.212593 0.270821 0.377091
-0.20808 0.270051 0.379944
-0.203749 0.270062 0.38203
-0.200708 0.26964 0.383042
-0.196328 0.269377 0.385744
-0.192841 0.268993 0.386929
-0.188833 0.269277 0.38907
-0.18546 0.26885 0.388868
-0.181486 0.268825 0.388148
-0.177909 0.269105 0.388965
-0.174168 0.269186 0.388455
-0.170799 0.26857 0.389292
-0.167231 0.268556 0.39001
-0.163439 0.269072 0.388839
-0.159958 0.26913 0.388026
-0.156508 0.269183 0.385946
-0.153096 0.269523 0.384136
-0.149785 0.269675 0.382027
-0.146403 0.270605 0.380372
-0.142328 0.27048 0.379028
-0.138966 0.270855 0.375785
-0.135459 0.271021 0.373631
-0.132145 0.271411 0.371905
-0.137012 0.289908 0.263073
-0.13356 0.290815 0.257547
-0.141739 0.317224 0.0968361
-0.136848 0.316733 0.101696
-0.132316 0.31583 0.105915
-0.128061 0.315783 0.107943
-0.123246 0.315753 0.109243
-0.11931 0.31547 0.109282
-0.115141 0.315817 0.107134
-0.11159 0.316041 0.106836
-0.106713 0.316281 0.106395
-0.102614 0.316253 0.105425
-0.0981549 0.31593 0.106549
-0.0937577 0.316315 0.105969
-0.0895991 0.316159 0.105897
-0.0855657 0.316114 0.10554
-0.0808601 0.316352 0.104714
-0.0769721 0.316343 0.105017
-0.0726873 0.315916 0.107399
-0.0679195 0.314036 0.117666
-0.0636829 0.313246 0.123052
-0.0590457 0.312896 0.126724
-0.0548367 0.311931 0.129839
-0.0504667 0.31157 0.132477
-0.0462171 0.311285 0.133218
-0.041977 0.31148 0.134348
-0.0378632 0.310468 0.139539
-0.0336642 0.310036 0.142706
-0.0292643 0.309818 0.145349
-0.0251998 0.308963 0.147588
-0.020897 0.309372 0.147748
-0.0162351 0.308788 0.148936
-0.0121848 0.308771 0.149409
-0.00862242 0.308435 0.151356
-0.00409588 0.308172 0.153152
-0.000424125 0.308312 0.15274
0.00420553 0.308027 0.153729
0.00796177 0.308212 0.153851
0.0126999 0.307609 0.155057
0.0168219 0.307665 0.157247
0.0211046 0.30687 0.161365
0.0250849 0.306514 0.163681
0.0289939 0.306059 0.166853
0.032832 0.305812 0.170149
0.0365278 0.304648 0.173879
0.0412619 0.304086 0.177477
0.0450013 0.303527 0.180513
0.0491815 0.303643 0.18171
0.0535808 0.303246 0.182261
0.0575079 0.303284 0.182928
0.0614711 0.302654 0.184389
0.0654846 0.303267 0.184154
0.069414 0.303029 0.184592
0.0740682 0.302705 0.18528
0.0781438 0.303146 0.184865
0.081816 0.302697 0.18697
0.0855973 0.302078 0.190833
0.0897766 0.301042 0.195867
0.093326 0.30023 0.199922
0.0971589 0.300054 0.202825
0.1011 0.299565 0.203869
0.105357 0.299679 0.20417
0.109501 0.3 0.203486
0.113181 0.29943 0.205266
0.117442 0.298816 0.20768
0.121259 0.298796 0.208399
0.125204 0.299259 0.206096
0.129832 0.300353 0.20217
0.134145 0.300964 0.197624
0.138163 0.300911 0.196483
0.142688 0.301908 0.194009
0.147354 0.302296 0.190929
0.150962 0.301899 0.190039
0.15547 0.30239 0.186175
0.159623 0.30349 0.182461
0.164435 0.304137 0.177918
0.168999 0.305047 0.171245
0.174006 0.305826 0.168145
0.177611 0.305604 0.168685
0.182081 0.305776 0.16688
0.413938 0.34097 -0.0425479
0.416011 0.338124 -0.0275755
0.419435 0.337392 -0.0194552
0.422839 0.33621 -0.01512
0.426348 0.335559 -0.0112827
0.4307 0.335421 -0.00895262
0.434798 0.334481 -0.0059514
0.438629 0.334126 -0.00359368
0.442009 0.333967 -0.000279903
0.446105 0.333472 0.000857592
0.450457 0.333848 0.00197709
0.455247 0.333509 0.00221705
0.45968 0.333296 0.00296056
0.462879 0.332792 0.00614977
0.466065 0.331733 0.0125656
0.469617 0.330828 0.016127
0.473691 0.33081 0.0182407
0.477917 0.330776 0.0191002
0.481137 0.329573 0.0247122
0.484084 0.328852 0.0313097
0.48716 0.327241 0.036925
0.489701 0.326414 0.0438941
0.492486 0.325301 0.049885
0.494659 0.324175 0.0588531
0.49927 0.32383 0.0581889
0.50503 0.32491 0.0528693
-0.259911 0.282422 0.330625
-0.254756 0.280952 0.338811
-0.249943 0.279693 0.345839
-0.245419 0.279103 0.351612
-0.240679 0.277859 0.357265
-0.236264 0.277087 0.361194
-0.232538 0.276872 0.363318
-0.22857 0.276311 0.365837
-0.22471 0.276077 0.367334
-0.220318 0.275687 0.371419
-0.215961 0.275015 0.375158
-0.211557 0.274145 0.379617
-0.208227 0.27376 0.380853
-0.204014 0.273754 0.382617
-0.200254 0.273227 0.384685
-0.196436 0.272922 0.387806
-0.192687 0.272341 0.389284
-0.188918 0.272466 0.388972
-0.185043 0.272373 0.389737
-0.181414 0.272151 0.390451
-0.177993 0.272524 0.389896
-0.174359 0.272428 0.388984
-0.170794 0.272471 0.389726
-0.167236 0.272294 0.389814
-0.163471 0.272421 0.389821
-0.160088 0.272429 0.387427
-0.15631 0.273233 0.385885
-0.152691 0.273068 0.385765
-0.149743 0.273719 0.382571
-0.146253 0.273891 0.380955
-0.142433 0.274343 0.378874
-0.139363 0.274736 0.375465
-0.13574 0.275003 0.372812
-0.137853 0.287312 0.301168
-0.137165 0.293242 0.26685
-0.133341 0.294178 0.260918
-0.141965 0.322527 0.0922108
-0.136872 0.321093 0.0983249
-0.132738 0.320847 0.102669
-0.128006 0.320358 0.105925
-0.12383 0.319997 0.108388
-0.119215 0.319259 0.108554
-0.114978 0.319958 0.108896
-0.110882 0.320008 0.108425
-0.106777 0.319786 0.109556
-0.102284 0.32 0.109652
-0.0978647 0.319523 0.108387
-0.0937891 0.32017 0.107373
-0.0897864 0.320306 0.10571
-0.0853904 0.32046 0.10567
-0.0813217 0.32088 0.104977
-0.0771669 0.320575 0.103894
-0.0725751 0.320666 0.104342
-0.0683564 0.320253 0.106747
-0.0643749 0.320516 0.10801
-0.0597127 0.318744 0.116242
-0.0551704 0.317765 0.122321
-0.050643 0.317281 0.126652
-0.0464402 0.316781 0.128621
-0.0417854 0.31565 0.13117
-0.0379509 0.315568 0.134182
-0.0336256 0.315037 0.138484
-0.0294648 0.314292 0.141465
-0.0250252 0.313778 0.144362
-0.0210999 0.313902 0.14511
-0.0166583 0.313314 0.146289
-0.0121136 0.313294 0.147307
-0.00819802 0.312853 0.15035
-0.00437795 0.313014 0.151275
0.00031904 0.31244 0.151726
0.0041932 0.312247 0.152858
0.00810608 0.312609 0.15276
0.01279 0.312152 0.154494
0.0169723 0.311877 0.157832
0.0208334 0.31138 0.160332
0.0249991 0.31075 0.162717
0.0288464 0.310019 0.166142
0.0333825 0.309627 0.17002
0.0370653 0.30837 0.174524
0.0410567 0.308161 0.177656
0.0453482 0.307817 0.179594
0.0492483 0.307535 0.181374
0.0536941 0.307234 0.181648
0.0569577 0.307731 0.182234
0.0614912 0.307602 0.182797
0.0655723 0.307249 0.183588
0.0696884 0.307157 0.182499
0.0737882 0.306951 0.183232
0.0782522 0.307208 0.185427
0.0817697 0.306586 0.186237
0.0857941 0.30592 0.190057
0.0893555 0.305408 0.194195
0.0931956 0.304619 0.200393
0.0974039 0.303776 0.202471
0.101068 0.303571 0.204784
0.105315 0.303451 0.205136
0.109019 0.303627 0.206107
0.112995 0.303019 0.208027
0.117484 0.30257 0.210009
0.120916 0.302622 0.210334
0.125447 0.303667 0.206857
0.129645 0.304465 0.201469
0.134353 0.305673 0.193537
0.138775 0.305912 0.191548
0.143266 0.30647 0.188902
0.147502 0.306848 0.185425
0.15169 0.307644 0.182638
0.155715 0.307186 0.181918
0.16073 0.308324 0.177464
0.16502 0.309662 0.170376
0.169344 0.310108 0.168396
0.173716 0.309656 0.168401
0.177862 0.310237 0.167668
0.182687 0.310148 0.166363
0.186114 0.310386 0.164086
0.417919 0.344326 -0.0357721
0.4203 0.342901 -0.0246274
0.422642 0.340813 -0.0170763
0.426354 0.340157 -0.010581
0.429986 0.339902 -0.00795507
0.433986 0.338819 -0.00412083
0.437804 0.338647 -0.00151491
0.442063 0.338064 0.000686288
0.446245 0.337836 0.00136805
0.450383 0.337913 0.00272274
0.454829 0.338005 0.00234866
0.45927 0.337494 0.00360715
0.463198 0.337188 0.00516677
0.466489 0.336466 0.010325
0.470079 0.33561 0.0154986
0.474066 0.335105 0.0175917
0.477901 0.335244 0.0187464
0.480759 0.334043 0.0248706
0.48336 0.332737 0.0328875
0.486273 0.331737 0.0396245
0.48874 0.330883 0.0456774
0.491666 0.329599 0.052225
0.492174 0.326559 0.0679202
0.496362 0.326193 0.0682511
0.501824 0.32732 0.0643512
0.509339 0.329304 0.0531785
-0.260337 0.286979 0.327068
-0.255173 0.285527 0.334813
-0.250421 0.284238 0.342463
-0.245662 0.282957 0.349607
-0.241033 0.282153 0.355504
-0.236418 0.281219 0.359933
-0.232922 0.280989 0.361611
-0.22862 0.28042 0.363925
-0.224512 0.279879 0.367858
-0.220353 0.279092 0.371028
-0.215849 0.278246 0.376825
-0.211948 0.2775 0.37997
-0.207953 0.27738 0.381449
-0.203842 0.277308 0.383222
-0.200662 0.276844 0.384142
-0.196607 0.276271 0.38718
-0.192652 0.276078 0.389631
-0.189471 0.276196 0.389295
-0.185136 0.275824 0.39006
-0.1814 0.275522 0.391556
-0.177784 0.275998 0.390671
-0.174218 0.275651 0.390168
-0.170684 0.276059 0.389471
-0.167027 0.275597 0.391752
-0.163349 0.275738 0.39154
-0.159775 0.276187 0.390982
-0.156366 0.275992 0.389209
-0.152902 0.276367 0.38652
-0.14933 0.277162 0.384797
-0.145848 0.27735 0.381801
-0.142486 0.277974 0.378212
-0.139327 0.278381 0.375526
-0.135827 0.279138 0.37135
-0.135113 0.284324 0.341219
-0.136618 0.296918 0.267614
-0.133164 0.297915 0.263272
-0.130136 0.298604 0.256777
-0.137575 0.326628 0.0921954
-0.132707 0.326012 0.0970548
-0.128688 0.325464 0.100789
-0.123667 0.324763 0.104234
-0.119322 0.325052 0.103952
-0.115283 0.324148 0.107218
-0.110859 0.324005 0.109449
-0.106603 0.32392 0.111117
-0.102451 0.323818 0.111508
-0.097956 0.323998 0.110901
-0.0939497 0.324056 0.108821
-0.0898113 0.324801 0.106289
-0.0853487 0.325024 0.104833
-0.0810362 0.324792 0.104923
-0.0767905 0.324519 0.104855
-0.0727675 0.324644 0.104999
-0.0683019 0.324982 0.105197
-0.0637803 0.324447 0.10633
-0.0596245 0.324061 0.108425
