ply
format ascii 1.0
element vertex 1636
property float x
property float y
property float z
end_header
0.00982453 -0.28861 -0.132099
0.0144999 -0.288834 -0.135657
0.0194388 -0.289505 -0.140099
0.0239773 -0.289894 -0.145295
0.0295128 -0.291389 -0.152737
0.0337887 -0.292052 -0.158276
0.039243 -0.293467 -0.169603
0.0444617 -0.29636 -0.18996
0.141063 -0.256543 0.103979
0.144061 -0.254585 0.118527
0.147555 -0.253288 0.129386
0.150614 -0.25122 0.146769
0.154394 -0.250114 0.150749
0.158239 -0.249828 0.153532
0.161986 -0.24964 0.156579
0.165646 -0.248532 0.161234
0.169485 -0.248521 0.163767
0.17358 -0.247705 0.16757
0.177484 -0.248107 0.168627
0.181676 -0.247458 0.171045
0.185145 -0.247187 0.17219
0.189479 -0.246941 0.174446
0.193258 -0.247174 0.174822
0.197504 -0.246691 0.176041
0.201523 -0.246876 0.175737
0.205506 -0.247126 0.176674
0.209894 -0.24682 0.175521
0.214283 -0.246938 0.175013
0.218032 -0.246946 0.176618
0.22216 -0.24705 0.175764
0.226405 -0.246947 0.172921
0.231401 -0.248274 0.167595
0.235828 -0.248296 0.164623
0.240609 -0.249128 0.160261
0.245752 -0.249915 0.152704
0.25087 -0.25107 0.143386
0.256977 -0.252525 0.1329
0.262403 -0.253735 0.124341
0.267409 -0.254311 0.118707
0.274767 -0.257378 0.0972363
-0.11134 -0.287139 -0.156464
-0.106158 -0.285239 -0.144542
-0.101312 -0.284824 -0.140555
-0.0959507 -0.283731 -0.133331
-0.0908523 -0.283553 -0.129379
-0.0863645 -0.283592 -0.129753
-0.0817466 -0.283239 -0.126543
-0.0769738 -0.282609 -0.125597
-0.0716484 -0.28288 -0.124241
-0.0667576 -0.282028 -0.121971
-0.0622127 -0.282544 -0.120524
-0.0573481 -0.282308 -0.121009
-0.0525533 -0.282521 -0.120353
-0.0475604 -0.282128 -0.121403
-0.0428058 -0.282262 -0.121666
-0.0383347 -0.282402 -0.12122
-0.0333995 -0.281878 -0.120516
-0.0287935 -0.282213 -0.120643
-0.0232758 -0.282313 -0.121143
-0.0190052 -0.28209 -0.121534
-0.0146884 -0.282245 -0.121248
-0.0100082 -0.282204 -0.122745
-0.00498596 -0.282614 -0.124082
-0.000270828 -0.282909 -0.127217
0.00459715 -0.283168 -0.130475
0.00948727 -0.284065 -0.133303
0.0142902 -0.284404 -0.138833
0.0190145 -0.285252 -0.144379
0.024821 -0.285756 -0.150589
0.029448 -0.28681 -0.154116
0.0343076 -0.288354 -0.163416
0.0389031 -0.289312 -0.172059
0.144101 -0.250289 0.118585
0.147698 -0.248283 0.132142
0.15109 -0.246866 0.140469
0.154599 -0.24639 0.148849
0.158709 -0.245895 0.152168
0.161877 -0.245114 0.156951
0.166061 -0.24454 0.161163
0.169647 -0.244098 0.164758
0.173631 -0.243767 0.167385
0.177379 -0.242725 0.171934
0.181214 -0.242498 0.175982
0.184853 -0.242745 0.177912
0.189162 -0.242615 0.178318
0.193465 -0.242318 0.178921
0.196994 -0.24262 0.177816
0.201572 -0.242431 0.17681
0.205694 -0.24277 0.176071
0.209877 -0.242947 0.175001
0.213928 -0.242936 0.174154
0.217735 -0.242818 0.174967
0.222541 -0.243166 0.173794
0.226792 -0.243421 0.170993
0.231889 -0.244197 0.166237
0.236474 -0.244625 0.163244
0.240357 -0.244673 0.159332
0.246038 -0.246209 0.149792
0.251977 -0.247567 0.138825
0.257096 -0.248949 0.131703
0.262408 -0.250029 0.123457
0.268222 -0.250934 0.114476
-0.112474 -0.28213 -0.158248
-0.106898 -0.280635 -0.145409
-0.101307 -0.280164 -0.13988
-0.0966065 -0.278746 -0.134521
-0.0916666 -0.279395 -0.131876
-0.0862971 -0.278417 -0.129412
-0.081235 -0.278398 -0.127033
-0.0767909 -0.278108 -0.125941
-0.0715576 -0.278218 -0.126043
-0.0669324 -0.278056 -0.123714
-0.0620484 -0.277607 -0.123363
-0.0574094 -0.277409 -0.121809
-0.0524807 -0.277205 -0.121004
-0.0477549 -0.277679 -0.1212
-0.0432707 -0.27754 -0.1208
-0.0380222 -0.277822 -0.122111
-0.0333879 -0.2775 -0.121997
-0.0285252 -0.278091 -0.123386
-0.0242197 -0.277831 -0.12332
-0.0190597 -0.278338 -0.123182
-0.0142828 -0.277686 -0.123472
-0.00991779 -0.277786 -0.124472
-0.00489574 -0.277901 -0.126248
0.000196546 -0.278502 -0.130159
0.00499544 -0.279137 -0.133317
0.00923617 -0.27957 -0.136633
0.0144935 -0.27989 -0.141928
0.0193428 -0.280932 -0.148214
0.0241009 -0.281382 -0.150934
0.0288789 -0.281942 -0.156341
0.0345742 -0.283867 -0.171624
0.0392584 -0.286012 -0.186247
0.145559 -0.247876 0.105451
0.147496 -0.24467 0.128945
0.151167 -0.243808 0.138926
0.1539 -0.242575 0.147875
0.158225 -0.241254 0.154082
0.162039 -0.240673 0.15944
0.165197 -0.240171 0.16262
0.169317 -0.239738 0.167296
0.173121 -0.238923 0.17219
0.176712 -0.238209 0.177431
0.180274 -0.237813 0.181281
0.184147 -0.237876 0.182946
0.18806 -0.237587 0.184873
0.192183 -0.237353 0.185074
0.196273 -0.237039 0.18531
0.200777 -0.238059 0.180036
0.205742 -0.238676 0.176707
0.210054 -0.238623 0.174018
0.214195 -0.238385 0.174152
0.218116 -0.238829 0.173301
0.222499 -0.239352 0.171671
0.226899 -0.239645 0.168102
0.231867 -0.239921 0.164916
0.235921 -0.240525 0.163954
0.241129 -0.241339 0.157222
0.246373 -0.242224 0.148979
0.252176 -0.243555 0.136434
0.257707 -0.24511 0.127806
0.262623 -0.245746 0.120506
0.270572 -0.24855 0.0978882
-0.111128 -0.276439 -0.147374
-0.106241 -0.275526 -0.141539
-0.100737 -0.274549 -0.136245
-0.0961629 -0.274114 -0.132622
-0.091428 -0.273795 -0.131499
-0.0866079 -0.273977 -0.128809
-0.0814505 -0.273339 -0.127384
-0.076946 -0.2735 -0.126566
-0.0720615 -0.273687 -0.126402
-0.0674828 -0.272989 -0.125366
-0.0619992 -0.272658 -0.123723
-0.0580137 -0.273002 -0.123207
-0.0524069 -0.272988 -0.121887
-0.0482968 -0.272774 -0.121544
-0.0430279 -0.27266 -0.121979
-0.0380265 -0.272347 -0.122776
-0.0336582 -0.272702 -0.123694
-0.0285223 -0.27316 -0.12447
-0.0240395 -0.273262 -0.12464
-0.0193276 -0.273176 -0.1254
-0.0142214 -0.273081 -0.126337
-0.00917772 -0.273359 -0.127042
-0.00483133 -0.273706 -0.129249
-0.000195862 -0.274174 -0.131011
0.00443395 -0.274618 -0.136153
0.00975567 -0.275581 -0.139571
0.0143905 -0.275863 -0.143735
0.0191538 -0.276118 -0.14945
0.0239295 -0.276886 -0.154322
0.0294485 -0.277733 -0.161734
0.03432 -0.280087 -0.175124
0.0395837 -0.282438 -0.194574
0.147588 -0.240004 0.13411
0.150923 -0.238424 0.142822
0.153883 -0.237572 0.150489
0.158211 -0.237342 0.157153
0.161385 -0.236266 0.161194
0.165288 -0.235957 0.16526
0.168911 -0.234888 0.170757
0.172371 -0.233971 0.17877
0.176468 -0.233659 0.183806
0.17995 -0.233317 0.186876
0.183859 -0.232829 0.188648
0.187712 -0.232884 0.188796
0.191846 -0.23297 0.188973
0.19639 -0.233327 0.187479
0.20004 -0.23341 0.187089
0.204706 -0.233721 0.182872
0.209952 -0.234496 0.175192
0.214055 -0.234934 0.173402
0.218837 -0.235272 0.170715
0.223153 -0.235207 0.169302
0.22761 -0.235679 0.165784
0.232217 -0.236047 0.164465
0.236215 -0.236246 0.163035
0.240943 -0.237534 0.154793
0.246535 -0.238132 0.14814
0.252708 -0.240028 0.134039
0.257929 -0.240957 0.124123
0.264387 -0.242909 0.11062
-0.12035 -0.271236 -0.14639
-0.11647 -0.27067 -0.144613
-0.11072 -0.270837 -0.141129
-0.106225 -0.269959 -0.135329
-0.100753 -0.268959 -0.130432
-0.0962588 -0.269207 -0.128734
-0.090911 -0.26815 -0.125517
-0.0862939 -0.268412 -0.124815
-0.0812738 -0.268702 -0.125595
-0.0762606 -0.268425 -0.125175
-0.0716529 -0.268044 -0.124501
-0.0673663 -0.268221 -0.123859
-0.0620687 -0.268572 -0.124101
-0.0571445 -0.267627 -0.123058
-0.0527441 -0.267958 -0.122569
-0.0480194 -0.268255 -0.122745
-0.0431402 -0.268131 -0.123822
-0.0379292 -0.268553 -0.123944
-0.0340587 -0.268602 -0.125987
-0.0289395 -0.268618 -0.125685
-0.0237201 -0.268408 -0.127571
-0.0191849 -0.268334 -0.127244
-0.0141907 -0.268814 -0.128798
-0.00969251 -0.268959 -0.131571
-0.00493019 -0.269075 -0.131276
-5.44645e-05 -0.269602 -0.134959
0.00488615 -0.27028 -0.139359
0.00989652 -0.270565 -0.142346
0.0145154 -0.271504 -0.146674
0.0193342 -0.271809 -0.152587
0.0244251 -0.272781 -0.159534
0.0293113 -0.2739 -0.169886
0.0340853 -0.274606 -0.178885
0.144321 -0.23821 0.117421
0.147174 -0.235284 0.135789
0.15069 -0.234592 0.14496
0.154094 -0.23326 0.152897
0.157566 -0.232297 0.159321
0.161307 -0.23189 0.16301
0.165209 -0.231161 0.168494
0.168555 -0.230479 0.176797
0.17219 -0.229057 0.184555
0.175992 -0.229557 0.186996
0.17925 -0.22861 0.190729
0.183198 -0.228407 0.191177
0.187575 -0.228547 0.191608
0.191755 -0.228295 0.191066
0.196114 -0.228801 0.190919
0.199833 -0.228582 0.190861
0.203768 -0.228455 0.188379
0.209419 -0.230106 0.180988
0.214195 -0.230105 0.174292
0.218776 -0.230856 0.170566
0.223118 -0.23135 0.168122
0.227512 -0.231737 0.163777
0.232317 -0.232106 0.161905
0.237243 -0.232599 0.156638
0.241585 -0.233538 0.151176
0.246603 -0.234445 0.145365
0.253125 -0.235846 0.130482
0.259833 -0.238145 0.115719
-0.130798 -0.266034 -0.145187
-0.12575 -0.26566 -0.142595
-0.120633 -0.264911 -0.14039
-0.115817 -0.265199 -0.138509
-0.110167 -0.265345 -0.135274
-0.105483 -0.263914 -0.13046
-0.100645 -0.263973 -0.127023
-0.096265 -0.263763 -0.12567
-0.0911723 -0.263564 -0.123913
-0.0862114 -0.262864 -0.122328
-0.0813304 -0.263256 -0.122053
-0.0769422 -0.263035 -0.122028
-0.0720256 -0.262894 -0.123213
-0.0668356 -0.263618 -0.123067
-0.0622544 -0.263128 -0.122799
-0.0576916 -0.263142 -0.123369
-0.0527347 -0.263027 -0.123616
-0.0475902 -0.263239 -0.12342
-0.0434858 -0.263604 -0.123673
-0.0380497 -0.263956 -0.125543
-0.0336238 -0.263794 -0.126469
-0.0287489 -0.264221 -0.127782
-0.024074 -0.264168 -0.130089
-0.0193779 -0.264461 -0.130933
-0.0145756 -0.264706 -0.133284
-0.00972532 -0.264624 -0.135316
-0.00522027 -0.264857 -0.136762
-9.48441e-05 -0.26522 -0.138736
0.00424392 -0.265644 -0.14255
0.00940567 -0.266323 -0.14555
0.0143956 -0.266858 -0.151151
0.0195465 -0.267439 -0.155602
0.0242514 -0.268318 -0.165333
0.0297811 -0.269936 -0.173594
0.143747 -0.232851 0.122735
0.147068 -0.231146 0.137783
0.150605 -0.229931 0.146416
0.154012 -0.22877 0.155154
0.157907 -0.228419 0.160022
0.161006 -0.227277 0.164989
0.164441 -0.226536 0.173992
0.167808 -0.225195 0.183387
0.171422 -0.224807 0.187991
0.17543 -0.224192 0.190516
0.179418 -0.224668 0.191608
0.183217 -0.223818 0.194208
0.18693 -0.223674 0.194817
0.191138 -0.223701 0.19386
0.195753 -0.223643 0.194575
0.199963 -0.223982 0.192844
0.20417 -0.223995 0.191421
0.208649 -0.225058 0.186013
0.213773 -0.226103 0.177425
0.218034 -0.226427 0.17307
0.223507 -0.227147 0.167836
0.22778 -0.227751 0.164216
0.232337 -0.228622 0.159056
0.237856 -0.229255 0.149822
0.242751 -0.230066 0.145164
0.248085 -0.231209 0.135591
0.253041 -0.232173 0.127612
-0.1354 -0.261484 -0.146268
-0.130438 -0.261272 -0.141087
-0.125577 -0.260833 -0.139656
-0.120137 -0.260099 -0.136601
-0.115625 -0.260873 -0.135862
-0.110234 -0.25972 -0.131071
-0.10526 -0.259516 -0.127956
-0.100819 -0.259059 -0.124838
-0.0954799 -0.258718 -0.122081
-0.0906666 -0.258542 -0.121899
-0.0864587 -0.258288 -0.120556
-0.0814786 -0.258356 -0.119085
-0.0767132 -0.25845 -0.120857
-0.0719468 -0.258147 -0.120483
-0.0670579 -0.258105 -0.120277
-0.0621218 -0.258325 -0.121012
-0.0575878 -0.258218 -0.121354
-0.0531265 -0.258887 -0.122584
-0.047738 -0.258963 -0.123294
-0.0431943 -0.258532 -0.123383
-0.0383577 -0.259133 -0.124508
-0.033466 -0.259198 -0.126685
-0.0284953 -0.258751 -0.128677
-0.0239621 -0.259679 -0.130505
-0.0189875 -0.259905 -0.134221
-0.0146562 -0.260572 -0.136684
-0.00948255 -0.260991 -0.139064
-0.00488161 -0.260393 -0.140836
-0.00028641 -0.26053 -0.143252
0.00476991 -0.261023 -0.145696
0.00971909 -0.261762 -0.151121
0.0143063 -0.262063 -0.153806
0.019448 -0.263198 -0.161872
0.0243254 -0.26438 -0.170077
0.0295627 -0.267606 -0.196197
0.144026 -0.228276 0.126748
0.146975 -0.226763 0.137921
0.150201 -0.225542 0.145392
0.15422 -0.224456 0.154975
0.157374 -0.223522 0.163068
0.160862 -0.222817 0.171629
0.163975 -0.222203 0.178705
0.167552 -0.220715 0.18572
0.17141 -0.220386 0.189385
0.175444 -0.220194 0.192607
0.179181 -0.220099 0.19427
0.183195 -0.219723 0.195341
0.187112 -0.219275 0.196882
0.191495 -0.219462 0.196221
0.195241 -0.219583 0.194914
0.199396 -0.220005 0.194379
0.20399 -0.22004 0.192289
0.208614 -0.220697 0.187609
0.21383 -0.221841 0.1786
0.218261 -0.222477 0.17305
0.222643 -0.222647 0.169384
0.227498 -0.223281 0.164252
0.23292 -0.224195 0.156828
0.238201 -0.225803 0.146525
0.244037 -0.227569 0.134018
0.248813 -0.227846 0.127966
-0.140678 -0.256604 -0.14943
-0.135133 -0.256203 -0.141731
-0.130215 -0.255769 -0.138658
-0.125594 -0.255387 -0.137882
-0.120504 -0.254775 -0.133804
-0.115055 -0.254719 -0.131981
-0.110619 -0.254267 -0.128476
-0.105621 -0.253927 -0.125564
-0.100305 -0.25406 -0.122749
-0.0955198 -0.253424 -0.119777
-0.090927 -0.253569 -0.119541
-0.0862332 -0.253281 -0.11861
-0.0815345 -0.253163 -0.118384
-0.076534 -0.253391 -0.119389
-0.0714825 -0.253083 -0.118176
-0.067161 -0.25338 -0.118993
-0.0621135 -0.253368 -0.121592
-0.0574251 -0.253357 -0.120399
-0.0529851 -0.253734 -0.12066
-0.0479323 -0.2543 -0.122728
-0.0428688 -0.254009 -0.123133
-0.038137 -0.254177 -0.124348
-0.0337037 -0.254306 -0.126007
-0.0286783 -0.254309 -0.127254
-0.0241659 -0.25447 -0.130022
-0.0195541 -0.254969 -0.134023
-0.0141167 -0.256236 -0.138853
-0.00936856 -0.255905 -0.14268
-0.00481064 -0.256544 -0.145608
0.000219463 -0.256897 -0.14818
0.00475329 -0.257691 -0.152531
0.00921718 -0.257832 -0.153861
0.0146449 -0.258122 -0.1591
0.019883 -0.259903 -0.17076
0.0247272 -0.261112 -0.186157
0.143642 -0.223668 0.126075
0.146937 -0.222286 0.13733
0.150972 -0.221347 0.147052
0.153918 -0.220712 0.155792
0.15726 -0.219355 0.166015
0.160457 -0.21828 0.174257
0.16391 -0.217461 0.181705
0.167616 -0.216465 0.187534
0.171249 -0.216237 0.190081
0.175164 -0.215687 0.193061
0.17884 -0.215668 0.195778
0.183271 -0.215391 0.195938
0.187194 -0.215803 0.195307
0.190876 -0.215849 0.196398
0.195616 -0.215643 0.195642
0.19902 -0.215535 0.195553
0.203602 -0.216356 0.192845
0.208329 -0.215898 0.188658
0.213538 -0.217635 0.180592
0.21832 -0.218427 0.173583
0.222791 -0.218499 0.169258
0.227744 -0.219277 0.163937
0.23245 -0.220503 0.157507
0.2397 -0.222144 0.139751
0.244871 -0.22407 0.126438
-0.139442 -0.25062 -0.141768
-0.135419 -0.250951 -0.138807
-0.13004 -0.250518 -0.135945
-0.125369 -0.250103 -0.133975
-0.120447 -0.250136 -0.131244
-0.115069 -0.249518 -0.128915
-0.10999 -0.249228 -0.125635
-0.104668 -0.249057 -0.122964
-0.100489 -0.248705 -0.120078
-0.0956315 -0.248123 -0.118279
-0.0909348 -0.248388 -0.116883
-0.0858541 -0.247974 -0.116153
-0.0811446 -0.248226 -0.115542
-0.076327 -0.248524 -0.116912
-0.0715872 -0.248075 -0.116636
-0.066788 -0.248297 -0.11713
-0.0619557 -0.248615 -0.118014
-0.0575683 -0.248749 -0.118654
-0.0523502 -0.248134 -0.120073
-0.0477862 -0.248957 -0.121016
-0.0428659 -0.248996 -0.12087
-0.0379879 -0.248663 -0.123673
-0.0335308 -0.248967 -0.123199
-0.0288908 -0.249096 -0.126209
-0.0241584 -0.249747 -0.129289
-0.0192256 -0.250446 -0.133505
-0.0142512 -0.250494 -0.137833
-0.00950587 -0.251463 -0.142367
-0.0047646 -0.251842 -0.146528
0.000387697 -0.252574 -0.150949
0.00475587 -0.252954 -0.154979
0.0098328 -0.253107 -0.159255
0.0147507 -0.254639 -0.16878
0.0199687 -0.257087 -0.19291
0.143314 -0.219245 0.129669
0.146423 -0.217648 0.140977
0.15036 -0.216882 0.150096
0.153703 -0.215918 0.158439
0.157276 -0.214722 0.169414
0.160486 -0.213708 0.177393
0.163468 -0.213375 0.183404
0.167671 -0.212069 0.189259
0.171495 -0.21186 0.191278
0.174947 -0.211543 0.193903
0.178985 -0.211646 0.195971
0.182701 -0.211411 0.196456
0.186858 -0.211085 0.197495
0.1909 -0.211362 0.197842
0.195216 -0.211512 0.196117
0.199562 -0.211357 0.194799
0.203526 -0.211874 0.192901
0.208783 -0.212856 0.187438
0.213778 -0.213549 0.179442
0.218008 -0.214166 0.174467
0.223013 -0.214986 0.168355
0.227686 -0.215714 0.16284
0.232981 -0.216406 0.154537
0.239641 -0.217959 0.137487
-0.139477 -0.246492 -0.140261
-0.134507 -0.245872 -0.136493
-0.130159 -0.245153 -0.133547
-0.124837 -0.245462 -0.13266
-0.119905 -0.245443 -0.129887
-0.115007 -0.244511 -0.127743
-0.110319 -0.24464 -0.124755
-0.105141 -0.244164 -0.121478
-0.100321 -0.243521 -0.119137
-0.0957714 -0.243332 -0.116515
-0.0904331 -0.243452 -0.11523
-0.0863526 -0.242998 -0.114251
-0.0811866 -0.242584 -0.112998
-0.0762132 -0.242933 -0.114323
-0.0717158 -0.242904 -0.115278
-0.0667392 -0.243573 -0.115934
-0.0620384 -0.243742 -0.116879
-0.0572513 -0.243461 -0.116303
-0.0522829 -0.243788 -0.117429
-0.0477667 -0.243151 -0.118428
-0.0429507 -0.243729 -0.120126
-0.0381866 -0.243869 -0.12132
-0.0334879 -0.244313 -0.123384
-0.0285505 -0.244597 -0.125066
-0.0239244 -0.245202 -0.128168
-0.0194201 -0.245326 -0.131575
-0.0145094 -0.245945 -0.135517
-0.00960384 -0.245504 -0.141489
-0.00469972 -0.246462 -0.146932
-0.000183221 -0.247406 -0.152617
0.00457761 -0.248567 -0.159112
0.00991386 -0.249352 -0.167918
0.0147458 -0.251234 -0.18773
0.140456 -0.217386 0.110676
0.142962 -0.214785 0.135184
0.146301 -0.213369 0.144934
0.149953 -0.212006 0.153987
0.15331 -0.211579 0.160677
0.156792 -0.210396 0.170409
0.160039 -0.209394 0.180315
0.163601 -0.208419 0.18633
0.167236 -0.208186 0.189357
0.171169 -0.207539 0.193122
0.174996 -0.20768 0.195178
0.178739 -0.207416 0.197455
0.182574 -0.207612 0.197796
0.186908 -0.207984 0.19766
0.190964 -0.207392 0.197318
0.195267 -0.207472 0.1975
0.199674 -0.207604 0.195082
0.203722 -0.207967 0.19233
0.208348 -0.20827 0.187218
0.213388 -0.209266 0.179432
0.218229 -0.210437 0.172893
0.222985 -0.210611 0.167798
0.227356 -0.210894 0.162989
0.233697 -0.212799 0.150688
0.239958 -0.214692 0.133835
-0.144869 -0.242077 -0.145225
-0.13951 -0.24128 -0.137742
-0.134788 -0.240515 -0.134969
-0.129719 -0.240478 -0.133348
-0.125184 -0.240384 -0.131601
-0.12043 -0.2397 -0.129036
-0.115346 -0.239905 -0.126143
-0.10978 -0.239593 -0.122755
-0.104993 -0.238969 -0.119437
-0.100497 -0.23865 -0.117172
-0.0955036 -0.238622 -0.115333
-0.090619 -0.238528 -0.113849
-0.0854659 -0.238409 -0.112735
-0.0807521 -0.238782 -0.113532
-0.0762029 -0.238405 -0.112313
-0.071557 -0.238222 -0.112384
-0.0665068 -0.238628 -0.113761
-0.0620744 -0.238724 -0.114873
-0.0571597 -0.238179 -0.114286
-0.0522546 -0.238207 -0.115865
-0.0478302 -0.238698 -0.117539
-0.0431314 -0.238451 -0.1186
-0.0384491 -0.239299 -0.119806
-0.0334632 -0.239055 -0.120775
-0.0289406 -0.239481 -0.124151
-0.0240378 -0.239837 -0.12666
-0.01902 -0.240191 -0.130304
-0.0145311 -0.24124 -0.13351
-0.00968864 -0.241285 -0.13964
-0.00477651 -0.242104 -0.146705
-0.000298132 -0.24243 -0.15225
0.00517852 -0.243976 -0.16219
0.0102582 -0.246731 -0.184329
0.138954 -0.21078 0.12995
0.142547 -0.209824 0.14096
0.146109 -0.208487 0.149662
0.149809 -0.208005 0.155914
0.153286 -0.207035 0.162073
0.156642 -0.2062 0.172203
0.159764 -0.204868 0.183572
0.163645 -0.204 0.187927
0.167405 -0.203981 0.190189
0.171401 -0.203853 0.192411
0.175028 -0.203576 0.195442
0.179089 -0.203039 0.197049
0.182473 -0.203022 0.19868
0.187162 -0.203016 0.198289
0.190907 -0.203058 0.198127
0.195086 -0.203071 0.197994
0.199179 -0.203202 0.1961
0.204178 -0.203657 0.190767
0.209132 -0.204514 0.185099
0.214007 -0.205653 0.177337
0.218814 -0.206241 0.172307
0.223021 -0.206532 0.167139
0.227746 -0.207309 0.160834
0.233859 -0.208675 0.148519
0.241316 -0.211788 0.121432
-0.144859 -0.236707 -0.142834
-0.139493 -0.23593 -0.136658
-0.134673 -0.235674 -0.133692
-0.129884 -0.235547 -0.132485
-0.12532 -0.235452 -0.131821
-0.120402 -0.235338 -0.129401
-0.114984 -0.235017 -0.12412
-0.110142 -0.234763 -0.120884
-0.105628 -0.234115 -0.118773
-0.100374 -0.233603 -0.115134
-0.0957394 -0.233923 -0.11368
-0.0905178 -0.233064 -0.111482
-0.0861465 -0.233142 -0.111182
-0.0809566 -0.233096 -0.110411
-0.075929 -0.233272 -0.110837
-0.0710293 -0.232975 -0.111064
-0.0664756 -0.232963 -0.112674
-0.0616774 -0.2332 -0.112354
-0.0571558 -0.233602 -0.112278
-0.0522625 -0.233323 -0.113266
-0.0477038 -0.233531 -0.114286
-0.0426786 -0.23357 -0.115545
-0.0382046 -0.233738 -0.118046
-0.0335832 -0.234123 -0.120176
-0.0287225 -0.234756 -0.122781
-0.0233864 -0.234839 -0.124973
-0.0191993 -0.234749 -0.127856
-0.0144419 -0.235671 -0.133626
-0.00982344 -0.236569 -0.139
-0.00515249 -0.237291 -0.144385
-0.000327672 -0.237675 -0.150795
0.004398 -0.238497 -0.159259
0.135642 -0.207617 0.119716
0.138766 -0.205798 0.13509
0.142447 -0.205209 0.14574
0.145903 -0.204469 0.152321
0.149923 -0.203402 0.160222
0.15315 -0.202646 0.1647
0.156635 -0.202092 0.174312
0.159669 -0.200777 0.183545
0.163537 -0.200117 0.188553
0.167469 -0.199788 0.190987
0.171058 -0.200027 0.192819
0.175071 -0.198903 0.19544
0.178991 -0.199551 0.19651
0.182681 -0.199155 0.198105
0.186858 -0.19926 0.197169
0.19087 -0.19919 0.198262
0.195392 -0.19922 0.196598
0.199905 -0.199425 0.193623
0.204384 -0.200295 0.189239
0.208833 -0.201062 0.185004
0.214115 -0.201218 0.176664
0.218697 -0.201961 0.170395
0.223773 -0.202961 0.165001
0.228012 -0.20328 0.158996
0.234226 -0.204711 0.145583
-0.145085 -0.232249 -0.143642
-0.139488 -0.231281 -0.136224
-0.1347 -0.231141 -0.133675
-0.130259 -0.230952 -0.133461
-0.12513 -0.230617 -0.130988
-0.119257 -0.230125 -0.126951
-0.115066 -0.229967 -0.123513
-0.110176 -0.229344 -0.119575
-0.105367 -0.22898 -0.116601
-0.100292 -0.228434 -0.1134
-0.0954026 -0.228195 -0.10926
-0.0905179 -0.228608 -0.108212
-0.0859208 -0.228306 -0.107696
-0.080974 -0.228178 -0.108165
-0.076459 -0.228107 -0.107489
-0.0716206 -0.227877 -0.108422
-0.0666786 -0.22833 -0.109994
-0.0619478 -0.228493 -0.110482
-0.0574596 -0.228322 -0.110626
-0.0526965 -0.228284 -0.111324
-0.0475094 -0.228669 -0.112688
-0.042769 -0.229025 -0.114257
-0.0385496 -0.22877 -0.115778
-0.033387 -0.229488 -0.118055
-0.0289013 -0.229585 -0.119487
-0.0240611 -0.230393 -0.124419
-0.0190505 -0.230485 -0.127669
-0.0140684 -0.230924 -0.130646
-0.00990697 -0.231084 -0.137327
-0.00484773 -0.231485 -0.143799
5.94868e-05 -0.233212 -0.150913
0.00514798 -0.233722 -0.160085
0.1348 -0.202457 0.129635
0.13803 -0.201106 0.140567
0.141789 -0.200585 0.14769
0.145628 -0.199616 0.154584
0.149289 -0.199132 0.159866
0.152891 -0.19873 0.164992
0.156296 -0.197621 0.176058
0.159749 -0.196445 0.184886
0.164029 -0.195934 0.188563
0.167214 -0.195811 0.189972
0.170936 -0.195433 0.192315
0.17536 -0.195752 0.193527
0.179133 -0.195168 0.195816
0.182981 -0.195112 0.197211
0.186949 -0.195174 0.197323
0.191005 -0.195107 0.196431
0.195632 -0.19547 0.195251
0.199318 -0.195842 0.193422
0.204206 -0.195983 0.189327
0.209287 -0.197047 0.181387
0.214147 -0.197619 0.174928
0.219216 -0.198489 0.168556
0.223255 -0.198752 0.164294
0.228777 -0.1993 0.155938
0.234409 -0.200779 0.143263
-0.144909 -0.227765 -0.145352
-0.13991 -0.226369 -0.13886
-0.134701 -0.226662 -0.135624
-0.130239 -0.226067 -0.133922
-0.125007 -0.226235 -0.132379
-0.120511 -0.226032 -0.12863
-0.115073 -0.224773 -0.121864
-0.109894 -0.224587 -0.117253
-0.105074 -0.224139 -0.112821
-0.099953 -0.22367 -0.109664
-0.0951144 -0.22403 -0.106773
-0.0905313 -0.222983 -0.104068
-0.0854935 -0.222735 -0.10305
-0.0809925 -0.223437 -0.105066
-0.0760599 -0.223061 -0.103914
-0.0709498 -0.222681 -0.103238
-0.0665783 -0.223351 -0.106232
-0.0618641 -0.223787 -0.109021
-0.0569227 -0.223569 -0.109464
-0.05218 -0.223279 -0.109765
-0.0477164 -0.22357 -0.109458
-0.0427533 -0.223861 -0.112509
-0.0386617 -0.224035 -0.112739
-0.0335137 -0.224117 -0.115579
-0.0287179 -0.224427 -0.117903
-0.023726 -0.225027 -0.121928
-0.0193383 -0.225494 -0.125679
-0.0143238 -0.226004 -0.129723
-0.00920694 -0.226417 -0.13529
-0.0051336 -0.227162 -0.142156
0.000228046 -0.227963 -0.149428
0.00538156 -0.228763 -0.161024
0.130611 -0.198259 0.129573
0.134481 -0.197437 0.139059
0.137796 -0.196582 0.146228
0.141944 -0.196049 0.150829
0.145759 -0.195836 0.15679
0.148954 -0.194307 0.161718
0.152553 -0.194639 0.166982
0.155952 -0.193284 0.176702
0.159833 -0.192423 0.184553
0.163659 -0.192003 0.186692
0.167277 -0.19173 0.189878
0.170803 -0.191837 0.191211
0.175177 -0.191686 0.193441
0.179305 -0.191393 0.194009
0.182834 -0.191555 0.196283
0.187092 -0.191303 0.196038
0.191107 -0.191141 0.195377
0.195396 -0.191514 0.194968
0.199746 -0.191639 0.192065
0.204382 -0.191771 0.187719
0.209388 -0.192812 0.179922
0.214481 -0.19381 0.172624
0.219203 -0.194131 0.167401
0.22421 -0.195312 0.161232
0.229359 -0.195916 0.154009
0.234352 -0.196712 0.143654
-0.145649 -0.222993 -0.150143
-0.139538 -0.222215 -0.140954
-0.135179 -0.221851 -0.138528
-0.130057 -0.221285 -0.135189
-0.124908 -0.221463 -0.131384
-0.119676 -0.219796 -0.122936
-0.114557 -0.219607 -0.117552
-0.109191 -0.218879 -0.113139
-0.104594 -0.218731 -0.110281
-0.0997828 -0.218748 -0.108697
-0.0955245 -0.218407 -0.105683
-0.0902118 -0.218064 -0.102876
-0.0853189 -0.21801 -0.102461
-0.0809973 -0.218492 -0.102697
-0.0758407 -0.217934 -0.102009
-0.07107 -0.217884 -0.10167
-0.0665279 -0.217899 -0.101001
-0.0617063 -0.218126 -0.103539
-0.0569329 -0.218733 -0.107978
-0.0525199 -0.218387 -0.108379
-0.047986 -0.218266 -0.108145
-0.0425877 -0.218948 -0.10916
-0.037853 -0.219581 -0.111839
-0.0334564 -0.219317 -0.113444
-0.0283483 -0.219475 -0.115309
-0.0236889 -0.220235 -0.119602
-0.0192395 -0.220445 -0.123142
-0.0148318 -0.220253 -0.127531
-0.00966514 -0.221541 -0.13355
-0.00461626 -0.221903 -0.141342
0.000106798 -0.222743 -0.148414
0.00505692 -0.224317 -0.161003
0.126381 -0.193991 0.129424
0.130284 -0.193104 0.137276
0.133952 -0.192768 0.144908
0.138055 -0.191747 0.150372
0.141656 -0.191054 0.155068
0.145456 -0.191441 0.157688
0.14929 -0.190288 0.162697
0.153059 -0.190449 0.168065
0.156362 -0.189144 0.175848
0.159757 -0.188429 0.182059
0.163675 -0.188203 0.185147
0.167824 -0.187824 0.187334
0.171278 -0.187619 0.190898
0.175475 -0.187316 0.19301
0.179429 -0.187483 0.19407
0.183677 -0.187292 0.194589
0.18729 -0.187058 0.195541
0.19087 -0.187315 0.195204
0.195493 -0.187477 0.194258
0.199775 -0.187241 0.190572
0.204762 -0.188041 0.185683
0.209988 -0.189049 0.176708
0.214569 -0.189632 0.170508
0.219203 -0.190271 0.165212
0.22354 -0.190558 0.161464
0.228771 -0.191611 0.153934
0.234303 -0.192476 0.143251
-0.140373 -0.217462 -0.144247
-0.135091 -0.217824 -0.13967
-0.130336 -0.216469 -0.136475
-0.12463 -0.215516 -0.127004
-0.119551 -0.215437 -0.120506
-0.114298 -0.214862 -0.115333
-0.109307 -0.214209 -0.112932
-0.104707 -0.214052 -0.109877
-0.0998938 -0.214337 -0.108552
-0.0952343 -0.213866 -0.103997
-0.0898225 -0.213232 -0.101538
-0.0853719 -0.213361 -0.10038
-0.0800995 -0.212506 -0.0991895
-0.0757734 -0.213036 -0.099159
-0.071118 -0.212809 -0.0988278
-0.0664227 -0.21256 -0.0983891
-0.0614303 -0.213744 -0.100992
-0.0566206 -0.213899 -0.105084
-0.0524002 -0.213652 -0.106829
-0.0476511 -0.213868 -0.10823
-0.0425828 -0.213366 -0.10639
-0.0379936 -0.213227 -0.109246
-0.0334069 -0.214313 -0.110969
-0.0281441 -0.21465 -0.113304
-0.0236521 -0.214599 -0.115812
-0.0191244 -0.215403 -0.120453
-0.0145174 -0.215333 -0.125761
-0.0094825 -0.215765 -0.130516
-0.00473545 -0.216247 -0.13661
-0.000207583 -0.21765 -0.144495
0.0053738 -0.21945 -0.161839
0.122585 -0.190283 0.124068
0.126707 -0.189776 0.131424
0.129983 -0.189114 0.140385
0.133656 -0.187782 0.147821
0.137788 -0.187281 0.152477
0.141333 -0.186826 0.156177
0.145324 -0.186737 0.159321
0.149481 -0.186379 0.163113
0.153003 -0.185966 0.166301
0.15666 -0.185257 0.173732
0.160208 -0.184894 0.179861
0.164137 -0.184645 0.182636
0.167638 -0.184403 0.18539
0.171619 -0.18391 0.188059
0.175592 -0.183665 0.189861
0.17931 -0.183466 0.192948
0.183255 -0.183259 0.192772
0.187569 -0.183169 0.192525
0.191789 -0.183467 0.192383
0.195846 -0.183461 0.191007
0.199951 -0.183988 0.18874
0.205623 -0.184758 0.179585
0.210013 -0.185177 0.173355
0.214703 -0.185947 0.168586
0.21907 -0.185851 0.164761
0.223698 -0.186645 0.160203
0.228818 -0.187616 0.153177
0.235085 -0.188688 0.139393
-0.140694 -0.213387 -0.147534
-0.135329 -0.212275 -0.141737
-0.12996 -0.211435 -0.133586
-0.124156 -0.210582 -0.122571
-0.119658 -0.209818 -0.118004
-0.114367 -0.209495 -0.113639
-0.109223 -0.209625 -0.110946
-0.104281 -0.208837 -0.106587
-0.0995922 -0.209236 -0.105698
-0.0949525 -0.208395 -0.101257
-0.0898755 -0.207993 -0.0990429
-0.0849797 -0.207998 -0.0966499
-0.0805256 -0.208297 -0.0962558
-0.0761888 -0.208095 -0.0966773
-0.0712133 -0.208443 -0.0968156
-0.0665045 -0.207903 -0.0968604
-0.0618296 -0.208317 -0.0976572
-0.0572128 -0.208175 -0.0991623
-0.052219 -0.208713 -0.103175
-0.0472594 -0.208762 -0.105667
-0.042765 -0.208716 -0.105882
-0.0381475 -0.20914 -0.107385
-0.0327144 -0.209361 -0.109086
-0.0288065 -0.20927 -0.110558
-0.0236873 -0.209427 -0.113915
-0.0188943 -0.209486 -0.115468
-0.0146233 -0.210426 -0.120546
-0.00982149 -0.211226 -0.127091
-0.00493166 -0.211795 -0.134331
-0.000201382 -0.21218 -0.138372
0.00522749 -0.212526 -0.143903
0.11919 -0.187103 0.118456
0.122592 -0.186363 0.124976
0.126602 -0.18495 0.135466
0.129991 -0.184235 0.143093
0.133403 -0.183764 0.147984
0.137108 -0.183225 0.153547
0.141544 -0.182897 0.157973
0.144929 -0.182215 0.161991
0.149109 -0.182119 0.164802
0.152916 -0.18192 0.167157
0.15645 -0.181406 0.169129
0.160434 -0.181027 0.173704
0.164248 -0.180686 0.180352
0.168216 -0.180566 0.183281
0.172175 -0.179687 0.187238
0.176035 -0.179932 0.189131
0.179483 -0.179181 0.190835
0.183643 -0.179387 0.191655
0.187586 -0.1795 0.191165
0.191979 -0.179648 0.190347
0.196481 -0.179988 0.186708
0.201338 -0.180471 0.18043
0.205703 -0.181186 0.174615
0.210717 -0.181412 0.170361
0.214696 -0.181633 0.167893
0.219747 -0.182489 0.162343
0.224567 -0.182886 0.156973
0.22941 -0.183214 0.150221
0.234882 -0.184547 0.139486
0.241769 -0.186588 0.118168
-0.135528 -0.207656 -0.143358
-0.129341 -0.206778 -0.128126
-0.124163 -0.205983 -0.12136
-0.119413 -0.204705 -0.114474
-0.114255 -0.204669 -0.110516
-0.109574 -0.204113 -0.107039
-0.104538 -0.20413 -0.104285
-0.0994522 -0.204114 -0.102785
-0.094548 -0.203677 -0.100295
-0.0903781 -0.203342 -0.0978439
-0.0852879 -0.203143 -0.0958784
-0.0802512 -0.203466 -0.0943329
-0.0757019 -0.203166 -0.0949905
-0.0712395 -0.203683 -0.0961089
-0.0660472 -0.20338 -0.0965235
-0.0614442 -0.203036 -0.0971849
-0.0566251 -0.203691 -0.0976372
-0.0520694 -0.203903 -0.100556
-0.047242 -0.204396 -0.102792
-0.0428554 -0.204497 -0.105328
-0.0379903 -0.203999 -0.104593
-0.0335456 -0.204029 -0.106341
-0.0288332 -0.204134 -0.107785
-0.0238808 -0.20508 -0.110722
-0.019464 -0.204738 -0.113276
-0.0143342 -0.205893 -0.117903
-0.00951094 -0.20569 -0.122354
-0.00464479 -0.206831 -0.130539
-0.000194391 -0.207222 -0.13439
0.00495042 -0.207294 -0.135841
0.00950642 -0.207489 -0.141742
0.114799 -0.182356 0.114419
0.118602 -0.182221 0.120867
0.122298 -0.181553 0.127861
0.125877 -0.18053 0.136308
0.129631 -0.180313 0.143403
0.133855 -0.179911 0.150043
0.137316 -0.179159 0.153785
0.141411 -0.178646 0.159468
0.145306 -0.177871 0.163997
0.1487 -0.178101 0.166394
0.152992 -0.177882 0.168114
0.156502 -0.177655 0.168636
0.160402 -0.177285 0.172114
0.164637 -0.176499 0.176762
0.168457 -0.176574 0.180164
0.172147 -0.176294 0.184146
0.175916 -0.175546 0.187301
0.179758 -0.175791 0.187863
0.18359 -0.175308 0.188995
0.187951 -0.17601 0.188787
0.192463 -0.175754 0.184613
0.197496 -0.176563 0.180154
0.201703 -0.177222 0.174783
0.206087 -0.177222 0.172189
0.210558 -0.177635 0.1693
0.215106 -0.177918 0.166115
0.219486 -0.178025 0.161864
0.224638 -0.178608 0.156052
0.229102 -0.179371 0.151289
0.234667 -0.179699 0.142414
0.241474 -0.181931 0.12273
-0.134381 -0.202373 -0.131485
-0.128719 -0.200991 -0.122075
-0.124174 -0.200748 -0.11697
-0.119347 -0.199644 -0.111855
-0.114205 -0.199567 -0.107611
-0.10907 -0.199276 -0.104593
-0.104377 -0.198657 -0.102231
-0.0997427 -0.198962 -0.100837
-0.0948279 -0.198383 -0.098434
-0.089705 -0.199224 -0.0971532
-0.0845094 -0.198454 -0.0950174
-0.0802647 -0.19843 -0.0940907
-0.076123 -0.198136 -0.0933578
-0.0713236 -0.198156 -0.0941899
-0.066433 -0.198436 -0.095001
-0.0611558 -0.198703 -0.094749
-0.0562279 -0.198711 -0.0954154
-0.0522868 -0.1983 -0.0951324
-0.0469309 -0.198978 -0.100225
-0.0428574 -0.198967 -0.102162
-0.0378142 -0.198926 -0.103046
-0.0333911 -0.199457 -0.103931
-0.0286033 -0.199419 -0.106341
-0.023933 -0.199257 -0.107472
-0.0191215 -0.200141 -0.111148
-0.0143175 -0.200598 -0.114654
-0.00934868 -0.200828 -0.117865
-0.00501238 -0.201345 -0.124763
-0.000424124 -0.201917 -0.129151
0.00493692 -0.20157 -0.132429
0.00898109 -0.202459 -0.136666
0.114738 -0.178076 0.116285
0.118603 -0.178032 0.123238
0.122291 -0.176989 0.13271
0.125978 -0.176355 0.13834
0.129857 -0.175918 0.143765
0.133581 -0.175021 0.150044
0.137225 -0.17493 0.155171
0.141071 -0.1742 0.160187
0.144981 -0.173878 0.165047
0.14855 -0.173569 0.16824
0.152784 -0.173483 0.169727
0.156428 -0.173088 0.170057
0.160739 -0.17333 0.17114
0.16494 -0.172704 0.174697
0.168803 -0.172742 0.177242
0.172239 -0.172413 0.181172
0.176533 -0.172194 0.182646
0.180111 -0.171804 0.184712
0.184058 -0.171842 0.18413
0.188569 -0.171769 0.181472
0.193034 -0.172315 0.179259
0.197281 -0.172944 0.176481
0.201876 -0.173118 0.173327
0.206423 -0.173503 0.170746
0.210869 -0.173398 0.167456
0.214892 -0.173685 0.166115
0.220096 -0.174184 0.160978
0.22447 -0.174794 0.156854
0.229424 -0.175038 0.152565
0.234395 -0.175303 0.145454
0.2404 -0.17719 0.130369
-0.133928 -0.196547 -0.124471
-0.128866 -0.196053 -0.118093
-0.12414 -0.195032 -0.114642
-0.118773 -0.195283 -0.109818
-0.113908 -0.194815 -0.105903
-0.109031 -0.194577 -0.103815
-0.104238 -0.194117 -0.101633
-0.0992401 -0.194068 -0.0986657
-0.0944773 -0.194308 -0.098135
-0.0899273 -0.193851 -0.0965519
-0.0848212 -0.19375 -0.0938053
-0.0802815 -0.193247 -0.0924218
-0.0753689 -0.193131 -0.0907407
-0.0710288 -0.193002 -0.0903199
-0.0658153 -0.193324 -0.0915372
-0.0612438 -0.19385 -0.0926266
-0.056719 -0.193167 -0.0917854
-0.0522205 -0.193692 -0.0924356
-0.047406 -0.193996 -0.0952516
-0.0428919 -0.194204 -0.0989451
-0.037673 -0.194428 -0.100761
-0.0331393 -0.194446 -0.102345
-0.0287103 -0.194539 -0.103734
-0.0236294 -0.194454 -0.104578
-0.0190666 -0.19491 -0.109251
-0.0139631 -0.195715 -0.111614
-0.00951282 -0.19558 -0.11529
-0.00446287 -0.196207 -0.121454
0.000360592 -0.196306 -0.125698
0.00456255 -0.196834 -0.126657
0.00978275 -0.196655 -0.128263
0.0146222 -0.199483 -0.157494
0.110984 -0.17462 0.109586
0.1149 -0.17417 0.117118
0.118092 -0.173387 0.128278
0.122113 -0.172281 0.135507
0.125943 -0.171814 0.141067
0.129548 -0.171363 0.145
0.133627 -0.171248 0.148835
0.137557 -0.170386 0.156133
0.140803 -0.17013 0.160523
0.14457 -0.16974 0.165262
0.148768 -0.169421 0.167091
0.152967 -0.169088 0.17055
0.156708 -0.169253 0.171502
0.160761 -0.168949 0.171896
0.164125 -0.168542 0.173759
0.168703 -0.168418 0.17541
0.172271 -0.168462 0.17752
0.176867 -0.16855 0.178239
0.180694 -0.168807 0.180016
0.18492 -0.168644 0.179826
0.188894 -0.168428 0.178041
0.193562 -0.168754 0.175685
0.197448 -0.16903 0.173813
0.20191 -0.16865 0.172307
0.206263 -0.169368 0.170911
0.210884 -0.169196 0.167837
0.215155 -0.170147 0.165278
0.219176 -0.169406 0.163503
0.224338 -0.1705 0.157822
0.228856 -0.170514 0.154281
0.233658 -0.171143 0.148638
0.239735 -0.173006 0.133512
0.292566 -0.206985 -0.239524
0.297872 -0.206999 -0.237824
-0.139852 -0.193571 -0.146894
-0.133824 -0.19122 -0.121532
-0.129177 -0.191046 -0.117304
-0.124373 -0.190655 -0.114512
-0.119268 -0.190056 -0.108638
-0.113962 -0.190169 -0.10591
-0.109077 -0.189684 -0.103001
-0.103955 -0.189334 -0.0994308
-0.0991511 -0.189304 -0.0975356
-0.0948967 -0.189361 -0.0963821
-0.0897425 -0.189558 -0.0948107
-0.0850658 -0.189066 -0.092129
-0.0799986 -0.188272 -0.0891314
-0.0751899 -0.188274 -0.0878067
-0.0700868 -0.188001 -0.0871265
-0.0656611 -0.188521 -0.0879817
-0.0612268 -0.188686 -0.0896974
-0.0566846 -0.188329 -0.0897174
-0.0521238 -0.188622 -0.0897884
-0.0470497 -0.188475 -0.091805
-0.042588 -0.189129 -0.0947278
-0.0384793 -0.189826 -0.0991058
-0.033364 -0.189573 -0.0999994
-0.0288817 -0.189064 -0.0999668
-0.0239331 -0.189748 -0.101903
-0.0194197 -0.189884 -0.105191
-0.0144416 -0.190046 -0.108514
-0.00987231 -0.190651 -0.111657
-0.00465747 -0.190495 -0.116336
-7.56606e-05 -0.191493 -0.122699
0.0046358 -0.191136 -0.123399
0.00954295 -0.192123 -0.125482
0.0145333 -0.192433 -0.133011
0.107005 -0.170745 0.104015
0.111022 -0.170096 0.111669
0.114607 -0.169315 0.121082
0.118203 -0.168603 0.130655
0.121917 -0.168177 0.138291
0.125758 -0.167231 0.143816
0.129713 -0.167242 0.146308
0.133611 -0.167038 0.150238
0.137039 -0.166242 0.156015
0.141078 -0.1658 0.160172
0.144816 -0.165536 0.164518
0.148742 -0.165149 0.168495
0.152763 -0.16501 0.169904
0.156851 -0.164637 0.172239
0.160848 -0.16466 0.173314
0.164508 -0.16435 0.175352
0.168925 -0.164544 0.176107
0.172892 -0.164112 0.175751
0.176832 -0.16421 0.176908
0.180952 -0.164488 0.17747
0.184765 -0.1645 0.17725
0.189159 -0.164856 0.175575
0.193486 -0.164644 0.17557
0.197946 -0.164518 0.174197
0.201954 -0.164945 0.172834
0.206412 -0.164939 0.170945
0.210556 -0.165291 0.169166
0.214785 -0.165381 0.167732
0.219641 -0.165679 0.163113
0.224201 -0.165995 0.158198
0.229087 -0.166535 0.154074
0.233681 -0.166907 0.149424
0.239305 -0.168108 0.137596
0.292517 -0.201659 -0.236598
0.296893 -0.201495 -0.233548
-0.139069 -0.187159 -0.129529
-0.134039 -0.186565 -0.119993
-0.128689 -0.186036 -0.116051
-0.123995 -0.185775 -0.112891
-0.118576 -0.185545 -0.108546
-0.113638 -0.18481 -0.104525
-0.109156 -0.184863 -0.101313
-0.104277 -0.184493 -0.0978277
-0.0995409 -0.184408 -0.0950978
-0.0942814 -0.184061 -0.0920084
-0.0899838 -0.18441 -0.0925198
-0.0852594 -0.183964 -0.0901377
-0.0802883 -0.183406 -0.0875585
-0.0753288 -0.183302 -0.0865788
-0.0705715 -0.183802 -0.0867057
-0.065918 -0.183614 -0.0855627
-0.0613209 -0.183731 -0.0863783
-0.0562922 -0.183842 -0.0866792
-0.0517375 -0.184051 -0.0881612
-0.0471874 -0.183206 -0.0885611
-0.042187 -0.184185 -0.0920196
-0.0376353 -0.184377 -0.096097
-0.033297 -0.184478 -0.0973225
-0.0285885 -0.18421 -0.0976105
-0.0238155 -0.184764 -0.100485
-0.0187421 -0.185028 -0.102264
-0.0143121 -0.185365 -0.104414
-0.00949995 -0.185351 -0.107513
-0.00459803 -0.185714 -0.112788
0.000115647 -0.186245 -0.118169
0.00446868 -0.186842 -0.122532
0.00948985 -0.186852 -0.123014
0.0142803 -0.186913 -0.127099
0.0195924 -0.188879 -0.147422
0.103474 -0.167547 0.0926777
0.107268 -0.16704 0.107174
0.110704 -0.165742 0.115907
0.114487 -0.164986 0.123814
0.117847 -0.164355 0.130656
0.121935 -0.163934 0.137996
0.125915 -0.163568 0.142529
0.129374 -0.162693 0.147619
0.133492 -0.163207 0.151886
0.137458 -0.162289 0.156021
0.140832 -0.162157 0.159464
0.144855 -0.161472 0.162515
0.149237 -0.161433 0.166982
0.152738 -0.161346 0.169805
0.156483 -0.16064 0.173706
0.160533 -0.160778 0.175407
0.164491 -0.160452 0.175268
0.168785 -0.16023 0.176426
0.172871 -0.160472 0.175777
0.176552 -0.160138 0.176953
0.181145 -0.160414 0.176419
0.184705 -0.160216 0.177133
0.189264 -0.160462 0.176802
0.193496 -0.160246 0.175909
0.19744 -0.16062 0.174752
0.201839 -0.160535 0.173414
0.20675 -0.160825 0.170236
0.210465 -0.16135 0.169783
0.214917 -0.161281 0.167236
0.219522 -0.161449 0.164098
0.224717 -0.162066 0.157029
0.229024 -0.162561 0.153526
0.233783 -0.163011 0.148105
0.239593 -0.163861 0.136972
0.245369 -0.164995 0.121951
0.296954 -0.196258 -0.23122
-0.138353 -0.182096 -0.126824
-0.133395 -0.181658 -0.12009
-0.129133 -0.181679 -0.116949
-0.123639 -0.181163 -0.11224
-0.119282 -0.180821 -0.108394
-0.11344 -0.180302 -0.102363
-0.108444 -0.179911 -0.0985694
-0.104086 -0.179431 -0.0960765
-0.0989946 -0.178801 -0.0924189
-0.0943103 -0.178878 -0.091532
-0.0897559 -0.178879 -0.0901115
-0.0848391 -0.178972 -0.0887046
-0.0799158 -0.178345 -0.0865269
-0.0755144 -0.179014 -0.0855086
-0.0703756 -0.179161 -0.0839624
-0.0659606 -0.178508 -0.0845447
-0.0608431 -0.178445 -0.0845141
-0.0564068 -0.178251 -0.0843122
-0.0518379 -0.178225 -0.0859494
-0.0468776 -0.178805 -0.0867629
-0.0427454 -0.179365 -0.089498
-0.0377999 -0.179394 -0.0922348
-0.033248 -0.179656 -0.0940325
-0.028127 -0.179654 -0.0967793
-0.0240925 -0.179829 -0.0976338
-0.0186863 -0.179566 -0.0990725
-0.0144513 -0.179968 -0.101408
-0.0096643 -0.180833 -0.10402
-0.00492686 -0.180879 -0.108646
0.000409023 -0.181264 -0.11537
0.00432101 -0.181069 -0.11836
0.0093975 -0.181568 -0.121134
0.0144345 -0.181696 -0.122287
0.0187841 -0.182947 -0.136462
0.102873 -0.162947 0.097681
0.106986 -0.161818 0.10787
0.110502 -0.161045 0.120434
0.114034 -0.160183 0.125848
0.118074 -0.160332 0.131179
0.121675 -0.159579 0.138375
0.125743 -0.159118 0.143051
0.129592 -0.158614 0.148435
0.13333 -0.158198 0.153856
0.137362 -0.158299 0.155932
0.140748 -0.157569 0.160985
0.144985 -0.157278 0.161649
0.149134 -0.156964 0.165357
0.152663 -0.156741 0.169021
0.15657 -0.156998 0.17296
0.160493 -0.156715 0.174387
0.164358 -0.156224 0.176312
0.168832 -0.156409 0.176563
0.172832 -0.156469 0.175789
0.176918 -0.156557 0.175944
0.180508 -0.156309 0.177053
0.18514 -0.156043 0.17691
0.189113 -0.156295 0.177615
0.193572 -0.156478 0.175104
0.19743 -0.156356 0.175192
0.202035 -0.156525 0.172528
0.206249 -0.156472 0.17022
0.210405 -0.156865 0.168859
0.214971 -0.15723 0.167277
0.219901 -0.157622 0.162341
0.224936 -0.158448 0.154985
0.229258 -0.158323 0.15245
0.234155 -0.158631 0.147924
0.23915 -0.159492 0.138798
0.244374 -0.160086 0.127425
0.296216 -0.1911 -0.228947
-0.139039 -0.17744 -0.129586
-0.134268 -0.177549 -0.121715
-0.12879 -0.176765 -0.116151
-0.123913 -0.175976 -0.112574
-0.118782 -0.175027 -0.105779
-0.113694 -0.174693 -0.100703
-0.108893 -0.17487 -0.0971355
-0.103805 -0.175025 -0.0947454
-0.0989757 -0.174398 -0.0913935
-0.0938724 -0.174401 -0.0890055
-0.0893749 -0.174604 -0.0890799
-0.0848494 -0.17439 -0.0870523
-0.0797611 -0.174188 -0.0849407
-0.0752074 -0.174028 -0.0841525
-0.0707111 -0.173309 -0.0824807
-0.066106 -0.17372 -0.0822377
-0.0605715 -0.174237 -0.0823677
-0.0563492 -0.17385 -0.0823858
-0.0513747 -0.17372 -0.0841372
-0.0471048 -0.173827 -0.0849252
-0.0426862 -0.173981 -0.0858862
-0.0374416 -0.173709 -0.0872486
-0.0334812 -0.174734 -0.0908272
-0.0281482 -0.174521 -0.0941548
-0.023116 -0.174866 -0.0959539
-0.0188323 -0.17477 -0.0964367
-0.0140141 -0.175254 -0.0985489
-0.00910597 -0.175155 -0.100432
-0.00475571 -0.175608 -0.105547
0.000154359 -0.175631 -0.108894
0.00480354 -0.176754 -0.116333
0.00964206 -0.176537 -0.117534
0.0143744 -0.17626 -0.118353
0.0195817 -0.176806 -0.120916
0.0239129 -0.178861 -0.142162
0.0990868 -0.159028 0.0928385
0.102762 -0.158522 0.099768
0.106328 -0.157619 0.111138
0.110097 -0.156578 0.121083
0.114094 -0.156135 0.129154
0.117773 -0.155921 0.133229
0.122053 -0.155275 0.13717
0.125681 -0.155233 0.143243
0.129446 -0.154303 0.150181
0.133512 -0.153827 0.154396
0.137174 -0.153493 0.159047
0.141131 -0.153372 0.160144
0.14507 -0.153083 0.163094
0.148966 -0.152977 0.166037
0.152424 -0.152503 0.170728
0.156383 -0.152267 0.172758
0.160775 -0.152477 0.174127
0.164949 -0.151813 0.176051
0.168696 -0.152308 0.175075
0.172822 -0.152314 0.17483
0.17689 -0.152419 0.175032
0.180946 -0.152356 0.17645
0.185075 -0.15208 0.176244
0.18904 -0.152509 0.17626
0.193331 -0.152353 0.175115
0.197975 -0.153125 0.173323
0.20194 -0.1527 0.171648
0.206481 -0.152998 0.168374
0.210685 -0.1526 0.168426
0.214697 -0.152916 0.166185
0.219707 -0.153719 0.161669
0.224832 -0.154176 0.154541
0.228939 -0.154417 0.151734
0.233378 -0.154578 0.148998
0.239401 -0.155336 0.140211
0.245253 -0.15618 0.126972
0.252252 -0.158234 0.103041
-0.139263 -0.173483 -0.135497
-0.134551 -0.17209 -0.122063
-0.128302 -0.171421 -0.114224
-0.123351 -0.171235 -0.109734
-0.118472 -0.17146 -0.105301
-0.113007 -0.170118 -0.100008
-0.109148 -0.170274 -0.0970082
-0.103407 -0.17007 -0.0932682
-0.0991233 -0.1695 -0.0903988
-0.0944994 -0.169753 -0.0878372
-0.0893736 -0.169782 -0.0864401
-0.0846508 -0.169405 -0.0851638
-0.0797968 -0.169232 -0.0846384
-0.0752153 -0.169029 -0.082988
-0.0707084 -0.168796 -0.0820155
-0.0658114 -0.168762 -0.0813842
-0.0610889 -0.16904 -0.0806046
-0.0562265 -0.168742 -0.0799789
-0.0519414 -0.169046 -0.0813015
-0.0470682 -0.169406 -0.0816836
-0.0426817 -0.168763 -0.0827668
-0.0374624 -0.169418 -0.0831187
-0.0328068 -0.168999 -0.086185
-0.0283391 -0.169777 -0.0898421
-0.0237506 -0.17022 -0.0926197
-0.0190034 -0.17005 -0.0939982
-0.0142871 -0.170022 -0.094523
-0.00893591 -0.170483 -0.097893
-0.00470419 -0.171269 -0.10092
-4.38925e-05 -0.170969 -0.103981
0.00474694 -0.171374 -0.110352
0.00987102 -0.172177 -0.116022
0.0142335 -0.171925 -0.117341
0.019173 -0.171286 -0.116438
0.0240784 -0.17264 -0.12644
0.0289828 -0.175094 -0.148715
0.0985818 -0.15482 0.0942414
0.102704 -0.153753 0.105651
0.106273 -0.152964 0.114171
0.109872 -0.152248 0.121583
0.113756 -0.151902 0.129473
0.118253 -0.151405 0.134298
0.121951 -0.151228 0.138104
0.125651 -0.150635 0.142686
0.129384 -0.150198 0.14891
0.133107 -0.149659 0.155623
0.137015 -0.149807 0.159118
0.141243 -0.149587 0.160088
0.145034 -0.148925 0.16462
0.14876 -0.148856 0.168309
0.152867 -0.148448 0.171318
0.156488 -0.148423 0.17323
0.160574 -0.148541 0.174689
0.164642 -0.148056 0.175084
0.168739 -0.148483 0.175669
0.172969 -0.147733 0.174341
0.176893 -0.147949 0.175034
0.181526 -0.148572 0.174169
0.185343 -0.147923 0.175335
0.189254 -0.148368 0.17446
0.193341 -0.148218 0.174273
0.198417 -0.148395 0.172116
0.202295 -0.148306 0.170001
0.206452 -0.149027 0.168347
0.210925 -0.148958 0.167585
0.214891 -0.149057 0.166394
0.220002 -0.149229 0.162186
0.224603 -0.149551 0.155681
0.229162 -0.149953 0.151687
0.23393 -0.150207 0.148556
0.239017 -0.150702 0.141243
0.245167 -0.152123 0.126641
0.296725 -0.180846 -0.229264
-0.140022 -0.16857 -0.14045
-0.133933 -0.167231 -0.119098
-0.128559 -0.16644 -0.112593
-0.123299 -0.166634 -0.108502
-0.118782 -0.166047 -0.104422
-0.113983 -0.165979 -0.100025
-0.109001 -0.165361 -0.0959203
-0.10382 -0.165034 -0.0925682
-0.0987309 -0.165248 -0.0893989
-0.0940959 -0.164666 -0.0868092
-0.0898436 -0.164093 -0.085964
-0.0847308 -0.164898 -0.0858715
-0.0797342 -0.164683 -0.0839331
-0.0751164 -0.164599 -0.0809493
-0.07076 -0.164251 -0.0798481
-0.0658604 -0.164524 -0.078419
-0.0607582 -0.163918 -0.0777102
-0.0562299 -0.163711 -0.0767322
-0.0511282 -0.164238 -0.0774519
-0.0465901 -0.164353 -0.0783417
-0.0425082 -0.164439 -0.0789182
-0.037319 -0.164343 -0.0797095
-0.03251 -0.163893 -0.0809119
-0.0284168 -0.164481 -0.0863478
-0.0232382 -0.165364 -0.0907788
-0.018789 -0.164581 -0.0907485
-0.0141771 -0.16511 -0.0920436
-0.00940796 -0.165538 -0.093915
-0.00446041 -0.165747 -0.0966396
-8.91538e-05 -0.166345 -0.100777
0.00485824 -0.166528 -0.105056
0.0098683 -0.166573 -0.110798
0.0141637 -0.16703 -0.11431
0.0193818 -0.167055 -0.115574
0.0237197 -0.167012 -0.117499
0.0285081 -0.16856 -0.134177
0.0949405 -0.151394 0.0841225
0.0987877 -0.150337 0.0972418
0.102753 -0.149328 0.110363
0.106029 -0.148462 0.11516
0.109899 -0.148252 0.122881
0.114071 -0.147826 0.130058
0.118006 -0.147182 0.134486
0.121583 -0.146949 0.139198
0.125316 -0.14674 0.143294
0.129276 -0.146136 0.149413
0.133397 -0.145828 0.154039
0.137033 -0.145211 0.15725
0.141244 -0.145302 0.160597
0.145038 -0.144499 0.164483
0.148929 -0.144331 0.169169
0.152941 -0.144159 0.170994
0.156539 -0.144236 0.173505
0.160429 -0.144063 0.174701
0.164723 -0.144139 0.175389
0.168777 -0.143947 0.174795
0.173092 -0.144043 0.175079
0.177034 -0.144296 0.174371
0.181105 -0.144502 0.175164
0.185222 -0.14451 0.174396
0.189424 -0.143519 0.174719
0.193296 -0.144025 0.174575
0.197864 -0.144069 0.172415
0.201943 -0.144561 0.169859
0.206316 -0.144168 0.169296
0.210686 -0.144797 0.16728
0.215355 -0.144756 0.165802
0.219843 -0.145212 0.16213
0.22458 -0.145795 0.155229
0.229488 -0.146028 0.151204
0.233985 -0.146307 0.148173
0.238753 -0.146961 0.142167
0.245282 -0.147929 0.125741
0.253177 -0.150466 0.0959989
-0.139794 -0.164012 -0.135507
-0.133586 -0.162149 -0.118717
-0.128694 -0.161968 -0.11242
-0.123447 -0.161412 -0.108675
-0.119245 -0.16085 -0.104137
-0.113636 -0.160632 -0.099582
-0.108893 -0.1604 -0.0953562
-0.103946 -0.160507 -0.0923576
-0.0992366 -0.160348 -0.0896165
-0.0940604 -0.160158 -0.0868995
-0.0891541 -0.159853 -0.084569
-0.0843196 -0.159514 -0.0832813
-0.0796648 -0.159818 -0.0817034
-0.0750129 -0.159524 -0.0783296
-0.0703125 -0.159256 -0.0769398
-0.0655633 -0.159534 -0.0760415
-0.06105 -0.159553 -0.0748894
-0.0562209 -0.159518 -0.0750403
-0.0516092 -0.159064 -0.075146
-0.0469917 -0.159089 -0.0761178
-0.0419504 -0.159566 -0.0774641
-0.0378428 -0.159606 -0.0772314
-0.0322229 -0.159473 -0.0782626
-0.0279849 -0.159491 -0.0819128
-0.0236566 -0.160106 -0.0863349
-0.0186896 -0.159531 -0.0883121
-0.0142693 -0.160126 -0.089222
