ply
format ascii 1.0
element vertex 1583
property float x
property float y
property float z
end_header
0.197196 -0.183772 0.0139437
0.201462 -0.183619 0.0149374
0.205795 -0.183529 0.0149368
0.210289 -0.183928 0.0144185
0.214363 -0.183311 0.0147043
0.219434 -0.183844 0.0136725
0.224303 -0.183875 0.0127366
0.22874 -0.183815 0.0119495
0.232926 -0.183645 0.0129262
0.237294 -0.183602 0.0150537
0.241813 -0.183066 0.0161526
0.246129 -0.183645 0.0156703
0.250556 -0.183232 0.0148772
0.255221 -0.183559 0.0152435
0.260281 -0.183749 0.012516
0.264679 -0.183968 0.0106404
0.269068 -0.184397 0.00875533
-0.229683 -0.183405 -0.0352154
-0.223804 -0.182419 -0.0242822
-0.217763 -0.181372 -0.013489
-0.21288 -0.18071 -0.00848794
-0.207561 -0.180537 -0.00136399
-0.203173 -0.180255 0.00222874
-0.198072 -0.179981 0.00301552
-0.193216 -0.180186 0.00846803
-0.188426 -0.179511 0.0104101
-0.184086 -0.179272 0.0116577
-0.179766 -0.179602 0.0111749
-0.174957 -0.179332 0.0111616
-0.170052 -0.179217 0.0109411
-0.165925 -0.179505 0.0101418
-0.161488 -0.179456 0.0104443
-0.157616 -0.179515 0.0101448
-0.153203 -0.179681 0.010226
-0.148253 -0.179752 0.00954092
-0.143323 -0.179229 0.00903273
-0.139289 -0.179551 0.00899458
-0.13543 -0.179838 0.00664365
-0.130201 -0.179956 0.00404751
-0.125904 -0.180131 0.00163925
-0.121588 -0.180207 0.000105619
-0.117494 -0.18028 -0.0024035
-0.112965 -0.181127 -0.0059998
-0.108465 -0.18119 -0.00867987
-0.104501 -0.181398 -0.0119495
-0.0999825 -0.18259 -0.0201211
-0.0958554 -0.18287 -0.0270531
-0.0920105 -0.184255 -0.0417964
-0.0873526 -0.185213 -0.0517232
-0.0836848 -0.185337 -0.0603592
-0.0802043 -0.188397 -0.0910125
0.0375105 -0.214404 -0.374191
0.042941 -0.214244 -0.377389
0.112502 -0.187123 -0.0729966
0.116714 -0.186072 -0.0685046
0.121134 -0.186516 -0.0665607
0.125581 -0.186403 -0.0632906
0.129798 -0.185189 -0.052866
0.133169 -0.184168 -0.0426021
0.137686 -0.183687 -0.0342934
0.141452 -0.183079 -0.0276544
0.14583 -0.182724 -0.0229297
0.149859 -0.182114 -0.0179827
0.153306 -0.180305 -0.001966
0.157162 -0.180336 0.000687242
0.161701 -0.180032 0.00272894
0.166232 -0.180096 0.00422633
0.170801 -0.179967 0.00587773
0.175435 -0.179998 0.00681651
0.179857 -0.179968 0.00813258
0.183702 -0.179293 0.00972247
0.188743 -0.179306 0.0111932
0.192916 -0.179011 0.0125054
0.197321 -0.179183 0.013123
0.201359 -0.178669 0.0144308
0.206453 -0.178827 0.0142901
0.210235 -0.178828 0.0142413
0.214616 -0.178876 0.0155517
0.218908 -0.178756 0.016023
0.224525 -0.178575 0.0134668
0.228788 -0.179375 0.0109125
0.23324 -0.179157 0.0121696
0.237755 -0.179307 0.0123304
0.241941 -0.179086 0.012707
0.246505 -0.179221 0.0123887
0.25099 -0.179193 0.0130454
0.255791 -0.179067 0.0125556
0.259988 -0.179772 0.0120142
0.264714 -0.179802 0.00883925
0.271259 -0.180434 -0.00130749
-0.229307 -0.178995 -0.0344279
-0.223578 -0.178018 -0.0231609
-0.218044 -0.177346 -0.013746
-0.213311 -0.176945 -0.00861788
-0.207968 -0.175924 -0.0022099
-0.202646 -0.175419 0.00193179
-0.197918 -0.175824 0.00340843
-0.193275 -0.175281 0.00607657
-0.188606 -0.175015 0.00888598
-0.183806 -0.174861 0.0110277
-0.179409 -0.174543 0.0111544
-0.174958 -0.175075 0.0116228
-0.170189 -0.174974 0.0120735
-0.165622 -0.174678 0.0119334
-0.161589 -0.175231 0.0120804
-0.15708 -0.174773 0.0114561
-0.152775 -0.175309 0.0114609
-0.148277 -0.174594 0.0109087
-0.143332 -0.175409 0.00924158
-0.139324 -0.174992 0.00874782
-0.134887 -0.174727 0.00883794
-0.130178 -0.175314 0.00605071
-0.125699 -0.175448 0.00294733
-0.121833 -0.175678 0.00135601
-0.117304 -0.176146 -0.00107694
-0.113261 -0.176178 -0.00364399
-0.108596 -0.176259 -0.00671482
-0.104251 -0.176544 -0.0106099
-0.100189 -0.177649 -0.0171039
-0.0961699 -0.178134 -0.022603
-0.0916526 -0.178822 -0.0320919
-0.0880086 -0.180021 -0.0449049
-0.0833637 -0.180175 -0.0533793
-0.0801836 -0.183474 -0.0883396
0.0319298 -0.208588 -0.371249
0.0375917 -0.208231 -0.37058
0.0429181 -0.209184 -0.372319
0.107834 -0.182282 -0.0742497
0.112248 -0.182422 -0.0708144
0.116859 -0.182057 -0.0688832
0.121128 -0.181748 -0.064189
0.124983 -0.180873 -0.0546184
0.12889 -0.17934 -0.0405853
0.133337 -0.178518 -0.0324976
0.137007 -0.178126 -0.0287263
0.141563 -0.177868 -0.0232496
0.145687 -0.177253 -0.0169435
0.148847 -0.17641 -0.00355887
0.153338 -0.175814 -0.000187635
0.157587 -0.17577 0.00238967
0.16222 -0.175831 0.00375211
0.166514 -0.175667 0.00591183
0.17098 -0.175169 0.00742984
0.175007 -0.175652 0.00940895
0.179085 -0.175074 0.0106702
0.183709 -0.175295 0.0120004
0.188183 -0.174638 0.013328
0.192841 -0.174746 0.0128297
0.197105 -0.174859 0.0141631
0.201473 -0.174796 0.0138059
0.206203 -0.174966 0.0150411
0.209921 -0.174374 0.0149105
0.21497 -0.174169 0.0162575
0.219232 -0.174603 0.0152674
0.223613 -0.174483 0.015141
0.228568 -0.17466 0.0138367
0.233583 -0.175077 0.0104524
0.237847 -0.175409 0.0101308
0.242379 -0.174914 0.0101345
0.246643 -0.174873 0.0105238
0.25132 -0.174767 0.0094378
0.255513 -0.175351 0.00999188
0.26017 -0.175364 0.00887203
0.265854 -0.175443 0.00282276
-0.229656 -0.174464 -0.0360224
-0.223997 -0.173676 -0.0260284
-0.217336 -0.172926 -0.0134907
-0.212837 -0.171934 -0.0101182
-0.208463 -0.171847 -0.00455499
-0.202975 -0.171347 -0.000644207
-0.197984 -0.171125 0.00201499
-0.193458 -0.170447 0.00478494
-0.188767 -0.170999 0.00894928
-0.183933 -0.170195 0.0112945
-0.1795 -0.170377 0.0116918
-0.174767 -0.17044 0.0131677
-0.170591 -0.170049 0.0130447
-0.165796 -0.170195 0.0131999
-0.16139 -0.1705 0.011753
-0.156454 -0.170495 0.0121967
-0.152516 -0.170482 0.0120436
-0.148123 -0.170343 0.011353
-0.143646 -0.170387 0.0105034
-0.139385 -0.170035 0.0107396
-0.134506 -0.170364 0.00917292
-0.13072 -0.171265 0.00707257
-0.126099 -0.170638 0.00539029
-0.121376 -0.171784 0.0019201
-0.117512 -0.171386 -0.000624657
-0.112935 -0.171742 -0.00193596
-0.108427 -0.171904 -0.00531983
-0.10401 -0.172358 -0.0102241
-0.0999559 -0.172579 -0.0140245
-0.0954851 -0.172737 -0.0196133
-0.0915721 -0.173293 -0.0263424
-0.0874831 -0.175151 -0.0408387
-0.0832395 -0.175798 -0.0484147
-0.078741 -0.176628 -0.0595975
-0.0756778 -0.179135 -0.0900626
0.0267954 -0.202674 -0.364423
0.0319699 -0.202695 -0.364386
0.0373285 -0.203049 -0.365456
0.0425307 -0.202454 -0.367584
0.103086 -0.177747 -0.0744312
0.107663 -0.177326 -0.0703895
0.111707 -0.177598 -0.068954
0.116178 -0.17708 -0.0659251
0.120437 -0.176266 -0.0577881
0.124231 -0.174852 -0.0420437
0.128645 -0.174467 -0.0332434
0.13257 -0.173813 -0.0282364
0.136928 -0.173382 -0.0230949
0.141177 -0.173603 -0.0201678
0.144745 -0.171355 -0.00146627
0.148672 -0.171639 -0.000361443
0.153212 -0.170977 0.000590444
0.157648 -0.170754 0.00253689
0.161798 -0.171058 0.00408864
0.166696 -0.170789 0.00659728
0.170611 -0.170678 0.00874746
0.174904 -0.170485 0.0114514
0.179784 -0.170227 0.0116415
0.18356 -0.170309 0.013249
0.188293 -0.170412 0.0138603
0.192505 -0.170076 0.0142127
0.197146 -0.170514 0.0137755
0.201507 -0.17004 0.0134549
0.205719 -0.169889 0.0158283
0.210287 -0.170014 0.0162134
0.214672 -0.170144 0.0169452
0.21903 -0.169977 0.0172675
0.223623 -0.170006 0.016405
0.228236 -0.169898 0.0150355
0.233309 -0.170183 0.0113411
0.237792 -0.170547 0.0103575
0.242504 -0.170765 0.00844002
0.247367 -0.17103 0.00775707
0.251589 -0.170864 0.00663495
0.256527 -0.171195 0.00506246
0.262371 -0.172153 -0.00400186
-0.223999 -0.169005 -0.0275958
-0.218358 -0.167721 -0.0158155
-0.213443 -0.167724 -0.0116265
-0.208511 -0.167154 -0.0054996
-0.203066 -0.166958 -0.000734329
-0.197756 -0.166649 0.00376749
-0.193431 -0.166567 0.00575614
-0.188612 -0.166335 0.00896025
-0.183694 -0.165712 0.0117249
-0.179652 -0.166144 0.0127095
-0.174395 -0.16573 0.0137897
-0.1703 -0.165767 0.0134264
-0.165439 -0.165909 0.0130297
-0.161557 -0.166054 0.0131226
-0.157126 -0.165998 0.0117619
-0.152536 -0.165768 0.0127681
-0.147956 -0.165679 0.0121261
-0.14333 -0.166262 0.0114461
-0.139152 -0.165816 0.0110145
-0.13471 -0.16637 0.0095551
-0.129994 -0.165971 0.00887132
-0.126316 -0.166164 0.00522244
-0.121724 -0.16652 0.00278211
-0.117407 -0.166937 -0.00104547
-0.113022 -0.166878 -0.00196242
-0.108687 -0.16694 -0.00385332
-0.104052 -0.16807 -0.0079143
-0.0997125 -0.167678 -0.010792
-0.0951502 -0.168691 -0.0163035
-0.0913504 -0.168831 -0.0216181
-0.0869091 -0.169265 -0.0257428
-0.0826908 -0.169969 -0.0436523
-0.078596 -0.171518 -0.0533199
-0.0745585 -0.172513 -0.066601
-0.0706169 -0.174366 -0.0937684
0.021027 -0.197396 -0.361496
0.0268048 -0.197064 -0.357563
0.0327559 -0.196911 -0.356512
0.0370923 -0.196738 -0.357004
0.0421415 -0.196903 -0.358534
0.098318 -0.173223 -0.0758474
0.102939 -0.172605 -0.0723436
0.107354 -0.172951 -0.0693257
0.111769 -0.172674 -0.0668569
0.116187 -0.171775 -0.05634
0.119677 -0.170106 -0.0425673
0.123579 -0.170306 -0.0361536
0.128118 -0.168798 -0.0275338
0.132664 -0.168812 -0.0236592
0.13689 -0.168357 -0.0186429
0.14026 -0.167309 -0.00379395
0.144311 -0.166828 -0.000649929
0.148613 -0.166679 0.00190771
0.153054 -0.166723 0.00275779
0.157351 -0.16676 0.00386691
0.162059 -0.166213 0.00609958
0.166504 -0.165873 0.00814247
0.171084 -0.165969 0.00912559
0.175153 -0.165751 0.0108269
0.179428 -0.165826 0.0129997
0.183589 -0.166067 0.0141991
0.187844 -0.165535 0.0142595
0.192692 -0.166132 0.0141373
0.197089 -0.165434 0.0147994
0.20122 -0.165786 0.0153158
0.205991 -0.165577 0.0145806
0.210506 -0.165129 0.0162882
0.214728 -0.165669 0.0166295
0.219282 -0.165272 0.0172307
0.223832 -0.165323 0.0160007
0.227803 -0.165531 0.0156908
0.233054 -0.165508 0.0142968
0.237641 -0.165794 0.0113547
0.242605 -0.166191 0.00752854
0.247562 -0.166287 0.00447083
0.252438 -0.166644 0.000952244
0.257567 -0.167253 -0.00406909
0.263601 -0.168337 -0.0157254
-0.222934 -0.164939 -0.0253749
-0.21764 -0.163703 -0.0151503
-0.213043 -0.163482 -0.0107908
-0.208183 -0.162812 -0.00634789
-0.202964 -0.162673 0.000166774
-0.19797 -0.16214 0.00383127
-0.193476 -0.161892 0.00665104
-0.188023 -0.161782 0.010523
-0.183661 -0.161285 0.0118158
-0.179268 -0.16113 0.0121504
-0.174886 -0.161037 0.0127409
-0.169711 -0.161146 0.0142946
-0.165475 -0.161053 0.0140218
-0.161095 -0.161209 0.0126162
-0.157187 -0.161542 0.0126808
-0.152319 -0.161447 0.0128939
-0.147902 -0.161231 0.0121089
-0.143164 -0.161503 0.0121921
-0.138836 -0.16152 0.0103304
-0.134537 -0.161763 0.00932455
-0.130209 -0.161627 0.00838113
-0.125503 -0.162358 0.00539243
-0.121918 -0.162329 0.00337291
-0.117762 -0.16227 0.00190353
-0.11257 -0.162314 -0.000290871
-0.108552 -0.16256 -0.000801325
-0.103841 -0.162709 -0.00451303
-0.09999 -0.162859 -0.00706077
-0.095166 -0.163405 -0.0108829
-0.0906148 -0.163954 -0.0164206
-0.0868638 -0.164169 -0.0224268
-0.0821774 -0.165181 -0.0299296
-0.0789624 -0.166681 -0.0474868
-0.0741091 -0.167601 -0.0575914
-0.0709146 -0.170058 -0.0903533
0.0159634 -0.191413 -0.360693
0.0214576 -0.191455 -0.355029
0.0263892 -0.191389 -0.354357
0.0316916 -0.190959 -0.352974
0.0367834 -0.191508 -0.354872
0.0425551 -0.19131 -0.355993
0.047649 -0.192243 -0.364427
0.0935334 -0.168528 -0.0770092
0.0980732 -0.168213 -0.0731692
0.102965 -0.16855 -0.0716379
0.107324 -0.16811 -0.0666311
0.111496 -0.167255 -0.0555432
0.115057 -0.166305 -0.0451176
0.119966 -0.165168 -0.0345368
0.123889 -0.16483 -0.0304449
0.127775 -0.164856 -0.026509
0.131644 -0.162926 -0.0082798
0.135615 -0.162915 -0.00457668
0.140324 -0.162632 -0.00210333
0.144441 -0.162302 -0.00019598
0.149045 -0.16237 0.00150907
0.152911 -0.161967 0.00482368
0.157643 -0.161807 0.00668299
0.161988 -0.161655 0.00945139
0.165994 -0.16163 0.00998509
0.170172 -0.161401 0.0100876
0.175017 -0.161663 0.0115426
0.179343 -0.161175 0.0125685
0.183286 -0.161534 0.014182
0.188387 -0.161207 0.0143894
0.192602 -0.1611 0.0148118
0.196872 -0.160911 0.0150223
0.201825 -0.16123 0.0150527
0.205659 -0.160767 0.0172333
0.210169 -0.160704 0.0161402
0.214354 -0.160821 0.0152532
0.21966 -0.161181 0.0156096
0.223747 -0.161201 0.0152642
0.228585 -0.161071 0.0149286
0.233372 -0.16136 0.0135869
0.237537 -0.1616 0.0128316
0.24242 -0.161859 0.00916338
0.247761 -0.162259 0.00381851
0.252512 -0.162444 -0.00101829
0.257344 -0.16254 -0.00519276
0.263329 -0.163711 -0.0144808
-0.229206 -0.160608 -0.0341654
-0.223354 -0.159953 -0.0254524
-0.218097 -0.158545 -0.0152431
-0.21297 -0.158455 -0.0103164
-0.208317 -0.158484 -0.00600743
-0.202754 -0.15767 0.00117004
-0.197879 -0.157518 0.0034498
-0.19349 -0.157284 0.00524855
-0.188518 -0.156931 0.0086782
-0.184006 -0.156527 0.0116005
-0.179255 -0.156635 0.011914
-0.174248 -0.156632 0.0136694
-0.170302 -0.156471 0.0141213
-0.166236 -0.156527 0.0129967
-0.161641 -0.156711 0.0134554
-0.157122 -0.1571 0.0138581
-0.152257 -0.157145 0.0122623
-0.14817 -0.15705 0.0120949
-0.14339 -0.156975 0.0116535
-0.139012 -0.157421 0.0111648
-0.134516 -0.157638 0.00897419
-0.130254 -0.156915 0.00713813
-0.12537 -0.157459 0.00749898
-0.121469 -0.15729 0.00566471
-0.116424 -0.157813 0.00230849
-0.112727 -0.157916 0.000841618
-0.108016 -0.158048 0.000762105
-0.10413 -0.157657 -0.00154185
-0.0993011 -0.158157 -0.00553656
-0.0952467 -0.158905 -0.00917768
-0.0906266 -0.15817 -0.0115979
-0.0864676 -0.159396 -0.0181141
-0.0822429 -0.159676 -0.0236592
-0.0783737 -0.160664 -0.033215
-0.0741942 -0.162077 -0.0512967
-0.0700433 -0.162735 -0.0600526
-0.0661397 -0.165299 -0.0936844
0.0151106 -0.179818 -0.276203
0.0202499 -0.179794 -0.278678
0.0269382 -0.18443 -0.338042
0.0318032 -0.184886 -0.342226
0.0373354 -0.185434 -0.352403
0.0423735 -0.185437 -0.353739
0.0890709 -0.163927 -0.0778179
0.0935265 -0.163732 -0.0756414
0.0983852 -0.163436 -0.0726712
0.10259 -0.16335 -0.0678604
0.106745 -0.162394 -0.0557194
0.110941 -0.161716 -0.0448296
0.114796 -0.16077 -0.03651
0.119346 -0.160391 -0.0307138
0.122995 -0.160118 -0.0263541
0.127242 -0.158906 -0.00875783
0.131099 -0.158325 -0.00355506
0.135568 -0.157767 -0.00137711
0.139856 -0.158259 -0.000689745
0.144428 -0.157707 0.00167704
0.148691 -0.15763 0.00311685
0.152783 -0.157356 0.0056771
0.157431 -0.157584 0.0071367
0.161629 -0.156623 0.0103706
0.165824 -0.156907 0.0107131
0.170195 -0.156563 0.012444
0.174644 -0.156475 0.0129881
0.179282 -0.156732 0.0130601
0.183643 -0.156553 0.0142372
0.188667 -0.156812 0.0132824
0.192388 -0.156707 0.0156007
0.196732 -0.156815 0.0159888
0.200886 -0.156089 0.0186694
0.205817 -0.156611 0.0182536
0.210341 -0.156295 0.0164027
0.214732 -0.157015 0.0154564
0.21919 -0.15687 0.0145586
0.22406 -0.156994 0.0141842
0.228497 -0.157173 0.0143316
0.232977 -0.156827 0.014024
0.237425 -0.156922 0.0119944
0.242546 -0.156914 0.00893605
0.247574 -0.157997 0.00385118
0.252283 -0.157992 -2.28882e-05
0.257754 -0.15816 -0.00553775
0.263394 -0.158947 -0.0141315
0.270324 -0.160412 -0.0312274
-0.229501 -0.156191 -0.036376
-0.224146 -0.155091 -0.028049
-0.217794 -0.15425 -0.0157969
-0.21309 -0.154497 -0.0103989
-0.208622 -0.15414 -0.00794888
-0.202848 -0.153499 -0.000695229
-0.19814 -0.153394 0.00227618
-0.193453 -0.152987 0.00476396
-0.188827 -0.152323 0.00788283
-0.183936 -0.152839 0.00995398
-0.179603 -0.152612 0.011284
-0.174569 -0.152382 0.0125834
-0.170225 -0.152285 0.0124996
-0.165779 -0.152369 0.0131588
-0.16145 -0.152656 0.0134058
-0.157008 -0.152333 0.0113473
-0.152299 -0.152672 0.0122091
-0.147676 -0.152466 0.0114241
-0.143322 -0.152579 0.0110462
-0.139297 -0.152429 0.0110763
-0.134926 -0.152757 0.0105586
-0.130109 -0.152701 0.00845635
-0.125814 -0.152944 0.00812578
-0.121204 -0.152336 0.00627458
-0.117054 -0.152723 0.00420249
-0.112618 -0.153336 0.00288928
-0.108389 -0.153622 -0.000111103
-0.104223 -0.15339 -2.3365e-05
-0.0996893 -0.15368 -0.00430059
-0.0951735 -0.154203 -0.00650787
-0.0904889 -0.153969 -0.0107701
-0.0863861 -0.154846 -0.0158379
-0.082101 -0.155276 -0.0227296
-0.0775901 -0.155677 -0.0281968
-0.0739776 -0.157105 -0.0454965
-0.0697722 -0.15755 -0.0527322
-0.0652117 -0.158307 -0.0677886
0.00023244 -0.174416 -0.275204
0.00484877 -0.174322 -0.26687
0.00984649 -0.171985 -0.24263
0.0156138 -0.172174 -0.244164
0.0201087 -0.173577 -0.260448
0.0253945 -0.173725 -0.264892
0.030956 -0.174077 -0.272948
0.0365314 -0.178775 -0.334891
0.0419758 -0.179524 -0.340373
0.0844786 -0.159479 -0.0834551
0.0891492 -0.159057 -0.076582
0.0932746 -0.158912 -0.073693
0.0981149 -0.158565 -0.0684988
0.101683 -0.157835 -0.0581539
0.106091 -0.157164 -0.0466573
0.110056 -0.156485 -0.0384197
0.114377 -0.156004 -0.0328956
0.118725 -0.15587 -0.026974
0.123045 -0.155399 -0.0221868
0.126809 -0.153888 -0.00561786
0.130869 -0.153511 -0.00334454
0.135312 -0.153468 -0.00101757
0.140058 -0.153247 0.000828743
0.144022 -0.152914 0.00334024
0.148422 -0.153051 0.00559068
0.152716 -0.152575 0.00653946
0.157144 -0.152881 0.00976026
0.161489 -0.152288 0.010023
0.165921 -0.15225 0.0114183
0.17 -0.152361 0.0126886
0.174788 -0.152696 0.0133325
0.178864 -0.151989 0.013744
0.183205 -0.152172 0.0143998
0.187939 -0.152303 0.0131336
0.192302 -0.152337 0.0139095
0.196758 -0.152151 0.0163599
0.201178 -0.151753 0.0173312
0.205549 -0.152269 0.0174659
0.21028 -0.151807 0.017298
0.214731 -0.152143 0.0157264
0.218791 -0.152045 0.0156084
0.223982 -0.152595 0.0147744
0.228534 -0.152051 0.0148792
0.233239 -0.152344 0.0130712
0.238122 -0.152497 0.0110406
0.242961 -0.152624 0.00780368
0.247809 -0.15305 0.00233352
0.252513 -0.153847 -0.000478983
0.257933 -0.153794 -0.00603342
0.263768 -0.155046 -0.0159354
-0.229795 -0.151764 -0.0392168
-0.224178 -0.150798 -0.0288258
-0.219404 -0.15018 -0.0220659
-0.213484 -0.150196 -0.013279
-0.208305 -0.149722 -0.0086956
-0.203422 -0.149142 -0.00416517
-0.198308 -0.148555 0.00158429
-0.193698 -0.148344 0.00269127
-0.188634 -0.148635 0.00566781
-0.183818 -0.148178 0.00867283
-0.17929 -0.14825 0.0101464
-0.174752 -0.147954 0.00992024
-0.170551 -0.147882 0.0116811
-0.165882 -0.147872 0.0113913
-0.161235 -0.148008 0.0118114
-0.15691 -0.147931 0.0122968
-0.152795 -0.147863 0.0113618
-0.148037 -0.147684 0.0106722
-0.143466 -0.148198 0.0108736
-0.139433 -0.147904 0.0112002
-0.135147 -0.147721 0.0115467
-0.129305 -0.148128 0.0097295
-0.125865 -0.148053 0.0087446
-0.121228 -0.148322 0.00725925
-0.116973 -0.148385 0.0048207
-0.112268 -0.148563 0.00351357
-0.108216 -0.148535 0.000622988
-0.104111 -0.148941 0.00131691
-0.0998603 -0.149206 -0.00250649
-0.0949578 -0.149158 -0.00513411
-0.0909952 -0.149275 -0.00885034
-0.0858765 -0.150061 -0.0142281
-0.081633 -0.150386 -0.0197344
-0.0777473 -0.15092 -0.0244963
-0.0735516 -0.151615 -0.0306804
-0.0692183 -0.152894 -0.0481381
-0.0650843 -0.153251 -0.0580852
-0.0612745 -0.155976 -0.0959709
8.07708e-05 -0.1663 -0.236153
0.00469593 -0.165749 -0.233124
0.0100689 -0.166025 -0.231601
0.0152069 -0.166455 -0.232812
0.0202758 -0.16627 -0.23518
0.0253764 -0.166295 -0.238858
0.0300999 -0.16839 -0.26332
0.0359885 -0.169148 -0.27321
0.0419267 -0.173671 -0.332719
0.0800177 -0.155381 -0.084892
0.0841722 -0.154329 -0.079114
0.0892 -0.154583 -0.0763714
0.0935082 -0.153808 -0.069437
0.0975139 -0.152718 -0.0588715
0.101424 -0.152728 -0.048852
0.106323 -0.151868 -0.0381966
0.110156 -0.151084 -0.0329008
0.114348 -0.151063 -0.0277019
0.119 -0.150843 -0.0229111
0.122288 -0.149744 -0.00923824
0.126915 -0.148734 -0.00465894
0.131034 -0.148881 -0.00234652
0.135173 -0.148825 9.77516e-05
0.139755 -0.148764 0.00254512
0.143954 -0.148842 0.00508368
0.148413 -0.148396 0.00738156
0.152834 -0.148243 0.00870538
0.15726 -0.148047 0.00960171
0.161543 -0.14803 0.0106351
0.165698 -0.147784 0.0121095
0.170475 -0.147722 0.01281
0.174406 -0.147752 0.0140697
0.179214 -0.148151 0.0134704
0.183521 -0.147555 0.0151762
0.188264 -0.147972 0.0148978
0.192421 -0.147731 0.0148275
0.196977 -0.147885 0.0155954
0.201216 -0.147881 0.0167201
0.205561 -0.147367 0.0172713
0.210276 -0.147411 0.0169361
0.214557 -0.147581 0.0162157
0.21953 -0.147584 0.0164084
0.223809 -0.14781 0.0165362
0.228185 -0.147958 0.0150393
0.232974 -0.148262 0.0136847
0.237527 -0.147529 0.0115958
0.242452 -0.148251 0.00677955
0.248289 -0.149021 0.00142646
0.252884 -0.149091 -0.00244665
0.257914 -0.149899 -0.00843787
0.264638 -0.151005 -0.0233142
-0.224468 -0.146381 -0.0314901
-0.219353 -0.145818 -0.024951
-0.213279 -0.145298 -0.0157239
-0.208993 -0.145156 -0.0118544
-0.20412 -0.145131 -0.00845218
-0.198275 -0.144288 -0.000809669
-0.193854 -0.144457 0.00172329
-0.189128 -0.14397 0.00249231
-0.184794 -0.143799 0.00575459
-0.179786 -0.143655 0.00950909
-0.175035 -0.1435 0.00914967
-0.17045 -0.143285 0.0117822
-0.16619 -0.14335 0.0115833
-0.161841 -0.143482 0.0130303
-0.156848 -0.143336 0.0127555
-0.152341 -0.143326 0.0122786
-0.147881 -0.14384 0.0119594
-0.143366 -0.143644 0.0126415
-0.138743 -0.143528 0.0115852
-0.134646 -0.143803 0.0101974
-0.130191 -0.143698 0.0101413
-0.125746 -0.143386 0.00851643
-0.121265 -0.143582 0.00717461
-0.117072 -0.143623 0.00593305
-0.112397 -0.144161 0.00311816
-0.108179 -0.143905 0.00142241
-0.103266 -0.144311 -0.00104809
-0.0991946 -0.144512 -0.00176644
-0.0948911 -0.144304 -0.0045898
-0.0904763 -0.144651 -0.00654125
-0.0864433 -0.14484 -0.0105937
-0.0816039 -0.145114 -0.0147238
-0.0776595 -0.145596 -0.0205109
-0.0731612 -0.146159 -0.024332
-0.0689028 -0.147348 -0.0430615
-0.064685 -0.147936 -0.0518787
-0.0604786 -0.148963 -0.0642934
-0.00475787 -0.161895 -0.235337
0.000257263 -0.160859 -0.229422
0.00494308 -0.160969 -0.226577
0.00999698 -0.160085 -0.224955
0.0147604 -0.160398 -0.22577
0.0201634 -0.160965 -0.228907
0.0249644 -0.16139 -0.232369
0.0305023 -0.161406 -0.238327
0.0360149 -0.163784 -0.265881
0.0419886 -0.168063 -0.325136
0.0469469 -0.169263 -0.342779
0.0754952 -0.151076 -0.0898502
0.0796575 -0.150114 -0.0798078
0.0843336 -0.150034 -0.0774655
0.0887433 -0.149516 -0.073755
0.0930263 -0.148831 -0.0620472
0.0972953 -0.147956 -0.0501373
0.101216 -0.147012 -0.0409725
0.105579 -0.146986 -0.0340402
0.109886 -0.146656 -0.0295744
0.114425 -0.146248 -0.0250921
0.117802 -0.145214 -0.00989723
0.122087 -0.145437 -0.00681162
0.126784 -0.14457 -0.00453138
0.130949 -0.144254 -0.00269103
0.13548 -0.14442 0.00123
0.139727 -0.143511 0.00440419
0.143899 -0.143777 0.00704551
0.148416 -0.143863 0.00849116
0.152311 -0.143918 0.0100719
0.156801 -0.143514 0.0111771
0.161116 -0.143057 0.0126301
0.165642 -0.143562 0.0118928
0.170346 -0.143355 0.0137367
0.174407 -0.143217 0.0128928
0.179504 -0.143228 0.0130985
0.183441 -0.142783 0.0150559
0.188202 -0.142909 0.0160885
0.19209 -0.142815 0.0175048
0.19682 -0.14311 0.0166191
0.201186 -0.143299 0.0164329
0.205958 -0.143452 0.0164744
0.210266 -0.143038 0.0156565
0.215027 -0.143205 0.0157562
0.218982 -0.142972 0.0176626
0.223409 -0.143069 0.0167327
0.228359 -0.14312 0.015229
0.23273 -0.143481 0.014226
0.237523 -0.143389 0.0110314
0.242331 -0.144084 0.00728691
0.247648 -0.144711 0.00199687
0.253118 -0.144559 -0.00329232
0.258174 -0.144823 -0.00884867
0.265126 -0.146407 -0.0242376
-0.225042 -0.142433 -0.0358377
-0.219586 -0.141636 -0.0288157
-0.21413 -0.141547 -0.0193312
-0.208881 -0.140909 -0.0139699
-0.204101 -0.140895 -0.010556
-0.199179 -0.140086 -0.00549316
-0.193949 -0.139661 -4.69685e-05
-0.189163 -0.139562 0.00117338
-0.184696 -0.139812 0.00375426
-0.179727 -0.13927 0.00758004
-0.174988 -0.139633 0.00945187
-0.170341 -0.139264 0.0109501
-0.165967 -0.139144 0.0114164
-0.161275 -0.138856 0.0120867
-0.15697 -0.138975 0.013153
-0.152393 -0.138819 0.0131562
-0.147843 -0.138982 0.0113429
-0.143341 -0.139225 0.0115745
-0.139453 -0.139057 0.0113405
-0.134886 -0.13886 0.0107625
-0.130265 -0.139043 0.00961387
-0.126175 -0.13956 0.00860846
-0.121834 -0.139031 0.00733542
-0.117037 -0.13945 0.00609481
-0.112763 -0.139491 0.00319338
-0.107795 -0.13998 0.000811696
-0.103598 -0.139839 0.000133038
-0.0995804 -0.139517 -0.00108981
-0.0951251 -0.14024 -0.00356412
-0.0905793 -0.140088 -0.00546432
-0.085836 -0.140586 -0.00829625
-0.081388 -0.140536 -0.0121844
-0.0773731 -0.140656 -0.0156796
-0.0728523 -0.141718 -0.0217071
-0.0686492 -0.141534 -0.0269804
-0.0649238 -0.1432 -0.045229
-0.0601614 -0.143404 -0.0555148
-0.0557359 -0.144998 -0.0711644
-0.0103336 -0.156782 -0.23863
-0.00489065 -0.155051 -0.228086
0.000178614 -0.155316 -0.22303
0.00512511 -0.155062 -0.220228
0.00974504 -0.155236 -0.220008
0.0150265 -0.155462 -0.221248
0.020087 -0.155573 -0.223392
0.0250653 -0.155591 -0.226963
0.0300331 -0.156041 -0.233575
0.0349999 -0.156374 -0.238967
0.040896 -0.158517 -0.2655
0.0749682 -0.145672 -0.082793
0.0799686 -0.145738 -0.0796659
0.0840605 -0.145027 -0.0755363
0.087854 -0.144464 -0.0643325
0.0930854 -0.143655 -0.0515175
0.0963191 -0.143203 -0.0444553
0.101346 -0.142205 -0.0359633
0.105641 -0.14213 -0.0309434
0.109993 -0.141773 -0.0255291
0.113286 -0.140643 -0.0106463
0.117853 -0.140206 -0.00693083
0.122272 -0.140258 -0.00532413
0.126684 -0.140107 -0.0035429
0.131201 -0.140126 -0.00178766
0.135474 -0.139843 0.00101662
0.139533 -0.139297 0.00519872
0.14383 -0.139383 0.00688457
0.148034 -0.139197 0.00926733
0.152803 -0.139308 0.0115486
0.156646 -0.139146 0.011781
0.161503 -0.138887 0.0133307
0.166154 -0.139238 0.0133822
0.170254 -0.138982 0.0133787
0.174726 -0.138845 0.0128932
0.178857 -0.138885 0.0131203
0.18337 -0.138773 0.0143656
0.187803 -0.13888 0.0162503
0.191973 -0.138859 0.0164398
0.196589 -0.138573 0.0173515
0.201217 -0.138839 0.015818
0.205753 -0.138803 0.014938
0.210994 -0.139081 0.0138539
0.215356 -0.138687 0.0146233
0.219479 -0.13867 0.0160756
0.22378 -0.138554 0.0152216
0.22841 -0.138921 0.0135657
0.233186 -0.138781 0.0120281
0.237852 -0.139059 0.0102129
0.24303 -0.139483 0.00480819
0.247946 -0.139737 0.00186205
0.252918 -0.139873 -0.00312066
0.258167 -0.140617 -0.00990129
0.264548 -0.141511 -0.0229864
-0.226112 -0.138218 -0.0431826
-0.219668 -0.137053 -0.0320039
-0.214435 -0.137032 -0.0237553
-0.209011 -0.136229 -0.016259
-0.204264 -0.136237 -0.012522
-0.199774 -0.135725 -0.0079093
-0.194019 -0.135478 -0.00102091
-0.188872 -0.135121 0.00201964
-0.184574 -0.135082 0.00403523
-0.179934 -0.134295 0.00634289
-0.174918 -0.134883 0.00897884
-0.170624 -0.134667 0.0109799
-0.165849 -0.134217 0.0118446
-0.161062 -0.134287 0.0127813
-0.15683 -0.134735 0.0130222
-0.152409 -0.134577 0.0111947
-0.148046 -0.13488 0.0115615
-0.143682 -0.134623 0.0113931
-0.138926 -0.134514 0.0108339
-0.134576 -0.134446 0.00969529
-0.130297 -0.134797 0.00863922
-0.125606 -0.135489 0.0078491
-0.121333 -0.13464 0.0071131
-0.116974 -0.134983 0.0044452
-0.112862 -0.135371 0.00332177
-0.107861 -0.135403 0.0016278
-0.103555 -0.135518 0.000490546
-0.0993362 -0.135303 -0.00077486
-0.0947393 -0.135767 -0.00212407
-0.090827 -0.135821 -0.00352931
-0.0860243 -0.135799 -0.00780106
-0.0819852 -0.13593 -0.010113
-0.0773211 -0.135744 -0.0130167
-0.0730976 -0.136961 -0.0198791
-0.0685665 -0.136726 -0.0241466
-0.0646885 -0.137959 -0.0365875
-0.0602372 -0.138732 -0.0490358
-0.0556317 -0.139768 -0.0604568
-0.0101866 -0.150608 -0.23145
-0.00477635 -0.149944 -0.222112
5.18903e-05 -0.149465 -0.209581
0.00497586 -0.149559 -0.206508
0.00983079 -0.148987 -0.204931
0.0145622 -0.149419 -0.207183
0.0199919 -0.150041 -0.21497
0.0248186 -0.150194 -0.222536
0.0300749 -0.150591 -0.228228
0.035408 -0.151278 -0.233953
0.0401142 -0.151916 -0.241838
0.0708055 -0.141052 -0.0864539
0.0748788 -0.140739 -0.0817938
0.079575 -0.140564 -0.0771368
0.0839671 -0.140034 -0.0641818
0.0880567 -0.138945 -0.0526462
0.0922626 -0.138549 -0.0451143
0.0961868 -0.137686 -0.0385361
0.100854 -0.137527 -0.0335715
0.104832 -0.136966 -0.0280514
0.109071 -0.136059 -0.0129805
0.113203 -0.13572 -0.00868034
0.117588 -0.136038 -0.00489116
0.121673 -0.136016 -0.00364327
0.126466 -0.135314 -0.00146699
0.131229 -0.134852 0.000972033
0.135459 -0.135242 0.00185716
0.139254 -0.13493 0.00528133
0.143639 -0.134697 0.0071373
0.147775 -0.134435 0.00928557
0.152724 -0.134484 0.0101461
0.156624 -0.13447 0.0114303
0.161579 -0.134659 0.0139164
0.166083 -0.13438 0.0137168
0.170464 -0.134634 0.0131971
0.174385 -0.134409 0.0125787
0.179506 -0.134187 0.0143628
0.183898 -0.133961 0.0154142
0.187949 -0.13419 0.0163887
0.192656 -0.134185 0.0157927
0.197001 -0.134182 0.0160224
0.20187 -0.134635 0.0151999
0.205849 -0.13413 0.0151702
0.210583 -0.134712 0.0146172
0.214879 -0.134014 0.0143155
0.219818 -0.134471 0.0136969
0.223999 -0.134388 0.0135927
0.228868 -0.134437 0.0123485
0.233266 -0.13464 0.0106034
0.237967 -0.134844 0.00804675
0.24338 -0.135317 0.00346291
0.247736 -0.13544 0.00108492
0.253209 -0.135711 -0.00473309
0.258687 -0.136413 -0.0116105
0.265546 -0.137155 -0.0277133
-0.225775 -0.133619 -0.0439038
-0.220023 -0.133038 -0.0328782
-0.214661 -0.132743 -0.025739
-0.209109 -0.132347 -0.0167973
-0.204348 -0.131976 -0.0127132
-0.19944 -0.131236 -0.00825834
-0.194027 -0.130937 -0.0027597
-0.18979 -0.130563 0.00116134
-0.184702 -0.130786 0.00319374
-0.179511 -0.130715 0.00669587
-0.175043 -0.130301 0.00861442
-0.170858 -0.130098 0.010211
-0.166283 -0.130588 0.0107648
-0.161124 -0.12962 0.0108923
-0.157295 -0.129834 0.012097
-0.152461 -0.129596 0.0123022
-0.147957 -0.129698 0.0101814
-0.143406 -0.12997 0.00996721
-0.139666 -0.130226 0.00915599
-0.134467 -0.130387 0.00983131
-0.130101 -0.13055 0.00903821
-0.125817 -0.130563 0.00770247
-0.121455 -0.130405 0.00738323
-0.117004 -0.130691 0.00548434
-0.112199 -0.130491 0.00406504
-0.10864 -0.130363 0.00236249
-0.103615 -0.130633 0.0011369
-0.0992693 -0.130663 -0.000372171
-0.0947414 -0.131008 -0.000751734
-0.0902162 -0.130424 -0.00336289
-0.0857797 -0.131348 -0.00647545
-0.0818088 -0.131661 -0.00882196
-0.0767495 -0.131054 -0.0114708
-0.0727568 -0.131837 -0.0178463
-0.0680859 -0.132517 -0.022336
-0.0641161 -0.132082 -0.0271623
-0.0603567 -0.133465 -0.0424895
-0.0555139 -0.134121 -0.051321
-0.0511489 -0.135441 -0.0641465
-0.0155225 -0.146386 -0.237781
-0.0099589 -0.145857 -0.226403
-0.00521027 -0.144355 -0.206194
0.000295968 -0.144009 -0.202982
0.00458972 -0.144037 -0.202216
0.00982803 -0.144036 -0.201194
0.0152108 -0.143979 -0.202163
0.0200263 -0.144489 -0.2033
0.024966 -0.143952 -0.206404
0.0302822 -0.145147 -0.224666
0.0351558 -0.146188 -0.230724
0.0397055 -0.14581 -0.233808
0.0708005 -0.136148 -0.0846157
0.0750976 -0.136685 -0.0806487
0.0791142 -0.135185 -0.06832
0.083467 -0.134363 -0.055773
0.0874603 -0.134425 -0.0481796
0.0918935 -0.133403 -0.041285
0.0962316 -0.133078 -0.0342655
0.100704 -0.133018 -0.0297511
0.105026 -0.132315 -0.0227394
0.108682 -0.131106 -0.0104742
0.113201 -0.131237 -0.00762916
0.117422 -0.131208 -0.00554419
0.122032 -0.131167 -0.00223804
0.125812 -0.130853 0.00071919
0.130747 -0.130679 0.00217581
0.134981 -0.130645 0.00335336
0.139324 -0.13043 0.00589395
0.143829 -0.130483 0.00791168
0.147868 -0.129942 0.0100039
0.152583 -0.130074 0.0118685
0.156707 -0.129763 0.0127075
0.161242 -0.129849 0.0135632
0.165774 -0.129968 0.0121628
0.170123 -0.12971 0.0136976
0.174672 -0.130126 0.0146405
0.179138 -0.130097 0.0146402
0.183393 -0.129792 0.0154845
0.188036 -0.129364 0.0153239
0.192377 -0.129981 0.0149536
0.196847 -0.129953 0.0139806
0.201915 -0.130383 0.0144173
0.205995 -0.129806 0.0133286
0.210803 -0.129771 0.015486
0.214966 -0.129911 0.0145601
0.219517 -0.130082 0.0140799
0.22426 -0.130079 0.0119807
0.228413 -0.130311 0.0101473
0.233976 -0.130475 0.00790405
0.238091 -0.130724 0.00435138
0.243152 -0.130613 0.00201106
0.248037 -0.130879 -0.00129867
0.253285 -0.131274 -0.0061872
0.259799 -0.132367 -0.0210323
0.265704 -0.13309 -0.0306602
-0.22027 -0.12846 -0.0343063
-0.214426 -0.127915 -0.0271478
-0.208811 -0.12744 -0.0180526
-0.204338 -0.127392 -0.0144043
-0.199592 -0.12713 -0.0112441
-0.194191 -0.126144 -0.00474858
-0.189333 -0.126057 -0.000486612
-0.184805 -0.126109 0.00172281
-0.180132 -0.126444 0.00433791
-0.175184 -0.125238 0.00669706
-0.17077 -0.125637 0.00882602
-0.16529 -0.125565 0.0100694
-0.161298 -0.125895 0.00973165
-0.157131 -0.125433 0.0104829
-0.152405 -0.125712 0.0106725
-0.14814 -0.125589 0.00999486
-0.1435 -0.125028 0.00870335
-0.139291 -0.125362 0.00931525
-0.134802 -0.125839 0.00930071
-0.130281 -0.126184 0.00823927
-0.125484 -0.125352 0.00850642
-0.121379 -0.125704 0.00708008
-0.11698 -0.12594 0.0074091
-0.112728 -0.126079 0.00591207
-0.108335 -0.126165 0.00312591
-0.103948 -0.126302 0.000899196
-0.0991861 -0.126893 0.000179887
-0.0945156 -0.126552 -0.000561953
-0.0898805 -0.126457 -0.00307751
-0.0861293 -0.126823 -0.00634408
-0.0819328 -0.127035 -0.00778246
-0.0771504 -0.126851 -0.0114205
-0.0728959 -0.12739 -0.0161862
-0.0683232 -0.127415 -0.0199211
-0.063764 -0.128394 -0.0257807
-0.0596896 -0.128212 -0.0338962
-0.0552253 -0.129052 -0.0460091
-0.0506456 -0.129807 -0.0579245
-0.0467404 -0.130641 -0.069051
-0.0148904 -0.140744 -0.228666
-0.00946782 -0.139389 -0.205427
-0.00472183 -0.139042 -0.200776
-0.000291753 -0.138567 -0.198924
0.0055256 -0.138691 -0.197511
0.00988755 -0.138472 -0.195358
0.0149248 -0.138701 -0.197466
0.0200291 -0.139214 -0.19966
0.0245383 -0.139025 -0.201594
0.0299392 -0.139223 -0.206906
0.0348172 -0.140756 -0.223939
0.0399418 -0.140779 -0.230448
0.066165 -0.131362 -0.0820076
0.0703477 -0.131168 -0.0776947
0.0747527 -0.130897 -0.0708001
0.0789634 -0.130052 -0.059911
0.0830146 -0.129622 -0.0502129
0.0874491 -0.129067 -0.0420399
0.0916568 -0.128304 -0.0358117
0.09619 -0.12875 -0.0318189
0.100282 -0.127692 -0.026087
0.104335 -0.127166 -0.0117722
0.109031 -0.12682 -0.0098002
0.11366 -0.126463 -0.00730634
0.117616 -0.126444 -0.00545192
0.121897 -0.126523 -0.000445366
0.125845 -0.126169 0.0020119
0.130367 -0.126322 0.00289679
0.135207 -0.126388 0.00563467
0.139594 -0.126388 0.00559306
0.143908 -0.125388 0.00812626
0.148454 -0.125274 0.00976241
0.152411 -0.125718 0.010974
0.156606 -0.125576 0.0127453
0.161254 -0.12531 0.0131413
0.165556 -0.124997 0.012727
0.169843 -0.124946 0.013705
0.174929 -0.12555 0.0145364
0.178389 -0.125367 0.0152237
0.183349 -0.125065 0.0155984
0.188276 -0.125561 0.0160288
0.192431 -0.125682 0.0135708
0.197367 -0.125291 0.0134572
0.201548 -0.125845 0.0135627
0.206339 -0.125302 0.0146608
0.210862 -0.124912 0.0145365
0.214774 -0.125423 0.0142517
0.219482 -0.125389 0.0131965
0.223941 -0.125636 0.0122916
0.2292 -0.12561 0.00939012
0.233994 -0.126017 0.00414765
0.238649 -0.126438 0.000836849
0.243606 -0.12628 -0.00115538
0.24873 -0.126463 -0.00408149
0.253741 -0.126895 -0.0106459
0.260206 -0.127769 -0.0258706
-0.221143 -0.123922 -0.0384369
-0.215027 -0.123574 -0.0297399
-0.210009 -0.12338 -0.0210593
-0.204726 -0.122399 -0.0167353
-0.198883 -0.122531 -0.0118196
-0.194883 -0.12235 -0.0080564
-0.189626 -0.122043 -0.00249791
-0.184586 -0.121437 -5.84126e-05
-0.180117 -0.121796 0.00174332
-0.175512 -0.121519 0.00459313
-0.171158 -0.121565 0.00692225
-0.165579 -0.120958 0.00768626
-0.161907 -0.121276 0.00852394
-0.156969 -0.121891 0.0091995
-0.152603 -0.121268 0.00923574
-0.148113 -0.121229 0.00993288
-0.143289 -0.121022 0.0100251
-0.139055 -0.121471 0.00974202
-0.135265 -0.121088 0.0087595
-0.129952 -0.121529 0.010043
-0.12563 -0.121458 0.00874591
-0.121478 -0.121325 0.00754356
-0.116564 -0.121414 0.00725341
-0.112549 -0.121648 0.004493
-0.10797 -0.121585 0.00328887
-0.103596 -0.121609 0.00011313
-0.0990458 -0.121929 0.000591636
-0.0949676 -0.121662 0.000170231
-0.0903409 -0.122024 -0.00243306
-0.0859353 -0.122517 -0.00601411
-0.0815619 -0.12211 -0.00804901
-0.0770974 -0.122235 -0.00982618
-0.0725519 -0.122582 -0.0148749
-0.0685225 -0.122643 -0.0179963
-0.0638327 -0.123241 -0.0221746
-0.0594381 -0.123417 -0.0255661
-0.0552865 -0.124266 -0.0411355
-0.0506493 -0.124862 -0.0488639
-0.0465566 -0.125373 -0.0595653
-0.042207 -0.126054 -0.0744462
-0.0151011 -0.134304 -0.210468
-0.00982685 -0.13443 -0.203872
-0.00468724 -0.133966 -0.199197
0.000194757 -0.133875 -0.195883
0.00470993 -0.133572 -0.194378
0.00953605 -0.133278 -0.193364
0.0150848 -0.133891 -0.193614
0.0200387 -0.133352 -0.194964
0.0250075 -0.133742 -0.198815
0.0297262 -0.134341 -0.202526
0.034452 -0.134694 -0.20744
0.0400256 -0.134746 -0.218926
0.0609362 -0.126563 -0.0768297
0.0655379 -0.126269 -0.0721002
0.0700111 -0.126084 -0.0678623
0.0741666 -0.125451 -0.0628808
0.0784923 -0.124734 -0.0521712
0.0831179 -0.124583 -0.0442584
0.087335 -0.123662 -0.0377634
0.0920633 -0.123504 -0.0317035
0.0958993 -0.123372 -0.0282733
0.0997979 -0.122306 -0.012784
0.103997 -0.122194 -0.00981283
0.108338 -0.122688 -0.00879431
0.113027 -0.122124 -0.00730705
0.117658 -0.122578 -0.00486851
0.121878 -0.121489 -0.000997782
0.126436 -0.121429 0.00231159
0.130418 -0.121889 0.00322032
0.134723 -0.121426 0.00652242
0.13898 -0.12128 0.00631821
0.143512 -0.121329 0.00935483
0.148253 -0.121288 0.00966406
0.15253 -0.121246 0.0101789
0.157187 -0.121259 0.0117632
0.161618 -0.120642 0.0121671
0.165576 -0.120762 0.0121698
0.169991 -0.121412 0.0137538
0.174771 -0.121002 0.0143703
0.178926 -0.12111 0.0152344
0.183895 -0.121044 0.0150247
0.188199 -0.121004 0.0139968
0.192944 -0.120502 0.013513
0.197016 -0.120832 0.0141236
0.201522 -0.120636 0.0142322
0.206398 -0.121238 0.0129396
0.210457 -0.120941 0.013705
0.214954 -0.121238 0.0133257
0.219886 -0.121113 0.0120285
0.224392 -0.121377 0.00989115
0.228873 -0.121339 0.00823057
0.234185 -0.121303 0.00346184
0.238877 -0.122161 0.000350952
0.244048 -0.121794 -0.00368667
0.249219 -0.122178 -0.00844479
0.255145 -0.12338 -0.0210459
0.260713 -0.123573 -0.0296428
-0.220994 -0.119492 -0.0409961
-0.21534 -0.119225 -0.0320044
-0.209663 -0.118735 -0.0240455
-0.205242 -0.118224 -0.0193253
-0.199881 -0.118299 -0.015341
-0.194531 -0.118264 -0.0100183
-0.19013 -0.117828 -0.00602078
-0.185389 -0.117636 -0.00368571
-0.180886 -0.11693 -0.00175619
-0.175554 -0.117474 0.00206089
-0.170956 -0.116974 0.0044775
-0.166086 -0.117121 0.00638402
-0.161739 -0.116656 0.00708926
-0.157203 -0.116597 0.0089258
-0.152262 -0.116984 0.00929034
-0.148081 -0.116527 0.00958967
-0.144185 -0.116783 0.0100499
-0.139632 -0.116474 0.00937891
-0.135001 -0.116715 0.00821805
-0.129951 -0.116591 0.00924492
-0.125494 -0.11673 0.00823772
-0.121051 -0.116745 0.00760448
-0.116645 -0.117559 0.00692797
-0.112529 -0.116875 0.00563526
-0.107991 -0.116545 0.00403535
-0.103841 -0.117521 0.00321066
-0.0992616 -0.116898 -0.000265121
-0.094766 -0.117537 -0.00233364
-0.0901773 -0.117613 -0.00366616
-0.0860388 -0.11749 -0.00542903
-0.0814149 -0.117808 -0.00774717
-0.0770227 -0.118438 -0.010289
-0.0730087 -0.11793 -0.0118368
-0.0682659 -0.11816 -0.0155494
-0.0637596 -0.118787 -0.0197599
-0.0594335 -0.11895 -0.023483
-0.0552402 -0.119029 -0.0293357
-0.0508271 -0.119592 -0.0433068
-0.0460667 -0.119834 -0.0501657
-0.041541 -0.121019 -0.061547
-0.0372747 -0.120972 -0.0651658
-0.0325304 -0.120564 -0.0586836
-0.0143381 -0.129445 -0.204401
-0.010132 -0.128906 -0.200196
-0.00533723 -0.129061 -0.19621
-0.000195141 -0.128402 -0.191386
0.00466968 -0.128384 -0.190224
0.00976254 -0.128382 -0.189975
0.0150154 -0.12865 -0.19043
0.0197322 -0.128942 -0.191408
0.0244558 -0.128537 -0.195038
0.029265 -0.12872 -0.198968
0.0343762 -0.12911 -0.204196
0.0398397 -0.129978 -0.210841
0.0520354 -0.122581 -0.0867991
0.0561494 -0.121171 -0.073725
0.0604563 -0.121024 -0.0677576
0.0650226 -0.12047 -0.0636644
0.069624 -0.120835 -0.0616689
0.0741308 -0.120847 -0.0557513
0.0782901 -0.120057 -0.0453546
0.082972 -0.119659 -0.0383928
0.0871919 -0.119455 -0.0344944
0.0918081 -0.119222 -0.0308373
0.0954412 -0.118331 -0.0190318
0.100001 -0.11878 -0.0125563
0.104039 -0.118186 -0.0094409
0.108726 -0.117405 -0.00713778
0.113147 -0.117418 -0.00597048
0.11739 -0.116965 -0.00337362
0.121296 -0.117624 -0.00124288
0.126201 -0.117146 0.00199676
0.13064 -0.117337 0.00418937
0.134664 -0.116899 0.00574923
0.139741 -0.116835 0.00738716
0.143515 -0.116783 0.00922072
0.148097 -0.116577 0.0086906
0.153105 -0.116909 0.0102034
0.156869 -0.116726 0.00966775
0.161418 -0.116314 0.0113354
0.1655 -0.116682 0.0125564
0.17051 -0.116396 0.0134192
0.174669 -0.116537 0.0148529
0.17917 -0.116493 0.014291
0.183524 -0.116803 0.0134459
0.1883 -0.116548 0.013206
0.192592 -0.116362 0.0135447
0.197228 -0.116571 0.0138913
0.201554 -0.116664 0.0132425
0.206573 -0.116636 0.0121858
0.210877 -0.116379 0.0119408
0.215091 -0.117094 0.00967669
0.22039 -0.116685 0.00857925
0.224138 -0.116784 0.00789046
0.228938 -0.117037 0.00587797
0.234458 -0.117241 0.000670552
0.239089 -0.117231 -0.000648975
0.244134 -0.117556 -0.00471067
0.249533 -0.117594 -0.0121186
0.255143 -0.118579 -0.0210817
0.260984 -0.119142 -0.0333068
-0.222086 -0.115472 -0.0484924
-0.215473 -0.114685 -0.0352023
-0.210464 -0.114793 -0.0290182
-0.205045 -0.114323 -0.0206029
-0.199765 -0.11381 -0.0161438
-0.195181 -0.113463 -0.0150008
-0.190184 -0.113213 -0.00910306
-0.185358 -0.113209 -0.0052197
-0.180822 -0.112952 -0.00217462
-0.175805 -0.112716 5.79357e-05
-0.171045 -0.112803 0.00305426
-0.166677 -0.112528 0.00582397
-0.161553 -0.112395 0.00802612
-0.157337 -0.112257 0.00859034
-0.152995 -0.112473 0.0086751
-0.148114 -0.112231 0.00878584
-0.14341 -0.111998 0.0101303
-0.139158 -0.112171 0.00925815
-0.134473 -0.112391 0.00795686
-0.130363 -0.112436 0.00810099
-0.126193 -0.112217 0.00761414
-0.121161 -0.112322 0.0071311
-0.117129 -0.112296 0.00632215
-0.112777 -0.112204 0.00468183
-0.108027 -0.112588 0.00306869
-0.103917 -0.112502 0.0010885
-0.0992823 -0.112687 -0.00153446
-0.0946933 -0.113166 -0.00304937
-0.0903413 -0.112776 -0.00396609
-0.0853633 -0.113377 -0.00448251
-0.0813999 -0.113248 -0.00693631
-0.0771098 -0.113055 -0.00905037
-0.0724322 -0.113527 -0.0115199
-0.0684307 -0.113573 -0.0137043
-0.0638033 -0.11376 -0.0186117
-0.0593391 -0.113799 -0.0228817
-0.0550515 -0.114103 -0.0263433
-0.0500936 -0.114981 -0.0381486
-0.0458195 -0.11491 -0.0402877
-0.0411461 -0.11469 -0.0409212
-0.0370705 -0.115169 -0.0420926
-0.0323738 -0.115702 -0.0454855
-0.027738 -0.115737 -0.0499814
-0.022908 -0.11533 -0.0534725
-0.0187828 -0.11621 -0.0663016
-0.0150308 -0.124234 -0.203561
-0.0102125 -0.124035 -0.197767
-0.00485386 -0.123536 -0.192038
0.00010742 -0.123744 -0.187151
0.00502167 -0.123556 -0.185238
0.00973193 -0.123187 -0.184568
0.0146793 -0.123695 -0.18673
0.0196133 -0.123172 -0.18898
0.0253876 -0.123576 -0.193565
0.0294519 -0.124037 -0.196736
0.0342658 -0.124027 -0.20153
0.0396726 -0.124161 -0.206808
0.0470266 -0.118033 -0.0885527
0.0509697 -0.116885 -0.0752556
0.0558026 -0.115851 -0.0647805
0.0602112 -0.116437 -0.0614481
0.0651667 -0.116033 -0.0574319
0.0697256 -0.116105 -0.0546775
0.073803 -0.115332 -0.0497639
0.0781415 -0.114899 -0.0410457
0.0827511 -0.114162 -0.0334733
0.0869313 -0.114216 -0.030242
0.0915909 -0.114406 -0.0262847
0.0952687 -0.11384 -0.0142357
0.100425 -0.11343 -0.0109177
0.104017 -0.11351 -0.00958753
0.108527 -0.11354 -0.00818205
0.113129 -0.112053 -0.00384617
0.117622 -0.112908 -0.00234628
0.12205 -0.112769 -0.000664711
0.126104 -0.112982 0.00213456
0.130977 -0.112354 0.00293255
0.13521 -0.112392 0.00498581
0.139235 -0.112494 0.00762367
0.14401 -0.11198 0.00850129
0.148193 -0.112676 0.00861061
0.152912 -0.112024 0.00958455
0.157366 -0.112033 0.00992393
0.161527 -0.11255 0.010661
0.165832 -0.111921 0.0122837
0.170536 -0.112032 0.0123823
0.174757 -0.111883 0.0128145
0.17943 -0.111982 0.0129116
0.183769 -0.112053 0.0118297
0.188345 -0.112113 0.0127534
0.192322 -0.111995 0.013649
0.19757 -0.112171 0.0124106
0.201585 -0.111912 0.0128005
0.206482 -0.11264 0.0121665
0.210643 -0.112031 0.0103353
0.215647 -0.112131 0.00798011
0.220207 -0.112354 0.00656223
0.22539 -0.112151 0.00340474
0.229857 -0.112423 0.00157034
0.234783 -0.112621 -0.000800848
0.239655 -0.113061 -0.00386119
0.244744 -0.113344 -0.00819969
0.249986 -0.114002 -0.015101
0.255085 -0.114253 -0.0218935
-0.216046 -0.110807 -0.0393288
-0.21105 -0.109591 -0.0339904
-0.205435 -0.10938 -0.0246978
-0.200009 -0.109216 -0.0194299
-0.195298 -0.108742 -0.0153995
-0.190351 -0.108885 -0.0128219
-0.185688 -0.10867 -0.00697589
-0.180396 -0.108552 -0.00316739
-0.176467 -0.108127 -0.0028069
-0.171305 -0.107929 0.00148094
-0.166503 -0.107725 0.00354862
-0.16181 -0.107734 0.00681865
-0.15752 -0.107689 0.00760055
-0.152329 -0.108184 0.00713611
-0.147514 -0.107915 0.008443
-0.143561 -0.107759 0.00885642
-0.139453 -0.107855 0.00814247
-0.135137 -0.108044 0.00725889
-0.1302 -0.107829 0.00556719
-0.125788 -0.107928 0.00606179
-0.121151 -0.108149 0.00589263
-0.116821 -0.10769 0.00429511
-0.112492 -0.108208 0.00396252
-0.108572 -0.108464 0.00194597
-0.103824 -0.10829 0.000263929
-0.0995096 -0.108173 -0.00108218
-0.0950427 -0.108574 -0.00269651
-0.0902588 -0.108542 -0.00325298
-0.0859279 -0.108585 -0.00445795
-0.0816871 -0.108167 -0.00582266
-0.0770854 -0.108591 -0.00821543
-0.0726213 -0.108546 -0.0108523
-0.067909 -0.108952 -0.0141842
-0.0639932 -0.109521 -0.0185146
-0.0591752 -0.109306 -0.0205624
-0.054715 -0.109643 -0.0244391
-0.0500117 -0.109675 -0.0273528
-0.0458692 -0.110007 -0.0302591
-0.0413543 -0.109827 -0.030298
-0.0370285 -0.110067 -0.0332379
-0.0323914 -0.110228 -0.0363851
-0.027699 -0.110321 -0.0413988
-0.0227184 -0.110235 -0.0450461
-0.0185668 -0.110697 -0.0484693
-0.014064 -0.111421 -0.054065
-0.00986802 -0.11846 -0.19137
-0.00469265 -0.118073 -0.176414
0.000119458 -0.11797 -0.173725
0.00513115 -0.117041 -0.170392
0.00977425 -0.117489 -0.171294
0.014778 -0.116994 -0.171623
0.0198881 -0.118085 -0.176021
0.024292 -0.118128 -0.181546
0.0298889 -0.118625 -0.19439
0.0345995 -0.11929 -0.199833
0.0397338 -0.119214 -0.205138
0.042199 -0.11285 -0.0841255
0.0469721 -0.111865 -0.0697703
0.0510777 -0.112103 -0.0640535
0.0555776 -0.111453 -0.0572152
0.0602255 -0.110928 -0.0531833
0.0646771 -0.110661 -0.0475159
0.0691566 -0.110761 -0.0450447
0.0739177 -0.1106 -0.0399339
0.0777634 -0.110249 -0.034889
0.0822543 -0.109833 -0.0305727
0.0871742 -0.10937 -0.0273416
0.0908895 -0.10989 -0.0217779
0.095429 -0.109033 -0.0136085
0.0997018 -0.108709 -0.0110214
0.103833 -0.10882 -0.00953484
0.108456 -0.108461 -0.00616622
0.113319 -0.108418 -0.00405073
0.117178 -0.108299 -0.00152731
0.121912 -0.108705 -0.000110865
0.126093 -0.108328 0.000951648
0.130772 -0.108037 0.00207281
0.134716 -0.107772 0.00511646
0.138858 -0.108073 0.00756085
0.14372 -0.107868 0.00798821
0.148363 -0.107794 0.0087409
0.152824 -0.107465 0.00905681
0.157074 -0.107633 0.0104661
0.161471 -0.107705 0.0111325
0.166251 -0.107739 0.0114105
0.170389 -0.107503 0.0115901
0.174833 -0.107757 0.0120354
0.179659 -0.108151 0.0125556
0.184185 -0.107608 0.0123506
0.1881 -0.107757 0.0117296
0.192889 -0.107587 0.0124331
0.197407 -0.107589 0.0109504
0.202178 -0.107634 0.0117673
0.206672 -0.107361 0.00986755
0.21062 -0.107662 0.0101578
0.215402 -0.108056 0.00709128
0.220857 -0.107869 0.00407863
0.225466 -0.10858 0.00101233
0.230281 -0.108606 -0.00215125
0.234706 -0.108819 -0.00383544
0.239828 -0.108475 -0.00791025
0.245146 -0.108935 -0.0124645
0.250287 -0.109296 -0.0192311
0.255552 -0.109743 -0.0256412
-0.217019 -0.106201 -0.0459273
-0.210694 -0.105654 -0.0353777
-0.205631 -0.105014 -0.0268469
-0.200735 -0.104856 -0.0214179
-0.195803 -0.104641 -0.0175169
-0.19115 -0.104116 -0.0147972
-0.185535 -0.104213 -0.00968337
-0.180745 -0.104072 -0.00649095
-0.176025 -0.104131 -0.00375009
-0.171143 -0.103896 -0.00118041
-0.166749 -0.103459 0.00202656
-0.161639 -0.103456 0.0048691
-0.157396 -0.103237 0.00590944
-0.152922 -0.103512 0.00716162
-0.148107 -0.103378 0.00675035
-0.14359 -0.103539 0.00774252
-0.139211 -0.103619 0.00717771
-0.135263 -0.103111 0.00577712
-0.130396 -0.103807 0.00549078
-0.125973 -0.103264 0.00640643
-0.121775 -0.103222 0.00412357
-0.11705 -0.103433 0.002249
-0.112788 -0.103668 0.0017451
-0.108006 -0.103069 0.00099659
-0.103752 -0.103848 0.000463963
-0.0992697 -0.103638 -0.00194311
-0.0948656 -0.104065 -0.00256348
-0.0906549 -0.103554 -0.0040381
-0.0860945 -0.104201 -0.00414824
-0.0815775 -0.103877 -0.005126
-0.076775 -0.104401 -0.00811195
-0.0729373 -0.104552 -0.0105481
-0.068319 -0.104679 -0.0151455
-0.0636689 -0.104597 -0.0175953
-0.0594464 -0.104538 -0.0200944
-0.0545272 -0.10529 -0.0209758
-0.0500508 -0.104929 -0.0209596
-0.0454766 -0.104778 -0.0220885
-0.0412221 -0.104834 -0.0229304
-0.0367793 -0.105206 -0.0263336
-0.0318867 -0.104932 -0.0298154
-0.028105 -0.105919 -0.03457
-0.0229079 -0.105481 -0.0376968
-0.0187335 -0.106209 -0.0416269
-0.0135965 -0.106132 -0.0451815
-0.00921838 -0.105921 -0.0473204
-0.00469942 -0.111923 -0.166499
-0.000432555 -0.112029 -0.164997
0.00482547 -0.112471 -0.164421
0.00938916 -0.104463 -0.0128276
0.0137381 -0.104175 -0.00982118
0.0183658 -0.104437 -0.0117428
