ply
format ascii 1.0
element vertex 1610
property float x
property float y
property float z
end_header
-0.0277703 -0.0633685 0.24075
-0.0239992 -0.0635091 0.238735
-0.0200893 -0.0632628 0.235837
-0.0159566 -0.063549 0.234141
-0.011789 -0.0636315 0.230978
-0.00795408 -0.0637899 0.228733
-0.00422735 -0.0642431 0.227543
9.20648e-05 -0.0641099 0.224608
0.00392336 -0.063968 0.223688
0.00806041 -0.0644084 0.221344
0.0121069 -0.0644042 0.217618
0.0162555 -0.0642926 0.214563
0.0203416 -0.0644994 0.211739
0.0239623 -0.0644772 0.209483
0.028135 -0.0651232 0.207495
0.032551 -0.0649655 0.20547
0.0365166 -0.064658 0.201502
0.0404142 -0.0646971 0.199627
0.0448054 -0.0651034 0.197564
0.0486255 -0.0652803 0.19514
0.0534816 -0.065716 0.191653
0.0572854 -0.0652444 0.189365
0.0613888 -0.0656349 0.186048
0.0651599 -0.0651169 0.185768
0.069314 -0.0652597 0.184898
0.0740689 -0.0657543 0.183285
0.0781485 -0.0661769 0.180151
0.0825621 -0.0653578 0.175801
0.0869008 -0.0659805 0.173499
0.0906861 -0.0659074 0.171111
0.0948051 -0.0659678 0.167969
0.099644 -0.0659756 0.161459
0.103735 -0.0663249 0.161106
0.108075 -0.0667526 0.160562
0.111843 -0.0664638 0.16055
0.116468 -0.066968 0.158963
0.120819 -0.0665345 0.157021
0.124974 -0.0665497 0.154098
0.129306 -0.066808 0.151306
0.133704 -0.0669647 0.14761
0.138116 -0.0667749 0.142786
0.142754 -0.0671431 0.137438
0.147959 -0.0673739 0.128077
0.154191 -0.0685277 0.0979652
0.159403 -0.0685942 0.0890765
0.164375 -0.0690408 0.0824038
0.168981 -0.0695772 0.0779306
0.173575 -0.0699592 0.0702558
0.179513 -0.0696079 0.0593718
0.184813 -0.0701011 0.0493373
0.192403 -0.0714506 0.0204414
0.197902 -0.0719774 0.00428379
0.203366 -0.072466 0.000135541
0.207531 -0.0724014 -0.00315762
0.212787 -0.0728778 -0.0117974
-0.122347 -0.0613382 0.191485
-0.11767 -0.0611039 0.201493
-0.11383 -0.0608927 0.206268
-0.109111 -0.0603633 0.209292
-0.104387 -0.0603405 0.217889
-0.100028 -0.0599867 0.223166
-0.0957728 -0.059714 0.225655
-0.0922421 -0.0597154 0.22858
-0.0876169 -0.0600146 0.231457
-0.0839645 -0.0600561 0.232358
-0.0793184 -0.0598166 0.233314
-0.0759671 -0.0597475 0.234254
-0.071613 -0.0598487 0.23804
-0.0673512 -0.0594128 0.237326
-0.0633073 -0.0597654 0.238695
-0.0597305 -0.0596099 0.238399
-0.0559134 -0.0597048 0.23868
-0.0514517 -0.0593274 0.239518
-0.0476122 -0.0597658 0.239721
-0.043701 -0.0593154 0.239787
-0.0396663 -0.0595677 0.241313
-0.0358151 -0.0596829 0.240309
-0.0314339 -0.059637 0.237978
-0.0277772 -0.0595542 0.23671
-0.0237548 -0.0596357 0.234772
-0.0198616 -0.0597762 0.232597
-0.0157014 -0.0594755 0.229837
-0.0116793 -0.0600877 0.22878
-0.00803378 -0.0599201 0.227779
-0.00406236 -0.0600176 0.225866
0.000126677 -0.0600472 0.223006
0.0041132 -0.0601097 0.220158
0.00801569 -0.0601701 0.218229
0.0118353 -0.0601477 0.216469
0.015985 -0.0603741 0.21342
0.020066 -0.0605495 0.211674
0.0241538 -0.0603984 0.210085
0.0280911 -0.0606686 0.206837
0.0321251 -0.0609604 0.203887
0.0366408 -0.0611195 0.202502
0.0406106 -0.0608546 0.198697
0.0447894 -0.0611898 0.196874
0.0490474 -0.0613588 0.194421
0.0529538 -0.0614903 0.191427
0.0573238 -0.0614004 0.189276
0.061094 -0.0610646 0.187577
0.0652902 -0.06133 0.187428
0.069515 -0.0615422 0.18702
0.0734361 -0.0609476 0.185418
0.0778967 -0.0615867 0.179758
0.0822667 -0.0620864 0.175888
0.0863286 -0.0615458 0.174865
0.0907966 -0.0617157 0.172379
0.0945991 -0.0618642 0.170685
0.0992225 -0.062096 0.164699
0.104056 -0.0620977 0.162056
0.107613 -0.0622766 0.160379
0.112216 -0.0623752 0.160128
0.11642 -0.0625058 0.158084
0.120999 -0.0621835 0.156629
0.124668 -0.062689 0.154531
0.129268 -0.0629393 0.150272
0.133352 -0.0627916 0.14685
0.137827 -0.0627741 0.140817
0.143285 -0.063159 0.133707
0.147939 -0.0637724 0.124283
0.153703 -0.064137 0.101839
0.159868 -0.0646811 0.0867084
0.164177 -0.0651549 0.0822415
0.169485 -0.0648137 0.0770494
0.173734 -0.0652246 0.0715237
0.179459 -0.0653516 0.060303
0.184559 -0.0657706 0.0522358
0.191164 -0.0667514 0.0284446
0.198606 -0.0678677 -0.00130558
0.203798 -0.0680409 -0.00678062
0.208638 -0.0678383 -0.013803
-0.118214 -0.0572399 0.187988
-0.113976 -0.0569444 0.199095
-0.109149 -0.0568227 0.204286
-0.105106 -0.0569422 0.2076
-0.100487 -0.0560232 0.217375
-0.096172 -0.056292 0.222323
-0.0919809 -0.0557858 0.224999
-0.0880327 -0.0559461 0.227809
-0.0838948 -0.0559173 0.227825
-0.0805119 -0.0561736 0.22803
-0.0758918 -0.0560615 0.2286
-0.0723543 -0.0559864 0.230842
-0.068482 -0.0559225 0.232653
-0.0640035 -0.0559156 0.2346
-0.0600264 -0.0555597 0.236579
-0.0556839 -0.0560372 0.237059
-0.051632 -0.055841 0.238029
-0.0476671 -0.0557454 0.237022
-0.0438806 -0.055744 0.237809
-0.040185 -0.0556831 0.236899
-0.0357729 -0.0555079 0.237883
-0.0320101 -0.0555527 0.236387
-0.0279408 -0.0556584 0.234635
-0.0237546 -0.0560642 0.232266
-0.0197363 -0.0557622 0.229476
-0.0159338 -0.0557493 0.22851
-0.0120424 -0.0562904 0.227524
-0.00797334 -0.0562496 0.226045
-0.00394467 -0.0560318 0.223532
1.67535e-05 -0.0564419 0.221032
0.00401891 -0.0563703 0.220385
0.00843588 -0.0560202 0.216241
0.0120002 -0.056574 0.215385
0.0163256 -0.0567885 0.212571
0.0200964 -0.0564039 0.211213
0.0241834 -0.0570229 0.207997
0.0282702 -0.0567074 0.205386
0.0325191 -0.0566222 0.204513
0.0368442 -0.0570137 0.20144
0.0405062 -0.0566877 0.199803
0.0448324 -0.0571966 0.197359
0.0488409 -0.0568117 0.195122
0.0528675 -0.0568275 0.192366
0.0570406 -0.0570082 0.189919
0.061025 -0.057013 0.19013
0.0650749 -0.0571226 0.188262
0.0691073 -0.0573782 0.189604
0.0739141 -0.0573303 0.184571
0.078057 -0.057384 0.178272
0.0821187 -0.0579134 0.175419
0.0870272 -0.0578257 0.172706
0.0907712 -0.057811 0.17205
0.0950984 -0.0580899 0.170057
0.0989509 -0.0578858 0.168959
0.104044 -0.0579474 0.163615
0.107926 -0.0581353 0.160644
0.112288 -0.0581143 0.159779
0.116483 -0.0583065 0.157324
0.120378 -0.0583123 0.155584
0.124997 -0.0583023 0.152804
0.1295 -0.0580788 0.147695
0.133563 -0.0581306 0.144026
0.138376 -0.0587966 0.13878
0.143274 -0.0588299 0.131201
0.148553 -0.0592334 0.116351
0.154204 -0.0598143 0.104632
0.159484 -0.0603549 0.0870553
0.164406 -0.0603743 0.0810388
0.169552 -0.0606159 0.0770664
0.173913 -0.0606803 0.0709397
0.179264 -0.0613745 0.0608352
0.184413 -0.0615648 0.0521865
0.191178 -0.0623175 0.028895
0.19949 -0.0635635 -0.0104861
0.204643 -0.0635106 -0.0171874
-0.11011 -0.0530223 0.193803
-0.105816 -0.0530229 0.200665
-0.101265 -0.0528263 0.202334
-0.0964931 -0.0524041 0.21523
-0.0920637 -0.0522742 0.219105
-0.088257 -0.0520818 0.22092
-0.0841001 -0.0520832 0.222199
-0.0800371 -0.0525425 0.225374
-0.0761888 -0.0520659 0.226707
-0.0719509 -0.0516895 0.229311
-0.067693 -0.0522693 0.231318
-0.0641903 -0.0517962 0.231779
-0.0594557 -0.0517479 0.234274
-0.0557273 -0.0512788 0.234438
-0.0516147 -0.0516197 0.235691
-0.0476648 -0.0518498 0.235498
-0.0437109 -0.0516337 0.234752
-0.0397691 -0.0515834 0.234069
-0.0356354 -0.0519239 0.232347
-0.0317782 -0.0519224 0.229905
-0.0280384 -0.0517624 0.228052
-0.02371 -0.0519186 0.227009
-0.0200297 -0.0522895 0.22729
-0.0159561 -0.0517142 0.226008
-0.0118075 -0.0523229 0.224039
-0.0078377 -0.0519682 0.223043
-0.0041742 -0.0519397 0.221921
-0.000135117 -0.0523483 0.22065
0.00368166 -0.0519855 0.218298
0.00776789 -0.0524541 0.215918
0.0121068 -0.0520021 0.214496
0.0162473 -0.0520594 0.211951
0.0199925 -0.0526247 0.211102
0.0241197 -0.052931 0.208941
0.0281503 -0.052575 0.206127
0.0322139 -0.0526572 0.204241
0.0364898 -0.0522014 0.201102
0.0402721 -0.0527912 0.199209
0.0449848 -0.053057 0.196633
0.0487834 -0.0527794 0.195666
0.052862 -0.0528917 0.193351
0.0569001 -0.0528647 0.192088
0.0617697 -0.0528932 0.191945
0.0651705 -0.0532686 0.190602
0.0694667 -0.0532936 0.187948
0.0737722 -0.0527433 0.181394
0.0782698 -0.0530211 0.178397
0.0819461 -0.05355 0.17485
0.0866924 -0.0534264 0.172742
0.0904881 -0.0539746 0.172125
0.095093 -0.0534855 0.170461
0.0991364 -0.0540502 0.169572
0.103243 -0.053658 0.167207
0.107941 -0.053595 0.162953
0.112108 -0.0541337 0.159226
0.116087 -0.0543109 0.157047
0.120792 -0.0541815 0.155058
0.124706 -0.0542701 0.150471
0.12954 -0.0539894 0.147436
0.134473 -0.0545444 0.141145
0.138479 -0.0553218 0.137045
0.143662 -0.0547947 0.128191
0.148387 -0.0549288 0.119788
0.153818 -0.0552909 0.109968
0.159455 -0.0558953 0.089916
0.16455 -0.0560849 0.0817578
0.168556 -0.0563345 0.077436
0.173608 -0.0565592 0.0722857
0.179555 -0.0571704 0.0605932
0.184262 -0.0572467 0.0523903
0.190919 -0.0578196 0.0282391
0.201205 -0.0594895 -0.0251369
0.206919 -0.0595057 -0.0356421
-0.10671 -0.0490929 0.185489
-0.101213 -0.0488269 0.196897
-0.0971936 -0.0488038 0.202024
-0.092849 -0.0484459 0.211673
-0.0881023 -0.0481918 0.216998
-0.0845531 -0.0482637 0.21973
-0.0797258 -0.0482229 0.222682
-0.0759537 -0.047781 0.226134
-0.0718415 -0.0479373 0.22739
-0.0678263 -0.0480038 0.228369
-0.0640535 -0.0479841 0.228252
-0.0599084 -0.048285 0.231541
-0.0557643 -0.0477099 0.231244
-0.0512257 -0.0483803 0.23346
-0.0474513 -0.0477747 0.232475
-0.0440382 -0.0478127 0.231302
-0.0399348 -0.0479507 0.229149
-0.0359205 -0.0483615 0.227302
-0.0321351 -0.0477587 0.224642
-0.0282674 -0.0482164 0.224693
-0.0237896 -0.0482569 0.224067
-0.0199298 -0.0479638 0.224157
-0.0158222 -0.0482751 0.222374
-0.0119238 -0.0480874 0.221692
-0.00792884 -0.04805 0.221035
-0.00409853 -0.0483059 0.220357
-0.000397257 -0.0478599 0.219855
0.00412869 -0.0482148 0.218144
0.0081868 -0.0483451 0.216628
0.0117683 -0.0479596 0.214129
0.0165006 -0.0479919 0.212431
0.0200179 -0.0483056 0.210679
0.0243082 -0.0481213 0.207462
0.0283284 -0.0488507 0.205937
0.0322136 -0.0484961 0.203481
0.0360943 -0.0485749 0.201618
0.040859 -0.0484016 0.2002
0.0448289 -0.0488322 0.197327
0.0487526 -0.0487834 0.195174
0.0524477 -0.0490558 0.193452
0.0567507 -0.0489959 0.192287
0.0610512 -0.0492233 0.192924
0.0650681 -0.0491812 0.191207
0.0692212 -0.0492763 0.186598
0.0731011 -0.0489882 0.182102
0.0782194 -0.0492977 0.177295
0.0820172 -0.0495246 0.176292
0.0866157 -0.0495163 0.173479
0.0907633 -0.0499074 0.172817
0.0951705 -0.0493308 0.171535
0.0993148 -0.0495911 0.17047
0.103481 -0.0494 0.168247
0.107441 -0.0496427 0.165525
0.111822 -0.0497817 0.16111
0.116583 -0.0499105 0.157998
0.120633 -0.0500613 0.15499
0.125214 -0.0497539 0.150989
0.129747 -0.0501978 0.145626
0.134047 -0.0503498 0.141931
0.138857 -0.0503404 0.136837
0.142983 -0.0507838 0.131426
0.147949 -0.050871 0.124644
0.152609 -0.0510614 0.118221
0.158927 -0.0512335 0.0969901
0.164127 -0.0518901 0.0866394
0.16925 -0.0516688 0.0764761
0.174132 -0.0523854 0.0720959
0.17908 -0.0525902 0.0610368
0.184893 -0.0526286 0.0506175
0.192306 -0.0537279 0.0193425
0.201918 -0.0548089 -0.0351131
-0.101888 -0.045138 0.190274
-0.0975986 -0.0449353 0.197549
-0.0930783 -0.0450062 0.203449
-0.0884932 -0.0441364 0.212887
-0.0844565 -0.0444579 0.217243
-0.0804924 -0.0440847 0.220583
-0.0761622 -0.0441456 0.223169
-0.0718742 -0.0441766 0.224892
-0.0680327 -0.0442866 0.227046
-0.0637349 -0.0440863 0.227204
-0.0598906 -0.0441063 0.227031
-0.0561746 -0.0437623 0.227431
-0.0519945 -0.0439584 0.227266
-0.0476359 -0.0440781 0.227654
-0.0438644 -0.044138 0.227377
-0.0400814 -0.0442478 0.224056
-0.0364373 -0.0440864 0.223353
-0.0322636 -0.043699 0.221534
-0.02824 -0.0437848 0.220752
-0.0243748 -0.0441998 0.220416
-0.0200768 -0.0444377 0.220396
-0.0160546 -0.0443998 0.219449
-0.0121307 -0.0441969 0.219397
-0.00771067 -0.0442062 0.219407
-0.00429299 -0.0443042 0.217923
-0.000159136 -0.0442872 0.217715
0.00403123 -0.0445629 0.216905
0.00816672 -0.0441439 0.214697
0.0124563 -0.0441298 0.214158
0.0161643 -0.0446219 0.211344
0.0201193 -0.0444244 0.209593
0.0241562 -0.0445446 0.207909
0.0280529 -0.0446232 0.204995
0.0323116 -0.0446912 0.20326
0.0366747 -0.0444972 0.200007
0.0407801 -0.0447372 0.200245
0.0443336 -0.0447471 0.198094
0.0487966 -0.0445883 0.19668
0.0529108 -0.0449044 0.195535
0.0570595 -0.0446887 0.194823
0.0610214 -0.0448617 0.194015
0.0653322 -0.0446444 0.188936
0.0700845 -0.0452509 0.183127
0.0735206 -0.0452734 0.180473
0.0778972 -0.0449262 0.179636
0.0820141 -0.0449739 0.178519
0.0867615 -0.0450886 0.17634
0.0905704 -0.0450457 0.17323
0.0950076 -0.0456664 0.171948
0.0988774 -0.0454858 0.170182
0.103412 -0.045474 0.168041
0.107418 -0.0452446 0.167558
0.111397 -0.045643 0.16408
0.116204 -0.0456942 0.160511
0.12016 -0.0454193 0.158554
0.124903 -0.0459449 0.154273
0.129362 -0.0456461 0.149608
0.133529 -0.0462439 0.145033
0.13841 -0.0460517 0.139729
0.14292 -0.0458237 0.13549
0.147775 -0.0458945 0.130431
0.152571 -0.0464287 0.125024
0.158405 -0.0471498 0.102942
0.163468 -0.0472674 0.0947015
0.169475 -0.0479101 0.0763752
0.174233 -0.0478681 0.0706822
0.178681 -0.0480858 0.0646888
0.184806 -0.0484074 0.0492479
0.192223 -0.0489074 0.0154732
-0.0982128 -0.0404408 0.187112
-0.093358 -0.0402987 0.195264
-0.0893979 -0.040784 0.200102
-0.0847982 -0.0402706 0.212556
-0.0803434 -0.0401661 0.215166
-0.0762662 -0.0405262 0.219368
-0.072185 -0.0399488 0.221233
-0.067983 -0.0401975 0.222449
-0.0641742 -0.0399574 0.222322
-0.0602067 -0.0402035 0.223186
-0.0561597 -0.0401093 0.221541
-0.0518005 -0.0403848 0.220998
-0.0481283 -0.0400785 0.220217
-0.0441499 -0.0402914 0.22052
-0.0400916 -0.0401675 0.220842
-0.036116 -0.0401 0.221096
-0.0320835 -0.0401655 0.220516
-0.0281547 -0.0399972 0.219105
-0.0239479 -0.0400865 0.217248
-0.0198954 -0.0401576 0.217696
-0.016006 -0.0399065 0.218312
-0.0121763 -0.0402224 0.218504
-0.00832588 -0.0401288 0.217302
-0.00400646 -0.0404313 0.217618
-0.000143612 -0.040291 0.215247
0.00398776 -0.0403847 0.214287
0.00826028 -0.0402564 0.21398
0.0121035 -0.0405341 0.212448
0.0167356 -0.040307 0.210997
0.020124 -0.040354 0.209643
0.024433 -0.0402297 0.207869
0.0284581 -0.0406985 0.205865
0.0326513 -0.0403186 0.202798
0.0368739 -0.0406936 0.200629
0.040786 -0.0406589 0.198991
0.0445657 -0.0407891 0.197638
0.0492914 -0.0406567 0.197681
0.0528696 -0.0402925 0.197393
0.0567481 -0.0408943 0.195584
0.0610288 -0.0405043 0.192494
0.0654447 -0.0408586 0.187321
0.0693983 -0.0409868 0.184092
0.0736944 -0.0408779 0.183247
0.0781166 -0.0411229 0.180934
0.0823264 -0.0409936 0.180197
0.0862347 -0.0412757 0.178824
0.090369 -0.0409937 0.175461
0.0947602 -0.0410782 0.172319
0.0990502 -0.0415055 0.17029
0.10293 -0.0415494 0.168374
0.107501 -0.0411994 0.166908
0.111706 -0.041114 0.164488
0.11602 -0.0414623 0.162111
0.12009 -0.0409349 0.16127
0.124895 -0.0413567 0.156418
0.129107 -0.0417545 0.15328
0.133307 -0.0415714 0.148589
0.138109 -0.0421455 0.143317
0.142676 -0.0417589 0.13934
0.14739 -0.0418855 0.134662
0.15167 -0.0424366 0.126972
0.15787 -0.0427555 0.107271
0.162943 -0.042743 0.101672
0.168338 -0.0431709 0.0875492
0.174152 -0.0435082 0.0702119
0.17905 -0.0439317 0.0640973
0.184727 -0.0437215 0.0471603
-0.0894459 -0.0368217 0.190493
-0.0857527 -0.0369031 0.194449
-0.0811273 -0.0362222 0.206145
-0.0769948 -0.0359126 0.209428
-0.0723735 -0.0363653 0.214178
-0.0683683 -0.0360586 0.215668
-0.0639008 -0.0362945 0.21689
-0.0604087 -0.0363738 0.215704
-0.0564575 -0.0363074 0.213842
-0.0523474 -0.0363242 0.212931
-0.0482978 -0.0362538 0.213839
-0.044156 -0.0361957 0.216545
-0.0402869 -0.0363839 0.216073
-0.036122 -0.0364765 0.217895
-0.0320843 -0.0356835 0.217364
-0.0281613 -0.0362862 0.216065
-0.0240205 -0.0363564 0.216056
-0.0200848 -0.0361861 0.21709
-0.0162138 -0.0365833 0.217059
-0.0119365 -0.0362941 0.217435
-0.00811081 -0.0365117 0.21735
-0.00395819 -0.035934 0.214663
-1.04288e-05 -0.0363964 0.214625
0.00441372 -0.0362606 0.212738
0.00860114 -0.0363507 0.210926
0.0120472 -0.0363954 0.21115
0.0161626 -0.0363595 0.208819
0.0205895 -0.0364744 0.207717
0.0243155 -0.0364291 0.205853
0.0282585 -0.0363339 0.204005
0.0323521 -0.0364965 0.202221
0.036647 -0.036361 0.200482
0.0404586 -0.0363668 0.199113
0.0445013 -0.036503 0.198851
0.0490564 -0.0368478 0.198468
0.0529095 -0.0368001 0.197329
0.0569508 -0.0369389 0.194803
0.0611139 -0.0367733 0.19055
0.0654266 -0.0370012 0.186115
0.0693829 -0.0370172 0.183548
0.0740758 -0.0370457 0.183295
0.0780012 -0.0369895 0.181319
0.0821477 -0.037056 0.181758
0.0861548 -0.0367822 0.179865
0.0904364 -0.0370114 0.177518
0.0943665 -0.0369672 0.174724
0.0992433 -0.0372633 0.171354
0.103202 -0.03713 0.168047
0.107509 -0.0377017 0.165728
0.111707 -0.0373076 0.163989
0.11614 -0.0370654 0.162063
0.120269 -0.0374881 0.159426
0.124887 -0.037456 0.156513
0.129343 -0.037176 0.153119
0.133858 -0.0371503 0.150332
0.138161 -0.037925 0.144418
0.143248 -0.0378849 0.138487
0.147103 -0.0380816 0.134045
0.151832 -0.0383415 0.12523
0.157925 -0.0383184 0.10912
0.162299 -0.0386271 0.103228
0.167863 -0.0385969 0.0948832
0.174443 -0.0395612 0.0678896
0.179378 -0.0393725 0.0616562
0.184871 -0.0396462 0.0462334
-0.0818385 -0.032805 0.180863
-0.0773663 -0.032582 0.185491
-0.073392 -0.0326225 0.198211
-0.0686848 -0.0324449 0.20065
-0.0649814 -0.0326386 0.203521
-0.0608405 -0.032683 0.205632
-0.0568067 -0.0323334 0.20692
-0.0518664 -0.0324862 0.208629
-0.0483344 -0.0317517 0.209288
-0.0440211 -0.0324557 0.211522
-0.0400348 -0.0320088 0.213286
-0.0363959 -0.0322962 0.214484
-0.0323189 -0.0321872 0.213252
-0.028162 -0.0318092 0.213969
-0.0239524 -0.0324103 0.214565
-0.0204834 -0.0322503 0.21463
-0.0163622 -0.0322639 0.214692
-0.0124374 -0.0322074 0.215226
-0.00778275 -0.0322673 0.214363
-0.00425689 -0.0325459 0.213906
0.000249811 -0.0324417 0.211975
0.00411466 -0.0326535 0.210203
0.00805419 -0.0321833 0.209338
0.0123461 -0.0323625 0.209436
0.0157787 -0.0326344 0.207219
0.0200234 -0.03234 0.206291
0.0243113 -0.0325352 0.204769
0.0284138 -0.0327433 0.203205
0.0323733 -0.0325879 0.201532
0.0364409 -0.0326773 0.200212
0.0406644 -0.0324495 0.200126
0.0450444 -0.0323223 0.20005
0.048735 -0.0323742 0.199632
0.0527962 -0.0327061 0.198233
0.0571716 -0.0328522 0.192654
0.0612174 -0.0328222 0.188841
0.0652412 -0.0328204 0.185786
0.0696991 -0.032636 0.184703
0.0738236 -0.0329733 0.183262
0.0778502 -0.0327602 0.183118
0.0820657 -0.0328563 0.181673
0.0866222 -0.033004 0.179564
0.0904807 -0.0329424 0.177902
0.0947376 -0.0327615 0.176172
0.0990217 -0.0329624 0.173074
0.103202 -0.0330313 0.169354
0.107314 -0.0329054 0.166213
0.11151 -0.0328418 0.164197
0.116156 -0.0329237 0.161876
0.120357 -0.0334588 0.158544
0.124573 -0.0336121 0.155745
0.128957 -0.0332534 0.152808
0.133679 -0.0332777 0.148532
0.138129 -0.0335582 0.143462
0.14272 -0.0336504 0.137834
0.147557 -0.0338837 0.130525
0.152257 -0.0339142 0.123054
0.15722 -0.033934 0.114978
0.162234 -0.0339654 0.107443
0.167056 -0.0339541 0.100719
0.174537 -0.0349046 0.0653781
0.179261 -0.0355228 0.060678
0.184958 -0.0356273 0.0445234
-0.0842729 -0.0295924 0.136719
-0.0788086 -0.0289354 0.163729
-0.0735358 -0.0292003 0.182098
-0.0696239 -0.0289415 0.185727
-0.0654413 -0.0285572 0.194462
-0.0610198 -0.0288538 0.199005
-0.0569269 -0.0283347 0.200811
-0.0531905 -0.0282313 0.202441
-0.0487564 -0.0281367 0.204597
-0.0444117 -0.0281345 0.207746
-0.0406986 -0.0282002 0.209625
-0.0363796 -0.0278584 0.209796
-0.032213 -0.0281867 0.211062
-0.0284381 -0.0282195 0.210849
-0.0241955 -0.0278307 0.211149
-0.0201291 -0.0282826 0.212266
-0.0162302 -0.0281365 0.21306
-0.0120682 -0.0282067 0.213593
-0.0080759 -0.0283148 0.212659
-0.00423191 -0.0282768 0.212044
-7.92257e-05 -0.0281341 0.208643
0.00403793 -0.0282527 0.208369
0.00798579 -0.0284586 0.206722
0.0120497 -0.028538 0.206113
0.0160382 -0.0281623 0.205321
0.0199841 -0.0282774 0.204803
0.0243723 -0.0284462 0.202468
0.0284597 -0.027903 0.202304
0.0324516 -0.0285556 0.201433
0.0363838 -0.0282455 0.200987
0.0406716 -0.0283162 0.200015
0.0448548 -0.0280005 0.201089
0.0490165 -0.0283363 0.199089
0.0528676 -0.0284546 0.195028
0.0573367 -0.0283988 0.190815
0.0613162 -0.0287118 0.189219
0.0659476 -0.0286719 0.185964
0.0695203 -0.0284721 0.186956
0.0736352 -0.0284497 0.185699
0.0777612 -0.0285261 0.1848
0.082138 -0.0284412 0.183684
0.0858693 -0.0287021 0.183043
0.0902293 -0.0288265 0.180209
0.0942696 -0.0286411 0.179361
0.0985557 -0.0284934 0.176448
0.103071 -0.0290052 0.1735
0.107547 -0.0288283 0.170206
0.111714 -0.0289866 0.167215
0.116136 -0.0287256 0.163983
0.12036 -0.0292768 0.16003
0.124594 -0.029359 0.156152
0.12902 -0.0291312 0.153395
0.133424 -0.029119 0.149671
0.138138 -0.0296925 0.143515
0.142344 -0.0290736 0.139727
0.147593 -0.029635 0.133607
0.151419 -0.0297624 0.129949
0.156678 -0.030137 0.121256
0.161415 -0.0299485 0.115799
0.166131 -0.0295401 0.108686
0.174839 -0.0304419 0.0643148
0.179919 -0.0303662 0.0576124
0.185567 -0.030821 0.0429707
-0.0842865 -0.0254743 0.133349
-0.0796439 -0.0247638 0.150615
-0.0745833 -0.0246268 0.167518
-0.0696924 -0.0244249 0.178877
-0.0654753 -0.0245731 0.18606
-0.061175 -0.0243596 0.192034
-0.0569473 -0.0242542 0.195548
-0.0533127 -0.024187 0.198134
-0.0483251 -0.0244264 0.202314
-0.0443968 -0.0241461 0.204435
-0.0405739 -0.0243932 0.206364
-0.0363908 -0.0240339 0.206911
-0.0327119 -0.0241969 0.208125
-0.0285539 -0.0242036 0.209036
-0.0242876 -0.0242432 0.209972
-0.0201113 -0.0242348 0.210451
-0.0159154 -0.0238978 0.21123
-0.0120143 -0.0243554 0.210179
-0.00785394 -0.0241555 0.209343
-0.0040721 -0.024496 0.209025
0.000278635 -0.0244216 0.207543
0.00389784 -0.0243599 0.206391
0.00791519 -0.0240622 0.205039
0.0121539 -0.0244479 0.204236
0.0161076 -0.0237298 0.20385
0.0197729 -0.0245645 0.203692
0.0242642 -0.0244734 0.202281
0.0281342 -0.0243411 0.201417
0.0321268 -0.0242433 0.201958
0.0368617 -0.024083 0.201474
0.0406578 -0.0242816 0.200932
0.0446029 -0.0243519 0.199841
0.0488577 -0.0243184 0.197693
0.0531611 -0.0245214 0.193138
0.0569005 -0.0244296 0.190491
0.0612301 -0.0245436 0.189211
0.0651212 -0.0246748 0.188806
0.0696202 -0.0243043 0.188613
0.0737827 -0.0244982 0.187809
0.0776955 -0.0243519 0.187816
0.0818134 -0.0241516 0.186908
0.0856207 -0.0246644 0.185107
0.0899489 -0.024615 0.182461
0.0940785 -0.0249386 0.180601
0.0984823 -0.0245223 0.17988
0.102762 -0.0244958 0.178305
0.107158 -0.0248077 0.173725
0.111482 -0.0249232 0.17129
0.115207 -0.0247789 0.168244
0.119813 -0.0247473 0.164902
0.124081 -0.0248612 0.16044
0.128819 -0.0251931 0.156907
0.133243 -0.0250135 0.152304
0.138103 -0.0254295 0.147094
0.14285 -0.0250788 0.141506
0.147105 -0.0250085 0.137598
0.151716 -0.0254639 0.133067
0.156051 -0.0254575 0.128487
0.161035 -0.0255091 0.123194
0.165755 -0.0253865 0.116374
0.171103 -0.0254486 0.103779
0.179753 -0.0261965 0.0543077
0.185721 -0.0266705 0.0415597
-0.0792789 -0.0208547 0.146628
-0.0745349 -0.0206874 0.162722
-0.0699793 -0.0204855 0.172326
-0.0657842 -0.0204946 0.179186
-0.0611382 -0.0204151 0.187593
-0.0574526 -0.0206223 0.192213
-0.0527005 -0.0204844 0.195039
-0.0490601 -0.0206289 0.197944
-0.044608 -0.0205139 0.200422
-0.0406141 -0.0202332 0.202389
-0.0362971 -0.0202037 0.204463
-0.0323399 -0.0203265 0.205053
-0.0279258 -0.0201937 0.205726
-0.0243072 -0.0202795 0.205466
-0.0201404 -0.0203515 0.207089
-0.0163838 -0.0202415 0.207676
-0.0118487 -0.0201223 0.207463
-0.00797788 -0.0205031 0.207108
-0.00422395 -0.0203006 0.205832
9.95372e-05 -0.0199372 0.204348
0.00410076 -0.0203379 0.203952
0.00835654 -0.0201308 0.203308
0.0121548 -0.0200795 0.203353
0.0162521 -0.0202169 0.202867
0.0208113 -0.0202183 0.202284
0.0245909 -0.0205421 0.201991
0.028344 -0.0199138 0.201802
0.0323085 -0.0203261 0.202189
0.0367481 -0.0204198 0.20134
0.0405674 -0.0202688 0.200926
0.0445445 -0.0202673 0.199059
0.0488021 -0.020375 0.196214
0.05277 -0.0206753 0.192104
0.0572691 -0.0203745 0.190255
0.0610686 -0.0204627 0.189809
0.0656139 -0.0201232 0.190198
0.0694792 -0.0202771 0.189422
0.0739085 -0.0198611 0.189684
0.0776974 -0.0201136 0.189213
0.08178 -0.0205268 0.187404
0.0860849 -0.0207159 0.185506
0.0900592 -0.0203918 0.184936
0.0943944 -0.0200844 0.183813
0.0981498 -0.0203623 0.181444
0.102671 -0.0204964 0.179529
0.106891 -0.0207548 0.176409
0.11092 -0.0205953 0.175514
0.115674 -0.0206615 0.170925
0.120015 -0.0202828 0.168164
0.123947 -0.020895 0.164838
0.128551 -0.020915 0.159341
0.132949 -0.0210194 0.155051
0.138141 -0.0210974 0.150253
0.141732 -0.0208121 0.146107
0.147096 -0.0212689 0.140197
0.151284 -0.0209696 0.136353
0.155926 -0.0209537 0.132343
0.160883 -0.021057 0.125491
0.165657 -0.0214043 0.119416
0.17044 -0.021672 0.10978
0.177291 -0.0217993 0.0861164
0.185507 -0.0220041 0.0414855
-0.0799856 -0.0166047 0.138326
-0.074776 -0.0165496 0.157234
-0.0708036 -0.0164366 0.164954
-0.0655977 -0.0160144 0.172882
-0.0617348 -0.0160337 0.180528
-0.057149 -0.0164063 0.187513
-0.0530228 -0.0162105 0.192091
-0.048791 -0.0169651 0.193491
-0.044985 -0.0163033 0.195728
-0.0401652 -0.0161598 0.197888
-0.0367981 -0.0165834 0.199479
-0.0324718 -0.0159956 0.201716
-0.0281297 -0.0166336 0.202125
-0.0244657 -0.0163775 0.202928
-0.0200764 -0.0160365 0.203998
-0.0162311 -0.0164951 0.204928
-0.0123188 -0.01623 0.204075
-0.00783405 -0.0162487 0.204167
-0.00423107 -0.0161357 0.203441
-0.000286651 -0.0162159 0.20284
0.00419736 -0.0163242 0.201738
0.00786086 -0.0159969 0.201019
0.0121487 -0.0164374 0.20216
0.0163606 -0.0157436 0.200549
0.0202879 -0.0164895 0.200941
0.0243355 -0.0162762 0.201864
0.0284597 -0.0161444 0.202266
0.0328028 -0.0165524 0.201539
0.0366499 -0.0165351 0.20116
0.0406165 -0.0162506 0.199473
0.0447337 -0.0159742 0.196138
0.0490965 -0.0163575 0.193262
0.0529886 -0.0163521 0.192565
0.0573406 -0.0162387 0.191564
0.0613284 -0.0164597 0.191967
0.0651632 -0.0159928 0.192677
0.0690866 -0.0164101 0.19166
0.0732222 -0.0166102 0.19046
0.0774616 -0.0165209 0.18975
0.0815801 -0.0166074 0.187889
0.0857103 -0.0164638 0.187225
0.0900411 -0.0161929 0.185802
0.0941699 -0.0164658 0.185185
0.0981182 -0.0165875 0.182788
0.102438 -0.0163736 0.179612
0.106559 -0.0165323 0.178506
0.111333 -0.0161545 0.17603
0.115288 -0.0167921 0.17178
0.119958 -0.0163862 0.168555
0.124042 -0.0164999 0.165885
0.128365 -0.016707 0.161551
0.133556 -0.0165093 0.15583
0.137226 -0.0166904 0.15221
0.141869 -0.0165298 0.148084
0.146406 -0.0167153 0.143591
0.15102 -0.0169013 0.138022
0.155554 -0.0169777 0.132888
0.160146 -0.0169912 0.128047
0.164919 -0.0172912 0.121057
0.170522 -0.0170302 0.11142
0.176662 -0.0170281 0.0930984
-0.0800796 -0.0126642 0.129401
-0.0748985 -0.0123003 0.151587
-0.0704404 -0.0123257 0.162285
-0.0659033 -0.0121157 0.168431
-0.0617415 -0.012726 0.175182
-0.0572536 -0.0123985 0.182066
-0.0531363 -0.0121935 0.187476
-0.0493796 -0.0124781 0.189696
-0.0449148 -0.0121129 0.190891
-0.0405204 -0.0122211 0.194158
-0.0365566 -0.0121885 0.196325
-0.0324937 -0.0124906 0.197721
-0.0284418 -0.0120244 0.198824
-0.024603 -0.0121053 0.198758
-0.0204847 -0.0117866 0.199363
-0.0162004 -0.0121339 0.200565
-0.0121145 -0.0125046 0.200841
-0.00830941 -0.0125055 0.20062
-0.00430417 -0.0121204 0.200281
-5.51358e-05 -0.0124459 0.20034
0.00452157 -0.0119664 0.199825
0.00832122 -0.0122151 0.199412
0.0121692 -0.0119697 0.200676
0.0160378 -0.0122828 0.201788
0.020017 -0.0123292 0.201617
0.0244003 -0.0124499 0.202554
0.0284599 -0.0123106 0.202833
0.0329295 -0.0123143 0.201542
0.0364373 -0.0119785 0.199808
0.040844 -0.0121486 0.197304
0.0448641 -0.0124971 0.194208
0.0488133 -0.0121038 0.193469
0.0525244 -0.0120235 0.193406
0.0570333 -0.0127733 0.192989
0.0611518 -0.0124074 0.193005
0.0652839 -0.0123688 0.191941
0.0691283 -0.0121999 0.191488
0.0734032 -0.0120364 0.19072
0.0772361 -0.0122887 0.190279
0.0816104 -0.0123257 0.189067
0.085723 -0.0123223 0.187468
0.0899118 -0.0123907 0.186277
0.0939555 -0.0123157 0.185799
0.0984879 -0.0123641 0.182587
0.102805 -0.0123251 0.181
0.106962 -0.012415 0.17878
0.110873 -0.0122259 0.176448
0.115493 -0.0124278 0.173293
0.119989 -0.0123602 0.16989
0.124211 -0.0120427 0.166607
0.128489 -0.012705 0.162836
0.132935 -0.0122913 0.158995
0.137186 -0.0130487 0.154055
0.141456 -0.0130414 0.150572
0.146272 -0.0121514 0.144882
0.151026 -0.0124089 0.139761
0.155947 -0.0126027 0.133694
0.159932 -0.0124975 0.129047
0.164926 -0.0126066 0.123144
0.170448 -0.0127476 0.113396
0.175635 -0.012818 0.0994182
-0.0753465 -0.00830464 0.14164
-0.0706435 -0.0081381 0.157875
-0.066044 -0.00851321 0.165816
-0.0617917 -0.00830035 0.171572
-0.0572689 -0.00813558 0.176065
-0.0534095 -0.00842231 0.182553
-0.0492037 -0.00820249 0.185552
-0.0449883 -0.00811282 0.188285
-0.0409033 -0.00792568 0.190084
-0.0364901 -0.00808427 0.192014
-0.032535 -0.00792844 0.194271
-0.0288768 -0.00802771 0.195378
-0.0242943 -0.00805816 0.196026
-0.0202269 -0.00796412 0.196915
-0.0162322 -0.00813018 0.197461
-0.0124071 -0.00861733 0.198534
-0.00850901 -0.00832311 0.197141
-0.00388472 -0.00775375 0.197201
-0.000176287 -0.00798315 0.198781
0.00398084 -0.00834708 0.198925
0.00828385 -0.00835555 0.199275
0.0121597 -0.00811802 0.200917
0.0160626 -0.00823864 0.201319
0.0204073 -0.00816535 0.201309
0.0244401 -0.00764084 0.20273
0.0280404 -0.00808257 0.201218
0.0325735 -0.00790715 0.199415
0.0358322 -0.00782113 0.198264
0.0406331 -0.00803449 0.19511
0.0447075 -0.00812865 0.194124
0.048749 -0.00850422 0.193275
0.0531005 -0.0082126 0.193179
0.0570484 -0.00806251 0.193991
0.0609279 -0.00798714 0.192875
0.0651728 -0.00820125 0.192548
0.0695144 -0.00809752 0.191799
0.0733169 -0.00799516 0.190523
0.0776734 -0.00821925 0.190672
0.0815369 -0.00800821 0.189376
0.0858471 -0.00810846 0.188729
0.0899782 -0.00784036 0.187913
0.0939422 -0.00804794 0.186649
0.0982329 -0.00796193 0.184723
0.102304 -0.00860619 0.182199
0.106755 -0.00838099 0.180705
0.111094 -0.00849153 0.178487
0.115308 -0.00788066 0.174777
0.119309 -0.0081406 0.172399
0.123852 -0.00828483 0.169415
0.128002 -0.00820257 0.165605
0.132974 -0.00830801 0.161194
0.137263 -0.00819107 0.156529
0.141894 -0.00821531 0.152363
0.146585 -0.00838975 0.147842
0.150723 -0.00835816 0.142348
0.155377 -0.00837489 0.137643
0.159574 -0.0084597 0.13107
0.164868 -0.00853238 0.12553
0.169534 -0.00886823 0.119369
0.174565 -0.0082992 0.111421
-0.0711117 -0.00426848 0.150007
-0.0662947 -0.00476601 0.161828
-0.0622129 -0.00464066 0.16694
-0.0577386 -0.0044064 0.171297
-0.0535288 -0.00399066 0.174793
-0.0495913 -0.0038639 0.177525
-0.0452794 -0.00406439 0.182302
-0.0409828 -0.00388244 0.186015
-0.0368349 -0.00390201 0.188677
-0.0328413 -0.00417107 0.189609
-0.0285098 -0.004146 0.191036
-0.0245654 -0.00385787 0.192565
-0.0200449 -0.00367872 0.1924
-0.0160323 -0.00437149 0.19454
-0.0121313 -0.00394462 0.194673
-0.00772179 -0.0038809 0.19558
-0.0041578 -0.00426144 0.196391
0.000161444 -0.0040116 0.196683
0.00412427 -0.0037992 0.197702
0.00813908 -0.00384781 0.199388
0.0119291 -0.0042274 0.200631
0.0166689 -0.0037484 0.20177
0.0205869 -0.00413894 0.201692
0.024424 -0.00391768 0.200916
0.0285044 -0.00394186 0.199373
0.0325234 -0.00410111 0.196833
0.0365834 -0.00418222 0.194854
0.0405639 -0.00417599 0.193826
0.0448429 -0.00432396 0.194254
0.0487568 -0.00378492 0.19447
0.0528368 -0.00451796 0.194322
0.0571718 -0.00423551 0.19452
0.0613635 -0.00406976 0.194245
0.0653043 -0.00411685 0.193607
0.0693037 -0.00414507 0.193884
0.0737002 -0.00377684 0.193293
0.0774206 -0.00365041 0.19244
0.081386 -0.00394319 0.192168
0.0853185 -0.00419385 0.190581
0.0896877 -0.00404993 0.189444
0.0940133 -0.00409807 0.188964
0.0980992 -0.0044301 0.186404
0.102321 -0.00439741 0.184638
0.106782 -0.0036711 0.182841
0.111086 -0.00468537 0.179878
0.115111 -0.00415382 0.177863
0.119307 -0.00404532 0.174379
0.123739 -0.0039627 0.170927
0.12793 -0.00398346 0.166996
0.132594 -0.00442806 0.162943
0.137487 -0.00402494 0.158312
0.141536 -0.00400969 0.154218
0.146142 -0.0036795 0.149636
0.150451 -0.00423599 0.143564
0.154829 -0.0040691 0.140136
0.159511 -0.00382895 0.134426
0.164413 -0.00420295 0.129509
0.16937 -0.00450662 0.123018
0.174013 -0.0044164 0.115498
0.179504 -0.00406478 0.104201
-0.071813 -2.47291e-05 0.131148
-0.0666473 0.000123647 0.151106
-0.0627495 -2.85307e-05 0.158981
-0.0580334 -0.000201868 0.16534
-0.0537336 0.000207368 0.168917
-0.0491924 0.000231294 0.17304
-0.0453332 -1.43492e-05 0.176217
-0.0411642 -0.000537396 0.180788
-0.0367114 -0.000152695 0.183121
-0.0327598 0.000412103 0.184364
-0.0287903 0.000196791 0.185931
-0.0243809 0.000220823 0.187474
-0.0210375 0.000423573 0.188996
-0.0162759 -5.60754e-05 0.190792
-0.0125843 5.17287e-05 0.19195
-0.00797875 0.000300175 0.193653
-0.00410738 -7.40418e-05 0.194454
-0.000126687 0.000382426 0.195714
0.00434373 -0.000442213 0.198374
0.00768464 -0.000252494 0.200451
0.0119454 -0.000244549 0.200504
0.0161936 0.000253574 0.200395
0.0202265 -0.000173334 0.200454
0.0241193 -0.000251257 0.198553
0.0279665 -0.000308595 0.197296
0.032622 0.000145626 0.195566
0.0366898 0.000266186 0.19488
0.040668 -0.000209763 0.195264
0.044833 2.5581e-05 0.196731
0.0490297 -0.000100649 0.195934
0.0530601 -0.00013097 0.195966
0.0567906 -4.14833e-05 0.196959
0.0613662 3.67893e-05 0.195258
0.0649672 0.000140621 0.196307
0.0692933 0.000369386 0.19532
0.0733105 -0.000415741 0.194881
0.0773958 -0.000103757 0.19424
0.081476 5.66447e-05 0.193269
0.0856108 0.000187196 0.192964
0.0898291 5.49561e-05 0.192137
0.0940784 0.000199498 0.190802
0.0982997 0.000133971 0.190283
0.101459 0.000315986 0.188189
0.106327 -3.48438e-05 0.184529
0.110546 0.000401205 0.182749
0.114926 0.000217492 0.17919
0.118944 -6.73958e-05 0.176269
0.123819 6.86106e-05 0.172865
0.128128 8.79777e-05 0.168708
0.132441 -0.000113129 0.164413
0.13678 -0.000243256 0.159982
0.141687 0.000134837 0.154823
0.146374 -0.000215579 0.149017
0.150843 -0.000166947 0.145091
0.154991 5.74241e-05 0.140121
0.159478 -0.000265188 0.135327
0.164547 -0.000517901 0.129803
0.169038 0.000308556 0.125738
0.174351 0.000132614 0.117685
0.17945 -0.000222085 0.106723
0.185659 -0.000171912 0.087402
-0.0671327 0.00420512 0.136942
-0.062849 0.00390435 0.149076
-0.0586189 0.00411832 0.15543
-0.0540812 0.00406017 0.161844
-0.0496911 0.00396551 0.168221
-0.0454846 0.00440877 0.170765
-0.0414064 0.00416015 0.175275
-0.037092 0.00445634 0.176996
-0.0329794 0.00397679 0.17935
-0.0285894 0.00371802 0.181612
-0.0244653 0.00392015 0.182968
-0.0203052 0.00418184 0.184652
-0.016437 0.00404589 0.187771
-0.0119689 0.00397951 0.190844
-0.00840719 0.00401392 0.193992
-0.00420199 0.00381023 0.19533
-1.86915e-05 0.00439271 0.197755
0.00409577 0.0039279 0.19918
0.00837358 0.00411429 0.200566
0.0122612 0.00389541 0.200802
0.016089 0.00392735 0.199923
0.0200616 0.00422121 0.198054
0.0244586 0.00418188 0.195374
0.028436 0.00406548 0.194996
0.0328163 0.00429991 0.195042
0.0364627 0.00408518 0.19599
0.0407799 0.00414921 0.196296
0.0446254 0.00407061 0.196728
0.0488333 0.00414981 0.197064
0.0532766 0.00404117 0.197205
0.0566453 0.00410464 0.198019
0.0610099 0.00421465 0.197733
0.064863 0.00412405 0.197141
0.0690663 0.0041257 0.197455
0.0731259 0.00378422 0.196961
0.0774219 0.00432039 0.196734
0.0815514 0.00359611 0.19525
0.0853479 0.00408429 0.194484
0.0893676 0.00450759 0.193475
0.094002 0.00434123 0.192081
0.0979361 0.00417467 0.190571
0.102359 0.00382061 0.188471
0.106102 0.00401251 0.186554
0.110393 0.00436222 0.183792
0.114813 0.0044352 0.180675
0.119243 0.00427265 0.177577
0.123368 0.00414665 0.174707
0.127703 0.00436318 0.169491
0.132379 0.00421511 0.16584
0.136834 0.00422802 0.160892
0.141591 0.0041065 0.154515
0.146219 0.0041396 0.148074
0.150528 0.00395315 0.143674
0.155236 0.0038383 0.139812
0.159964 0.00431777 0.134235
0.164382 0.00421914 0.130336
0.169052 0.00416856 0.126224
0.173854 0.0044344 0.118534
0.179459 0.00412386 0.108095
0.185366 0.00403878 0.0910681
-0.0582425 0.0079642 0.145084
-0.054207 0.00828579 0.151134
-0.0497242 0.00823839 0.157741
-0.045478 0.00842011 0.164328
-0.0414689 0.00799582 0.168634
-0.037318 0.00823541 0.172005
-0.0330018 0.00814262 0.174486
-0.0287639 0.00803809 0.177217
-0.0248218 0.00846443 0.180624
-0.0206354 0.00847297 0.184231
-0.0168085 0.00793855 0.187689
-0.0121429 0.00823288 0.191657
-0.00817921 0.00787048 0.193988
-0.00394885 0.00820565 0.195985
0.000228378 0.0080983 0.197765
0.00396187 0.00824719 0.199545
0.00832993 0.00860493 0.199197
0.0118705 0.00827232 0.198842
0.0163855 0.00756299 0.197593
0.0201283 0.0080366 0.196473
0.0245731 0.00834076 0.195229
0.0284398 0.00814038 0.195818
0.0325547 0.00810201 0.196461
0.0363489 0.00780541 0.196091
0.0409799 0.00772099 0.196873
0.0447712 0.00838279 0.19748
0.0482835 0.00825892 0.198532
0.0527123 0.00793943 0.19881
0.0568457 0.00820457 0.198632
0.0609074 0.00810459 0.197752
0.0649865 0.00772881 0.197805
0.0689072 0.00826753 0.197779
0.0732567 0.00788551 0.197393
0.077221 0.0081326 0.196828
0.0817139 0.0079719 0.196127
0.0851256 0.00818177 0.195228
0.0895809 0.00818856 0.194537
0.0933073 0.00822218 0.192588
0.0975569 0.00796205 0.190352
0.102244 0.0081562 0.189443
0.106242 0.00808982 0.186615
0.110695 0.00843032 0.184606
0.115161 0.00784869 0.180272
0.118748 0.00818202 0.177779
0.123898 0.00832717 0.173673
0.127999 0.00814206 0.170309
0.132411 0.0081857 0.165465
0.137231 0.00831167 0.159509
0.141836 0.00863778 0.151935
0.146391 0.0081516 0.146617
0.150514 0.0081538 0.143499
0.155492 0.0080755 0.139104
0.159574 0.00829596 0.135623
0.16446 0.00830793 0.131882
0.169192 0.00843725 0.125714
0.17403 0.00858768 0.120468
0.178646 0.00854798 0.112363
0.183966 0.00827653 0.0996702
-0.0592637 0.0128119 0.117173
-0.0547359 0.0125741 0.143955
-0.049967 0.0127245 0.152224
-0.0457707 0.0127638 0.15739
-0.0414354 0.0123212 0.163052
-0.0369392 0.0121938 0.168238
-0.0331165 0.0120092 0.173166
-0.0288122 0.0124053 0.175838
-0.0246017 0.0123597 0.181806
-0.0206349 0.0120975 0.184722
-0.0162976 0.012222 0.189143
-0.0121223 0.0121868 0.19167
-0.00805251 0.0122573 0.195122
-0.00396316 0.0120041 0.196321
0.000120952 0.0120982 0.197829
0.00405464 0.0125484 0.197045
0.00842804 0.0121686 0.197085
0.0120417 0.0119652 0.196447
0.0161533 0.0121533 0.195614
0.0205391 0.0123619 0.195212
0.0246236 0.0122077 0.195529
0.0285309 0.0119984 0.19633
0.032623 0.0119851 0.196652
0.0362229 0.0122258 0.198719
0.0408904 0.0121847 0.198485
0.0446459 0.0122698 0.198406
0.0487949 0.0122158 0.199433
0.0531798 0.0116164 0.198831
0.0566937 0.0119128 0.198713
0.0614074 0.012218 0.197846
0.0650082 0.011853 0.198561
0.0687125 0.0120756 0.197166
0.0729894 0.0122518 0.197422
0.0772769 0.012078 0.195693
0.0812486 0.0121132 0.195223
0.0855915 0.0120408 0.195465
0.0895926 0.0121871 0.193576
0.0936795 0.0124565 0.193857
0.0976919 0.0121996 0.191594
0.101872 0.0127271 0.18966
0.106588 0.011831 0.186696
0.11062 0.012326 0.184409
0.11491 0.012751 0.180714
0.11907 0.0124035 0.177565
0.123424 0.0122577 0.1747
0.127619 0.0126949 0.169472
0.132396 0.0122983 0.165066
0.137009 0.0122495 0.158982
0.141783 0.0123109 0.152007
0.146104 0.0124659 0.149117
0.150222 0.0124223 0.145471
0.155311 0.0128928 0.139728
0.160074 0.0123538 0.135597
0.164399 0.0123736 0.132239
0.168445 0.0125413 0.129281
0.17352 0.0126131 0.123167
0.178743 0.0128551 0.115664
0.183693 0.0129721 0.106092
-0.0598176 0.017031 0.10776
-0.0540522 0.0166946 0.138972
-0.0498106 0.0168632 0.148661
-0.0454872 0.0166657 0.1544
-0.0417681 0.0170569 0.160331
-0.0371236 0.0166674 0.16714
-0.0333011 0.0165957 0.171925
-0.0288095 0.0164536 0.177465
-0.0243572 0.0164753 0.182036
-0.0204561 0.0165094 0.185491
-0.0164901 0.0165715 0.187751
-0.012511 0.0159256 0.190431
-0.00797589 0.0163317 0.192153
-0.0041224 0.0164726 0.192966
-6.67099e-05 0.0163162 0.194828
0.00440448 0.0159876 0.19478
0.0083045 0.0166019 0.195347
0.0118551 0.0162367 0.194524
0.0164548 0.0164843 0.194657
0.0202464 0.0163332 0.194756
0.0244196 0.0161515 0.195533
0.0286742 0.0163633 0.197177
0.0322938 0.0162332 0.198302
0.0362614 0.0163974 0.198291
0.040393 0.0162699 0.199207
0.0447424 0.0163445 0.19908
0.0485406 0.0164871 0.199899
0.0526624 0.0164672 0.198904
0.0570267 0.0161738 0.198369
0.0611299 0.0162051 0.197894
0.0649472 0.0164376 0.197695
0.0693784 0.0160852 0.197683
0.0732828 0.0165289 0.197352
0.0772792 0.0162389 0.19719
0.0810647 0.0162593 0.19705
0.085416 0.0162142 0.196314
0.0894105 0.0162443 0.195734
0.0938554 0.0164235 0.192982
0.0976699 0.0162706 0.191689
0.101874 0.0163123 0.189358
0.106702 0.0159377 0.18797
0.110513 0.0164264 0.184905
0.114799 0.0164826 0.18224
0.119163 0.0164712 0.178378
0.123555 0.0166995 0.175686
0.127894 0.0167053 0.169758
0.132631 0.0167632 0.165191
0.137191 0.0163179 0.159037
0.141737 0.0167349 0.153707
0.146314 0.0165273 0.151749
0.150628 0.0166875 0.148152
0.155169 0.0167118 0.141396
0.159904 0.0169804 0.136573
0.164457 0.0168288 0.133133
0.168509 0.0169792 0.130005
0.173298 0.0172444 0.124098
0.178098 0.0170568 0.11929
0.183146 0.0172103 0.111764
0.188647 0.0170373 0.0988672
-0.0603209 0.0215588 0.092261
-0.0547726 0.0210568 0.134869
-0.0504169 0.0210034 0.14504
-0.0454279 0.0207965 0.153914
-0.0410921 0.0209458 0.161551
-0.0373497 0.0204717 0.166738
-0.0328458 0.0205365 0.172695
-0.0285289 0.020497 0.177277
-0.0245954 0.0204853 0.181154
-0.0202804 0.0207072 0.183559
-0.0165904 0.0203856 0.185354
-0.0124849 0.020338 0.187857
-0.00838939 0.0202004 0.188864
-0.00409884 0.0207826 0.189289
4.68281e-05 0.020353 0.189756
0.00404513 0.0202127 0.191398
0.00807366 0.0202875 0.193279
0.0119841 0.0206853 0.193766
0.016504 0.0201901 0.194285
0.0202136 0.0203933 0.194898
0.024376 0.0207019 0.196992
0.028432 0.0202436 0.198207
0.0323672 0.0202509 0.198018
0.0365873 0.0206284 0.199303
0.0411973 0.0199547 0.199038
0.044497 0.0204679 0.198557
0.0484144 0.0210128 0.199508
0.0526025 0.0204671 0.199307
0.0567835 0.0202503 0.198887
0.0609701 0.0207979 0.19951
0.0647121 0.0200743 0.198458
0.0689161 0.0200783 0.199201
0.0732841 0.0205128 0.198973
0.0769832 0.0202857 0.199198
0.0817139 0.020346 0.197485
0.0851749 0.020138 0.197486
0.0895353 0.0199678 0.196206
0.0936648 0.0198857 0.195247
0.0978142 0.0202905 0.193297
0.101943 0.0201291 0.192146
0.105909 0.0201511 0.190174
0.110652 0.0206283 0.186175
0.114462 0.0202994 0.183485
0.11899 0.0206358 0.180502
0.123362 0.0203338 0.176207
0.127725 0.0207676 0.171856
0.132124 0.0204909 0.167773
0.136638 0.0208259 0.16167
0.14149 0.0209344 0.156143
0.145939 0.0210177 0.154753
0.150335 0.0205738 0.152266
0.154548 0.0208727 0.148831
0.15929 0.0209704 0.138766
0.164293 0.0211322 0.133334
0.168524 0.0212228 0.129545
0.173309 0.0206523 0.124275
0.178448 0.0210034 0.118964
0.183016 0.0212996 0.112888
0.188617 0.0211703 0.101173
-0.0601962 0.0258946 0.0857123
-0.0538736 0.0256024 0.138665
-0.0500589 0.0248616 0.145644
-0.0456834 0.0245062 0.152372
-0.0419124 0.0250972 0.15881
-0.0373769 0.0249892 0.164231
-0.0331654 0.0249372 0.16972
-0.028854 0.0244179 0.173602
-0.0245267 0.0245087 0.176859
-0.0208481 0.0245133 0.178777
-0.0163825 0.0242806 0.181784
-0.0119298 0.0243738 0.184124
-0.0083608 0.0242384 0.185652
-0.00442296 0.0247479 0.186941
-3.45428e-06 0.0245087 0.188964
0.0043616 0.0246656 0.189622
0.00887161 0.0245017 0.191176
0.0123668 0.0247632 0.193617
0.0164586 0.024451 0.194691
0.0204084 0.0244392 0.195292
0.0242959 0.0243836 0.196063
0.0282082 0.0241217 0.197093
0.0321363 0.024437 0.198024
0.0365401 0.0245605 0.19929
0.0404736 0.0244264 0.198697
0.0445204 0.0244955 0.200183
0.0487608 0.0244785 0.201085
0.0523757 0.0246008 0.20047
0.0566842 0.0244705 0.201487
0.0605676 0.024119 0.201234
0.065117 0.0243694 0.200941
0.0692133 0.0243428 0.200194
0.0729368 0.024307 0.200623
0.0772306 0.0244174 0.200087
0.0814103 0.0245756 0.199661
0.0851696 0.0244486 0.199296
0.0893605 0.0240382 0.19728
0.0937022 0.0241454 0.197217
0.0977314 0.0242969 0.194374
0.101534 0.0245314 0.191811
0.106132 0.0242284 0.190872
0.110596 0.0244678 0.187857
0.114389 0.0244561 0.184968
0.119057 0.0243615 0.181277
0.123136 0.0243581 0.177299
0.127811 0.0246906 0.172725
0.132474 0.0248884 0.167836
0.136673 0.024564 0.162379
0.14111 0.0248449 0.159392
0.145526 0.0249187 0.15758
0.149722 0.0252177 0.156033
0.153928 0.0247264 0.152782
0.158733 0.0250168 0.146131
0.164094 0.0253828 0.133977
0.168922 0.0250268 0.129358
0.1737 0.0250592 0.123709
0.178276 0.0253675 0.119825
0.18279 0.0254451 0.113576
0.188232 0.0256797 0.103591
-0.0546364 0.0296307 0.137123
-0.0499271 0.0289271 0.144093
-0.0460188 0.0291601 0.147746
-0.0415733 0.029323 0.154443
-0.0373993 0.0292184 0.161593
-0.0328864 0.0284785 0.165945
-0.0286494 0.028486 0.170864
-0.0247633 0.0288357 0.172902
-0.0207836 0.028986 0.175709
-0.0163282 0.0288531 0.177705
-0.0123556 0.0287793 0.180979
-0.00832275 0.0284391 0.183004
-0.00366505 0.0288541 0.184977
-0.000163149 0.0285481 0.187293
0.00398659 0.0284253 0.188312
0.00784123 0.0283835 0.190952
0.012299 0.0284536 0.192031
0.0163912 0.0284718 0.193082
0.0203433 0.0282888 0.194656
0.0243246 0.0285327 0.196185
0.0282092 0.0286233 0.197252
0.0327333 0.0282594 0.198628
0.0362757 0.028357 0.199358
0.0405939 0.0284232 0.200492
0.0446113 0.0285809 0.201221
0.0488822 0.0285713 0.202094
0.0526562 0.0283374 0.203077
0.0569688 0.0285024 0.20306
0.0609582 0.0283437 0.202868
0.0651296 0.0285636 0.201985
0.0690778 0.0286805 0.201833
0.0729692 0.028345 0.201687
0.0770797 0.0280618 0.200214
0.0811549 0.0283515 0.199818
0.0850247 0.0288276 0.199068
0.0894276 0.0283333 0.198843
0.0933041 0.0283127 0.196081
0.0981049 0.0284513 0.194011
0.101681 0.0284255 0.193117
0.105993 0.0284349 0.190422
0.110493 0.0284064 0.188282
0.114408 0.0282597 0.18626
0.118828 0.0281297 0.181888
0.12359 0.0286151 0.177572
0.127569 0.0289117 0.173756
0.132263 0.0285164 0.168241
0.136601 0.0289309 0.164386
0.140607 0.0291279 0.161677
0.144859 0.0289912 0.160882
0.148958 0.029419 0.160052
0.154086 0.0289504 0.153654
0.158808 0.0290972 0.149679
0.163174 0.0295509 0.141662
0.168753 0.0297277 0.127976
0.173724 0.0295304 0.122772
0.178238 0.0299309 0.11915
0.182848 0.0298069 0.114496
0.187676 0.0301469 0.105619
-0.0543541 0.0333473 0.136462
-0.0503561 0.0337326 0.141095
-0.0460037 0.0333366 0.144882
-0.0416035 0.0338595 0.150929
-0.0373188 0.0332338 0.156744
-0.0332896 0.0330136 0.162323
-0.0291363 0.0329128 0.167434
-0.0252623 0.0330904 0.170179
-0.0208627 0.0332172 0.173757
-0.0163404 0.0327258 0.177654
-0.0123901 0.0326731 0.180467
-0.00805557 0.0328379 0.182392
-0.00405534 0.0331565 0.184317
-7.41926e-05 0.0323815 0.185502
0.0042255 0.0328452 0.188013
0.00823016 0.0327308 0.190406
0.012457 0.0326155 0.192467
0.0158779 0.0324554 0.193695
0.0206939 0.0323428 0.196188
0.0245181 0.0326345 0.19729
0.0281955 0.0327954 0.197786
0.0323394 0.0321456 0.199695
0.0363482 0.0325183 0.200542
0.040677 0.0323295 0.201891
0.0444688 0.0324256 0.201687
0.0484051 0.0322367 0.202404
0.0527006 0.0324052 0.20288
0.0568861 0.0323907 0.202566
0.0608587 0.0329369 0.20289
0.0647641 0.0321133 0.202659
0.0690613 0.0321754 0.201291
0.0728455 0.0322889 0.200378
0.077358 0.032344 0.199418
0.0810553 0.0325383 0.200172
0.0856691 0.0327908 0.199148
0.0894225 0.0324585 0.197062
0.0933614 0.0325178 0.195581
0.0977569 0.0327634 0.193318
0.101757 0.032949 0.193227
0.106144 0.0324951 0.189851
0.110197 0.0324991 0.188207
0.114369 0.0329146 0.185256
0.119011 0.0329927 0.180877
0.123359 0.032902 0.177244
0.127503 0.0331995 0.173464
0.132138 0.0326944 0.168567
0.136687 0.033261 0.165075
0.140701 0.0329644 0.164953
0.145201 0.0329729 0.163064
0.149324 0.0332834 0.161525
0.154015 0.0334132 0.15437
0.158758 0.0337764 0.149079
0.163385 0.0333666 0.145504
0.168838 0.03362 0.128655
0.173679 0.0340099 0.122968
0.178124 0.0337726 0.118876
0.182702 0.0344697 0.114856
0.188218 0.034359 0.106862
-0.0548291 0.0375528 0.133649
-0.0500497 0.0377708 0.1397
-0.0463798 0.0376828 0.143389
-0.0419234 0.0377135 0.148249
-0.0374339 0.0373936 0.15585
-0.0330168 0.0372078 0.16175
-0.0290027 0.0370844 0.165504
-0.0247714 0.0374063 0.169957
-0.0205702 0.0373808 0.173396
-0.0162892 0.0366717 0.176435
-0.0123855 0.0368614 0.178899
-0.00820781 0.0367265 0.182842
-0.00385316 0.0368061 0.18504
0.000230653 0.0369493 0.186634
0.00410305 0.0366807 0.18905
0.00808961 0.036772 0.19159
0.0122937 0.0365314 0.193917
0.0162647 0.0367286 0.195025
0.0202766 0.0362799 0.19628
0.0244599 0.0367264 0.197449
0.0284545 0.0364056 0.199094
0.0324441 0.0365745 0.199932
0.0367841 0.0363918 0.200135
0.0404039 0.0366531 0.201023
0.0449297 0.0361055 0.201446
0.0485731 0.036774 0.201803
0.0523276 0.0365428 0.201585
0.0566464 0.0366853 0.203093
0.0606056 0.0362505 0.202199
0.0649829 0.0366159 0.201008
0.0692543 0.0367202 0.201097
0.072506 0.0363676 0.20178
0.0768595 0.0364607 0.200356
0.0810527 0.0362819 0.199691
0.08516 0.0364198 0.197932
