ply
format ascii 1.0
element vertex 1638
property float x
property float y
property float z
end_header
0.143462 -0.234183 0.178361
0.148883 -0.235617 0.16783
-0.273967 -0.260414 -0.0602193
-0.269121 -0.259571 -0.0547371
-0.263631 -0.259196 -0.0509131
-0.258517 -0.258442 -0.0463088
-0.253646 -0.25812 -0.0438626
-0.248455 -0.257607 -0.0408878
-0.24322 -0.25722 -0.0364578
-0.238776 -0.257291 -0.0361814
-0.234192 -0.256927 -0.0346463
-0.228735 -0.256738 -0.0321696
-0.224321 -0.256522 -0.0297875
-0.219888 -0.25633 -0.029789
-0.214988 -0.256259 -0.0289884
-0.21022 -0.25597 -0.0288749
-0.205662 -0.25613 -0.0305114
-0.201553 -0.256725 -0.0309238
-0.196916 -0.256964 -0.0320799
-0.192911 -0.256672 -0.0322416
-0.187824 -0.256599 -0.0318081
-0.183834 -0.256886 -0.0336981
-0.17871 -0.257284 -0.0350618
-0.174251 -0.257208 -0.0367725
-0.169915 -0.257062 -0.0388503
-0.165831 -0.257937 -0.0421467
-0.161432 -0.258226 -0.0459759
-0.157011 -0.258938 -0.0499425
-0.152908 -0.259381 -0.0537195
-0.148679 -0.260171 -0.0591171
-0.144767 -0.262285 -0.0751591
-0.141074 -0.263048 -0.0848942
-9.85492e-05 -0.22841 0.191049
0.00399244 -0.227786 0.197277
0.00815844 -0.22708 0.202785
0.0126358 -0.226717 0.207004
0.0159267 -0.226015 0.209648
0.0203013 -0.226168 0.212268
0.0241539 -0.225675 0.213988
0.0280198 -0.225404 0.215472
0.0321421 -0.225278 0.217054
0.0357994 -0.225389 0.217721
0.0402584 -0.224934 0.218657
0.0439026 -0.224635 0.219417
0.0482712 -0.224665 0.218709
0.0518196 -0.224491 0.218891
0.0560309 -0.224633 0.218855
0.060067 -0.224896 0.21771
0.0641558 -0.225674 0.216767
0.0683037 -0.225419 0.21677
0.0725666 -0.225218 0.215671
0.0767179 -0.225392 0.214629
0.0804862 -0.225426 0.212363
0.0844654 -0.226076 0.211693
0.0887717 -0.226384 0.208746
0.09311 -0.22643 0.206877
0.0971477 -0.22725 0.204991
0.101145 -0.22692 0.202965
0.10564 -0.227216 0.200485
0.109905 -0.227904 0.197263
0.11416 -0.227883 0.194988
0.118371 -0.228463 0.1913
0.122448 -0.2288 0.188104
0.126678 -0.229182 0.185574
0.131123 -0.229229 0.183617
0.135335 -0.229676 0.182683
0.139626 -0.229783 0.181337
0.143807 -0.229975 0.177057
0.1487 -0.231315 0.167627
-0.275096 -0.256545 -0.0688369
-0.269602 -0.255172 -0.0601907
-0.264036 -0.254632 -0.0541551
-0.258829 -0.254258 -0.0508273
-0.253697 -0.253833 -0.0476782
-0.248917 -0.253564 -0.044136
-0.244411 -0.253389 -0.0418615
-0.23938 -0.252904 -0.0384159
-0.234653 -0.252472 -0.0374391
-0.229379 -0.252472 -0.0343158
-0.224977 -0.251912 -0.0323913
-0.220037 -0.25204 -0.0317006
-0.215441 -0.251673 -0.0325084
-0.210865 -0.251735 -0.0341196
-0.206249 -0.252317 -0.034528
-0.201952 -0.252142 -0.034049
-0.197583 -0.252246 -0.0355735
-0.192438 -0.252345 -0.0353882
-0.187918 -0.252192 -0.0355821
-0.183622 -0.252713 -0.0366778
-0.179289 -0.252948 -0.0380008
-0.174828 -0.253202 -0.0400598
-0.170445 -0.25313 -0.0427225
-0.166255 -0.253232 -0.0456104
-0.162025 -0.254168 -0.0493207
-0.157342 -0.255164 -0.0529015
-0.153334 -0.255715 -0.0573685
-0.149532 -0.256142 -0.0663543
-0.145338 -0.257623 -0.0784445
-0.141472 -0.258957 -0.0875726
0.000190092 -0.224347 0.189999
0.004214 -0.223482 0.197646
0.00832393 -0.222793 0.203412
0.0118548 -0.222538 0.207161
0.0161748 -0.222207 0.209786
0.0201073 -0.221764 0.21155
0.0243039 -0.221885 0.213858
0.0282175 -0.221187 0.215336
0.0321633 -0.221419 0.216635
0.0362364 -0.221107 0.21613
0.0399684 -0.220907 0.217653
0.044367 -0.221155 0.218533
0.048201 -0.220799 0.218347
0.0521814 -0.221552 0.218527
0.0560098 -0.221236 0.218054
0.0604281 -0.221227 0.216778
0.0645203 -0.220992 0.217481
0.0685746 -0.22129 0.215951
0.0724564 -0.221484 0.214249
0.0763153 -0.221251 0.213866
0.0804388 -0.221596 0.212171
0.0847736 -0.221814 0.209884
0.0889204 -0.222255 0.207449
0.0929339 -0.223198 0.205253
0.0973671 -0.222619 0.203825
0.10161 -0.223034 0.200872
0.105736 -0.223452 0.19879
0.109796 -0.223052 0.196101
0.114161 -0.22432 0.194405
0.118112 -0.223992 0.191287
0.122572 -0.224903 0.18627
0.127247 -0.225326 0.184681
0.130909 -0.225217 0.182856
0.135389 -0.225092 0.181692
0.139523 -0.226186 0.179674
0.144137 -0.226328 0.176236
0.148965 -0.22749 0.165464
-0.270148 -0.251698 -0.0671406
-0.265003 -0.250401 -0.0596282
-0.259061 -0.250522 -0.0544853
-0.254658 -0.249781 -0.0518122
-0.249302 -0.24936 -0.0484633
-0.244154 -0.248631 -0.0441816
-0.238912 -0.24869 -0.0402613
-0.235045 -0.248638 -0.0405004
-0.229439 -0.248023 -0.036752
-0.224969 -0.247631 -0.0357223
-0.220336 -0.247924 -0.0344718
-0.215572 -0.248074 -0.0344996
-0.211504 -0.247849 -0.0369265
-0.206727 -0.247989 -0.0365386
-0.202153 -0.24827 -0.0376995
-0.197529 -0.248002 -0.0389049
-0.193355 -0.248079 -0.0388129
-0.188658 -0.248283 -0.0389295
-0.183818 -0.248247 -0.040334
-0.179618 -0.248906 -0.0422525
-0.175184 -0.249017 -0.0452471
-0.170431 -0.249416 -0.0477438
-0.166592 -0.249566 -0.0504076
-0.162285 -0.250376 -0.055969
-0.15753 -0.251137 -0.0609124
-0.153702 -0.251722 -0.0677817
-0.149641 -0.252745 -0.0738854
-0.145603 -0.254397 -0.084219
0.000134983 -0.220788 0.188288
0.00414716 -0.220078 0.19672
0.00805525 -0.218905 0.200853
0.0122254 -0.218478 0.206535
0.0158667 -0.218242 0.209126
0.020332 -0.218267 0.21157
0.0244761 -0.217432 0.213111
0.0280053 -0.217409 0.21431
0.0322807 -0.217442 0.215141
0.0362727 -0.217165 0.216509
0.0402313 -0.216835 0.218176
0.0441609 -0.217218 0.217242
0.0483032 -0.217176 0.21785
0.0520794 -0.217126 0.217663
0.0563656 -0.217161 0.216904
0.060566 -0.217187 0.216843
0.0643538 -0.216819 0.216229
0.0684224 -0.217358 0.215049
0.0725263 -0.217517 0.214448
0.0765231 -0.217875 0.211482
0.0806032 -0.2179 0.210779
0.0850187 -0.218413 0.208951
0.0890164 -0.218084 0.206284
0.0929457 -0.218848 0.205439
0.0968846 -0.218721 0.203744
0.101492 -0.21885 0.201178
0.105862 -0.218915 0.198741
0.109591 -0.219106 0.197705
0.114168 -0.220169 0.194573
0.118501 -0.220357 0.191394
0.123114 -0.221035 0.185252
0.126933 -0.221455 0.18402
0.131224 -0.221447 0.181263
0.135005 -0.221643 0.180342
0.139377 -0.221792 0.177673
0.144168 -0.222387 0.173856
0.149499 -0.224086 0.160469
-0.291035 -0.208739 0.255948
-0.28733 -0.20868 0.254641
-0.272951 -0.249108 -0.0860043
-0.265041 -0.24703 -0.0660172
-0.259687 -0.246126 -0.0593412
-0.254657 -0.246083 -0.0551097
-0.249986 -0.244923 -0.0519493
-0.244806 -0.244557 -0.0480723
-0.239925 -0.244657 -0.0448694
-0.234661 -0.244398 -0.0420527
-0.230087 -0.244036 -0.0392182
-0.225526 -0.243362 -0.0385323
-0.220616 -0.243852 -0.0379581
-0.21644 -0.243518 -0.0387831
-0.211456 -0.243871 -0.0396497
-0.207087 -0.244043 -0.0393269
-0.202966 -0.243717 -0.0410876
-0.198169 -0.243912 -0.0418406
-0.193444 -0.244386 -0.041373
-0.188869 -0.244523 -0.0437703
-0.184574 -0.24468 -0.0448532
-0.180426 -0.244952 -0.0474761
-0.175758 -0.245739 -0.0492215
-0.171532 -0.245322 -0.0544333
-0.167254 -0.245936 -0.05814
-0.162736 -0.246535 -0.0632162
-0.158903 -0.247178 -0.0680783
-0.154484 -0.248181 -0.0762675
-0.150506 -0.249304 -0.0862739
-0.146844 -0.250293 -0.0925963
-0.000126063 -0.216787 0.186124
0.00368494 -0.215526 0.193787
0.00851488 -0.214825 0.20153
0.0121625 -0.214445 0.204929
0.0161486 -0.214318 0.208976
0.020269 -0.214077 0.210262
0.023883 -0.21377 0.211089
0.0281077 -0.213531 0.213741
0.0322294 -0.213377 0.215187
0.0362549 -0.213011 0.215187
0.0402664 -0.213538 0.216327
0.0440319 -0.213203 0.215924
0.0482448 -0.212907 0.217262
0.05246 -0.213134 0.216637
0.0563441 -0.213329 0.215863
0.0603557 -0.213301 0.216349
0.0642518 -0.213311 0.214986
0.0683652 -0.213721 0.213897
0.0727234 -0.213592 0.212815
0.0762885 -0.213626 0.212249
0.0809476 -0.214183 0.209784
0.0847202 -0.214098 0.208178
0.089037 -0.214186 0.206094
0.093345 -0.214544 0.205383
0.0971194 -0.214794 0.202621
0.101258 -0.215079 0.200452
0.105633 -0.215405 0.198675
0.109866 -0.215843 0.196757
0.114321 -0.21571 0.193315
0.118322 -0.216271 0.190421
0.122368 -0.216336 0.187675
0.126928 -0.216854 0.184593
0.13101 -0.217631 0.180726
0.135966 -0.21759 0.176755
0.139869 -0.218052 0.175025
0.144298 -0.218576 0.171422
0.149587 -0.220483 0.156235
-0.295395 -0.204364 0.253633
-0.291055 -0.204325 0.255744
-0.286602 -0.20427 0.257648
-0.283306 -0.204527 0.255379
-0.26678 -0.243687 -0.0768437
-0.260304 -0.241991 -0.0652204
-0.255736 -0.241399 -0.0599267
-0.250387 -0.24114 -0.0575976
-0.245564 -0.24058 -0.0524573
-0.24042 -0.240536 -0.0495756
-0.235422 -0.240135 -0.0462661
-0.230521 -0.239812 -0.0433137
-0.22572 -0.239863 -0.0425982
-0.221343 -0.23987 -0.0433705
-0.216656 -0.239935 -0.042923
-0.211845 -0.239337 -0.0427275
-0.207507 -0.239842 -0.0431011
-0.202365 -0.239892 -0.0438759
-0.198325 -0.240061 -0.0450542
-0.193943 -0.239892 -0.0462382
-0.189157 -0.240103 -0.0479791
-0.184692 -0.240863 -0.0500023
-0.18033 -0.240702 -0.0524845
-0.176333 -0.240948 -0.0554824
-0.171726 -0.24135 -0.0582879
-0.167615 -0.241534 -0.0597622
-0.162985 -0.242629 -0.0654933
-0.159068 -0.243158 -0.0712852
-0.154746 -0.244371 -0.080709
-0.151013 -0.245094 -0.0901885
-0.147608 -0.247323 -0.107098
-3.34854e-05 -0.21219 0.18777
0.00420739 -0.211849 0.195413
0.00831699 -0.211045 0.198792
0.0122755 -0.210261 0.203828
0.0158475 -0.210672 0.206107
0.0198641 -0.210063 0.208565
0.0243218 -0.209853 0.210819
0.0281762 -0.209898 0.211985
0.0324107 -0.209459 0.214281
0.0364985 -0.209488 0.215719
0.0402163 -0.209056 0.215657
0.0444514 -0.209291 0.2165
0.0485042 -0.209082 0.215374
0.0520278 -0.208847 0.215141
0.0563343 -0.209081 0.215526
0.0601159 -0.209344 0.214641
0.0645982 -0.209957 0.213467
0.0685729 -0.209278 0.213517
0.0725116 -0.210075 0.211934
0.0764281 -0.210247 0.210657
0.0808479 -0.209909 0.20928
0.084936 -0.210855 0.205814
0.0890663 -0.210476 0.205201
0.0930609 -0.210761 0.204116
0.0971354 -0.210804 0.203009
0.101596 -0.210806 0.200534
0.10561 -0.211435 0.198112
0.1098 -0.211302 0.197236
0.114632 -0.21197 0.193468
0.117898 -0.212109 0.191401
0.122364 -0.212652 0.187083
0.127101 -0.212939 0.184175
0.131243 -0.213458 0.179236
0.135855 -0.213769 0.175781
0.13999 -0.214375 0.173139
0.145123 -0.215565 0.162824
-0.29475 -0.200586 0.254243
-0.290771 -0.200563 0.256395
-0.286989 -0.200263 0.258188
-0.282777 -0.200212 0.258296
-0.279164 -0.200546 0.256388
-0.261944 -0.238804 -0.0753374
-0.256604 -0.237652 -0.0665612
-0.251312 -0.237121 -0.0623412
-0.246135 -0.236679 -0.0580845
-0.241012 -0.23634 -0.0553834
-0.236113 -0.235987 -0.0533154
-0.231221 -0.23548 -0.0509396
-0.226233 -0.235458 -0.049582
-0.22157 -0.235495 -0.0468628
-0.217135 -0.234958 -0.0470612
-0.212559 -0.235455 -0.0470273
-0.207451 -0.235097 -0.0456207
-0.203053 -0.235787 -0.046073
-0.1986 -0.235416 -0.0477276
-0.193684 -0.235428 -0.0480638
-0.18934 -0.235594 -0.0505879
-0.18527 -0.236075 -0.0514021
-0.180503 -0.235936 -0.0535657
-0.176077 -0.23616 -0.0551927
-0.171368 -0.236536 -0.0566413
-0.167589 -0.236978 -0.059798
-0.162718 -0.237236 -0.0639927
-0.158653 -0.237494 -0.0699301
-0.154611 -0.239259 -0.0783341
-0.150756 -0.240686 -0.0896456
-0.00384159 -0.209667 0.177386
9.98426e-05 -0.207951 0.191057
0.00428334 -0.207132 0.196584
0.00809592 -0.207128 0.200489
0.0121914 -0.207061 0.20319
0.0160903 -0.206208 0.206335
0.0201427 -0.205823 0.209291
0.0243143 -0.205884 0.212155
0.0278602 -0.20573 0.212663
0.0320219 -0.205087 0.214917
0.0362651 -0.205195 0.216716
0.0400331 -0.205225 0.216256
0.0443585 -0.204989 0.216089
0.0483271 -0.205267 0.215948
0.0524108 -0.204952 0.216733
0.0561418 -0.205306 0.215505
0.0607068 -0.205271 0.214758
0.0645253 -0.205465 0.214318
0.0683073 -0.205879 0.21362
0.0727107 -0.205576 0.212579
0.0766691 -0.20589 0.211261
0.0808059 -0.205997 0.209065
0.0849662 -0.206371 0.20694
0.0888852 -0.205912 0.206869
0.0928383 -0.206507 0.206972
0.0976361 -0.206248 0.204939
0.101127 -0.207045 0.203755
0.105499 -0.206845 0.20114
0.109458 -0.207662 0.199271
0.113827 -0.207372 0.196691
0.11876 -0.207895 0.191906
0.122692 -0.208289 0.188352
0.126843 -0.208675 0.185109
0.131121 -0.209296 0.179189
0.13636 -0.210198 0.171946
0.140541 -0.210773 0.167546
0.14554 -0.212626 0.153387
-0.295367 -0.197431 0.253294
-0.290888 -0.197182 0.256347
-0.286185 -0.196459 0.259416
-0.282722 -0.196461 0.258845
-0.278729 -0.196387 0.25793
-0.275207 -0.196653 0.257243
-0.256717 -0.234261 -0.0743103
-0.251566 -0.233115 -0.0692699
-0.246873 -0.232893 -0.0646317
-0.241766 -0.232143 -0.0618923
-0.236623 -0.232217 -0.0588775
-0.231442 -0.232382 -0.0575216
-0.227326 -0.231449 -0.0552897
-0.222499 -0.231425 -0.0531096
-0.217646 -0.23087 -0.0520511
-0.212859 -0.231269 -0.0501776
-0.207806 -0.230958 -0.0489173
-0.203117 -0.230868 -0.0473683
-0.199128 -0.230635 -0.0486135
-0.19413 -0.231145 -0.0495861
-0.189405 -0.231274 -0.0504394
-0.185317 -0.2308 -0.0513017
-0.180466 -0.231548 -0.0526607
-0.175992 -0.231426 -0.0535452
-0.171586 -0.231433 -0.0545907
-0.167183 -0.232124 -0.0592299
-0.162968 -0.232882 -0.061924
-0.158539 -0.233527 -0.0683379
-0.154461 -0.234534 -0.0766466
-0.150473 -0.235529 -0.0862007
-0.146876 -0.236755 -0.100719
-0.00852959 -0.205942 0.171258
-0.00419059 -0.204376 0.185266
3.35786e-05 -0.203491 0.194371
0.00420842 -0.202991 0.199112
0.00785841 -0.203116 0.201334
0.0120643 -0.202105 0.204326
0.0162286 -0.202145 0.207824
0.020212 -0.20191 0.210947
0.024406 -0.201173 0.214004
0.0279138 -0.201253 0.214961
0.0320316 -0.201391 0.217052
0.036326 -0.200864 0.217591
0.0405303 -0.201099 0.217413
0.0443196 -0.201143 0.216969
0.0478749 -0.201065 0.217195
0.0519871 -0.200753 0.218256
0.0562136 -0.201108 0.217269
0.0607163 -0.201191 0.217265
0.064338 -0.201574 0.215362
0.0686489 -0.201372 0.215173
0.0723993 -0.201432 0.214109
0.0764649 -0.200958 0.215677
0.0804914 -0.201561 0.212461
0.0848164 -0.202156 0.209976
0.0887567 -0.202164 0.209659
0.0925411 -0.202186 0.209013
0.0966742 -0.202176 0.209397
0.101123 -0.202474 0.207777
0.105566 -0.202123 0.205653
0.109325 -0.202422 0.203549
0.113317 -0.202579 0.201134
0.117898 -0.203249 0.195723
0.122229 -0.203758 0.192526
0.126994 -0.204294 0.188296
0.130909 -0.204836 0.183861
0.136214 -0.206166 0.169573
0.141064 -0.207456 0.159122
-0.296072 -0.19315 0.24933
-0.290915 -0.192788 0.256706
-0.286598 -0.192703 0.258146
-0.282673 -0.192048 0.259316
-0.278695 -0.192234 0.259155
-0.27479 -0.192606 0.258845
-0.271493 -0.192375 0.257421
-0.268026 -0.193217 0.251769
-0.254193 -0.230141 -0.0836191
-0.24741 -0.229595 -0.0735888
-0.242906 -0.228985 -0.0720861
-0.237822 -0.228528 -0.068532
-0.232975 -0.228141 -0.0645559
-0.22736 -0.227482 -0.0595152
-0.222191 -0.227319 -0.0559509
-0.217057 -0.226634 -0.0524523
-0.212862 -0.226597 -0.0510619
-0.207806 -0.226025 -0.048841
-0.202854 -0.226287 -0.0476344
-0.198912 -0.226172 -0.0483291
-0.193782 -0.226096 -0.047729
-0.188949 -0.226413 -0.0467401
-0.184938 -0.226795 -0.0492067
-0.1803 -0.226365 -0.0501356
-0.175755 -0.226878 -0.0518067
-0.171398 -0.227043 -0.0540595
-0.167517 -0.227676 -0.057188
-0.162774 -0.227818 -0.0620177
-0.159208 -0.228764 -0.0673802
-0.154411 -0.229567 -0.075865
-0.150351 -0.23038 -0.0843053
-0.146937 -0.231894 -0.0986311
-0.00814239 -0.201094 0.179162
-0.00397953 -0.199437 0.191617
-0.000110967 -0.199117 0.196005
0.00404085 -0.199104 0.200983
0.00799888 -0.198679 0.203784
0.0117314 -0.197892 0.205766
0.016071 -0.198062 0.209556
0.0202471 -0.197396 0.212087
0.0239604 -0.197175 0.21511
0.0280288 -0.196914 0.216605
0.0320397 -0.19703 0.217538
0.0358122 -0.197081 0.2178
0.0403007 -0.196703 0.218969
0.0444091 -0.196518 0.218102
0.0481164 -0.196326 0.219261
0.0520769 -0.196485 0.219885
0.0560078 -0.196797 0.219408
0.0603787 -0.196634 0.219683
0.0643905 -0.19693 0.217362
0.0683671 -0.197418 0.217412
0.0721885 -0.196943 0.217445
0.0760617 -0.197028 0.217568
0.0806982 -0.197207 0.215193
0.0844161 -0.197278 0.213714
0.0888359 -0.19717 0.21191
0.0932875 -0.197635 0.212938
0.0965416 -0.197636 0.212509
0.10092 -0.197747 0.210214
0.105223 -0.197656 0.209084
0.10914 -0.197939 0.206814
0.113163 -0.198924 0.202174
0.117823 -0.199078 0.198527
0.12217 -0.199436 0.195071
0.126597 -0.199673 0.190995
0.130703 -0.200131 0.186792
0.135561 -0.201908 0.175766
-0.291258 -0.188348 0.256226
-0.286586 -0.188355 0.258422
-0.282884 -0.188514 0.25879
-0.278724 -0.188503 0.258868
-0.274778 -0.188484 0.259543
-0.271035 -0.188635 0.257457
-0.267668 -0.189101 0.254825
-0.264368 -0.189511 0.249625
-0.249872 -0.226188 -0.0912199
-0.244505 -0.225343 -0.0832684
-0.238802 -0.224667 -0.074012
-0.232891 -0.2239 -0.0671353
-0.227542 -0.223107 -0.0599167
-0.222609 -0.222489 -0.0575237
-0.217394 -0.222046 -0.0526767
-0.21266 -0.221676 -0.051476
-0.207963 -0.221836 -0.049804
-0.203361 -0.221703 -0.0483813
-0.199149 -0.221548 -0.048398
-0.193896 -0.221782 -0.0461512
-0.189166 -0.221449 -0.0438087
-0.183947 -0.2209 -0.0441897
-0.179526 -0.221156 -0.0448527
-0.175312 -0.221503 -0.0484309
-0.171499 -0.222133 -0.0516496
-0.16687 -0.22279 -0.0556338
-0.162379 -0.223142 -0.06023
-0.158324 -0.223853 -0.0646191
-0.154007 -0.224589 -0.0720479
-0.150378 -0.225418 -0.0807614
-0.146759 -0.227349 -0.09705
-0.00842323 -0.196965 0.180341
-0.00384798 -0.195738 0.193158
-8.48445e-05 -0.195127 0.198159
0.00410488 -0.194584 0.201398
0.007872 -0.194567 0.204348
0.0121087 -0.193889 0.208071
0.0163159 -0.193741 0.21139
0.0200662 -0.193236 0.214673
0.0244013 -0.193153 0.216294
0.0281651 -0.192943 0.217252
0.0320192 -0.193013 0.217901
0.0363362 -0.192978 0.219067
0.0402468 -0.19289 0.218616
0.0443554 -0.192989 0.218494
0.048055 -0.192216 0.220088
0.0525572 -0.192488 0.221276
0.056112 -0.193013 0.220617
0.0599973 -0.192777 0.219091
0.0642333 -0.192582 0.218743
0.0683 -0.192774 0.219256
0.0721808 -0.192711 0.219867
0.0761556 -0.192664 0.219038
0.0804243 -0.192684 0.217651
0.0848353 -0.192921 0.216184
0.0883552 -0.193166 0.215571
0.0926767 -0.193255 0.214654
0.0964854 -0.193196 0.215543
0.100993 -0.193101 0.213367
0.10472 -0.193771 0.211867
0.108895 -0.193695 0.209591
0.113294 -0.194258 0.205377
0.117832 -0.194616 0.201838
0.121916 -0.195155 0.199703
0.125977 -0.195199 0.195185
0.130629 -0.196116 0.188842
0.134996 -0.196448 0.183211
0.140224 -0.198191 0.168104
-0.291217 -0.184972 0.254908
-0.287311 -0.184871 0.256305
-0.283205 -0.18443 0.257167
-0.279045 -0.184892 0.258034
-0.274984 -0.184675 0.25853
-0.270704 -0.184419 0.258781
-0.267295 -0.184766 0.256688
-0.264111 -0.184844 0.254043
-0.244576 -0.221738 -0.087738
-0.239226 -0.219885 -0.0763068
-0.233184 -0.219049 -0.06721
-0.227839 -0.218275 -0.0610147
-0.222535 -0.217983 -0.0574911
-0.217633 -0.217248 -0.0543501
-0.213235 -0.217487 -0.052738
-0.207945 -0.217338 -0.0500264
-0.203442 -0.217122 -0.0478868
-0.197701 -0.216882 -0.0454235
-0.193348 -0.216652 -0.0405943
-0.188492 -0.2163 -0.0390198
-0.184036 -0.215983 -0.0393875
-0.179786 -0.216071 -0.0407717
-0.175023 -0.21649 -0.0428529
-0.170519 -0.21611 -0.0438707
-0.166821 -0.217536 -0.0519571
-0.162189 -0.217953 -0.0561874
-0.158362 -0.218476 -0.0614214
-0.153778 -0.219144 -0.0680172
-0.149795 -0.220281 -0.0773296
-0.14619 -0.221621 -0.0906157
-0.0121396 -0.193892 0.172778
-0.00808098 -0.192232 0.186998
-0.00379198 -0.191139 0.195619
2.08146e-05 -0.191085 0.199945
0.00434927 -0.190292 0.203008
0.00805002 -0.19043 0.206082
0.0120627 -0.189604 0.210144
0.0165756 -0.189207 0.215163
0.020418 -0.18911 0.215531
0.0240749 -0.18937 0.217283
0.027772 -0.188688 0.218378
0.0321636 -0.189014 0.218501
0.036295 -0.188694 0.220027
0.0398597 -0.188647 0.220047
0.0437568 -0.188846 0.220329
0.0479775 -0.188531 0.221843
0.0519809 -0.18852 0.221653
0.0563724 -0.188676 0.221331
0.0601225 -0.188459 0.22055
0.0640611 -0.188504 0.221497
0.0683338 -0.188603 0.221581
0.0721643 -0.188675 0.221835
0.0767256 -0.188435 0.220285
0.0803882 -0.188811 0.218789
0.0846056 -0.188929 0.217672
0.0884462 -0.188954 0.217457
0.0920514 -0.188652 0.21865
0.0964128 -0.188901 0.217451
0.100693 -0.188808 0.2167
0.105002 -0.189449 0.214152
0.108771 -0.189255 0.212853
0.112894 -0.190057 0.208722
0.117196 -0.189872 0.20698
0.121425 -0.19007 0.203698
0.125691 -0.190535 0.200331
0.130467 -0.191736 0.192715
0.13484 -0.191961 0.187641
0.140007 -0.193773 0.171886
-0.291629 -0.181096 0.252183
-0.287499 -0.181213 0.255288
-0.282935 -0.181315 0.25771
-0.278591 -0.180715 0.258077
-0.274661 -0.18051 0.258229
-0.270793 -0.180488 0.258566
-0.266967 -0.1806 0.257491
-0.263802 -0.180998 0.254974
-0.260476 -0.181315 0.252913
-0.238979 -0.215399 -0.0759816
-0.23316 -0.214528 -0.0666888
-0.227544 -0.213676 -0.0612466
-0.222796 -0.213309 -0.0571332
-0.218352 -0.212937 -0.0552247
-0.212813 -0.212427 -0.0519128
-0.207923 -0.212488 -0.0493302
-0.202974 -0.212009 -0.0432184
-0.197497 -0.211626 -0.0374961
-0.192356 -0.211586 -0.0367515
-0.188081 -0.21116 -0.033704
-0.18309 -0.210516 -0.0326173
-0.179144 -0.21113 -0.032213
-0.173904 -0.21047 -0.0302026
-0.169865 -0.21094 -0.0320778
-0.165419 -0.211367 -0.0362778
-0.160907 -0.211334 -0.0362713
-0.156102 -0.211481 -0.0376325
-0.153694 -0.213864 -0.0616183
-0.149307 -0.214698 -0.0709319
-0.145818 -0.215908 -0.0822289
-0.016452 -0.190305 0.164278
-0.0124298 -0.18928 0.177591
-0.00778519 -0.187305 0.193847
-0.00410483 -0.186586 0.19822
8.10013e-05 -0.186293 0.202413
0.00376122 -0.186396 0.204348
0.00795097 -0.185499 0.20951
0.0122341 -0.185178 0.214091
0.0162207 -0.184943 0.216934
0.0203504 -0.184384 0.217893
0.0239191 -0.18463 0.219419
0.0283005 -0.184708 0.2186
0.0324032 -0.184658 0.220145
0.035953 -0.184465 0.221935
0.0397374 -0.184705 0.222188
0.0447399 -0.184156 0.223937
0.0481285 -0.184096 0.224001
0.0523294 -0.184246 0.223143
0.0560375 -0.18422 0.221866
0.0600449 -0.183926 0.223512
0.0642784 -0.18457 0.22328
0.0680832 -0.18381 0.225383
0.0720228 -0.184478 0.224552
0.0761957 -0.184354 0.223391
0.0799031 -0.184481 0.221581
0.0845279 -0.184769 0.220608
0.08793 -0.184531 0.221088
0.0925833 -0.184569 0.220558
0.0962584 -0.184154 0.220361
0.100274 -0.184837 0.218558
0.104932 -0.184848 0.216419
0.108851 -0.18529 0.213433
0.113331 -0.185819 0.209951
0.117271 -0.18605 0.207573
0.121369 -0.186151 0.206221
0.125413 -0.186768 0.202726
0.130435 -0.18704 0.196255
0.134353 -0.187702 0.191995
0.139996 -0.188949 0.177291
-0.28754 -0.17695 0.255347
-0.283183 -0.176845 0.256588
-0.279131 -0.176536 0.257492
-0.275272 -0.177294 0.257059
-0.271496 -0.176746 0.256926
-0.267692 -0.176876 0.256852
-0.263937 -0.177205 0.255721
-0.259777 -0.17703 0.253837
-0.256529 -0.177568 0.250978
-0.252804 -0.178222 0.245732
-0.249493 -0.178487 0.243201
-0.239021 -0.210797 -0.0773277
-0.232887 -0.209873 -0.0677936
-0.228348 -0.209401 -0.0632496
-0.222715 -0.209147 -0.0578771
-0.217467 -0.208267 -0.0519359
-0.212243 -0.207767 -0.0437424
-0.206747 -0.206398 -0.0358155
-0.201285 -0.205976 -0.0316513
-0.196855 -0.206032 -0.0292499
-0.192125 -0.205766 -0.0284367
-0.187537 -0.205969 -0.0289369
-0.183206 -0.206023 -0.0290384
-0.178391 -0.205599 -0.027133
-0.173311 -0.205264 -0.0235834
-0.16864 -0.204725 -0.0208809
-0.165027 -0.205914 -0.0292397
-0.160143 -0.206581 -0.0341716
-0.156139 -0.205982 -0.0329628
-0.151436 -0.206094 -0.0335841
-0.148946 -0.209458 -0.0636301
-0.144827 -0.210253 -0.0720451
-0.141687 -0.212611 -0.0967047
-0.0165806 -0.185621 0.173545
-0.0124918 -0.184198 0.189108
-0.00787246 -0.183049 0.196346
-0.00379967 -0.18246 0.201143
0.000423111 -0.182424 0.20379
0.00397974 -0.181727 0.208024
0.00817838 -0.181443 0.212847
0.0120624 -0.181085 0.215589
0.0161271 -0.181084 0.21779
0.0199923 -0.180629 0.21942
0.0245389 -0.180836 0.220268
0.0281786 -0.180584 0.220373
0.0320341 -0.180501 0.221144
0.0361779 -0.179866 0.223607
0.0403403 -0.180224 0.224595
0.0439048 -0.180016 0.224785
0.0478624 -0.180415 0.2252
0.0523802 -0.179829 0.224574
0.0562296 -0.180923 0.223538
0.0598286 -0.180512 0.225368
0.0640627 -0.179995 0.225371
0.06798 -0.180302 0.225249
0.0719972 -0.180312 0.224296
0.0760462 -0.180282 0.224894
0.0798897 -0.180292 0.22391
0.084432 -0.179966 0.222511
0.0883332 -0.180525 0.221008
0.0919937 -0.18063 0.222202
0.0964582 -0.180734 0.219959
0.100109 -0.180667 0.219234
0.104304 -0.180954 0.216889
0.108726 -0.181647 0.215221
0.113024 -0.181448 0.212304
0.116703 -0.181539 0.209307
0.121344 -0.182147 0.207088
0.126006 -0.182761 0.203536
0.129443 -0.182909 0.199047
0.134923 -0.183093 0.192943
0.139139 -0.183872 0.187598
0.144093 -0.18585 0.171294
-0.288181 -0.173819 0.25073
-0.28335 -0.172912 0.254894
-0.279516 -0.172985 0.254666
-0.275171 -0.172972 0.256942
-0.27128 -0.172986 0.256752
-0.267392 -0.173038 0.257013
-0.263373 -0.173235 0.255068
-0.259691 -0.173126 0.254272
-0.256033 -0.1731 0.252555
-0.252685 -0.173989 0.249583
-0.248927 -0.173281 0.248513
-0.245736 -0.174312 0.244529
-0.24196 -0.17472 0.239815
-0.238506 -0.206065 -0.0784819
-0.233912 -0.205691 -0.0716383
-0.227592 -0.204295 -0.0606742
-0.221572 -0.203662 -0.0482109
-0.216151 -0.202424 -0.0388305
-0.211487 -0.202029 -0.0361946
-0.206467 -0.201764 -0.0312428
-0.200766 -0.201093 -0.026005
-0.196086 -0.200981 -0.02213
-0.191811 -0.20054 -0.0207567
-0.186798 -0.200547 -0.0208898
-0.182373 -0.200521 -0.0204258
-0.177316 -0.200696 -0.0191636
-0.172642 -0.200146 -0.0172777
-0.168017 -0.200193 -0.016057
-0.163929 -0.200499 -0.0173275
-0.159165 -0.200584 -0.0191262
-0.155639 -0.201085 -0.0252984
-0.151139 -0.200694 -0.0276594
-0.146724 -0.201641 -0.0309753
-0.144318 -0.204646 -0.0638285
-0.140385 -0.206036 -0.0769801
-0.0162478 -0.180105 0.184194
-0.0122987 -0.179567 0.192141
-0.00822235 -0.178739 0.198123
-0.00378713 -0.178414 0.201702
-0.000227873 -0.178292 0.205128
0.00422726 -0.177534 0.209319
0.00824479 -0.177179 0.213646
0.0118709 -0.177213 0.215088
0.0163935 -0.176962 0.217838
0.0199649 -0.176954 0.21914
0.0240047 -0.1765 0.220816
0.0280604 -0.176822 0.220666
0.0319517 -0.176176 0.222656
0.0363021 -0.17641 0.223388
0.039832 -0.176453 0.22402
0.0441313 -0.17617 0.22548
0.0480496 -0.176212 0.225335
0.0519957 -0.17605 0.224774
0.0566299 -0.17583 0.22507
0.0597094 -0.176412 0.226261
0.0639521 -0.176071 0.225615
0.0677176 -0.176117 0.226055
0.0724561 -0.175957 0.224987
0.0762108 -0.176299 0.22419
0.0804004 -0.176382 0.223071
0.0843904 -0.176245 0.222454
0.0880971 -0.176779 0.222836
0.0920441 -0.176418 0.222572
0.0961372 -0.176426 0.220891
0.100264 -0.176513 0.219173
0.10436 -0.176947 0.217848
0.108646 -0.177238 0.214278
0.113076 -0.177552 0.210791
0.116978 -0.177743 0.209729
0.121721 -0.178197 0.207826
0.125401 -0.178264 0.204674
0.129418 -0.178115 0.199738
0.134152 -0.17982 0.193769
0.13923 -0.180163 0.187348
0.1445 -0.18148 0.171915
-0.283801 -0.169282 0.251541
-0.279694 -0.169669 0.254388
-0.275471 -0.169171 0.255403
-0.271448 -0.169351 0.255482
-0.267666 -0.169165 0.255668
-0.263794 -0.169158 0.255341
-0.260014 -0.169336 0.254326
-0.256201 -0.169364 0.252258
-0.252563 -0.169982 0.250553
-0.249107 -0.169926 0.248559
-0.245035 -0.170182 0.24607
-0.24144 -0.170045 0.243465
-0.238199 -0.170642 0.239349
-0.235887 -0.17166 0.227659
-0.231639 -0.17201 0.227009
-0.228041 -0.172134 0.226054
-0.224054 -0.172089 0.225204
-0.220417 -0.17245 0.221896
-0.210902 -0.174124 0.202917
-0.206446 -0.174021 0.203719
-0.202787 -0.174722 0.201965
-0.226081 -0.198919 -0.0486481
-0.220591 -0.197879 -0.0404556
-0.215502 -0.197534 -0.0350437
-0.210966 -0.196993 -0.0291517
-0.205147 -0.195903 -0.0220356
-0.20062 -0.196204 -0.0197089
-0.195173 -0.195682 -0.0164459
-0.190778 -0.195684 -0.0163636
-0.186687 -0.195803 -0.01636
-0.181808 -0.195749 -0.0162992
-0.177247 -0.195229 -0.0158014
-0.172674 -0.1951 -0.014169
-0.167919 -0.195073 -0.0138745
-0.163487 -0.195654 -0.0142558
-0.159074 -0.195512 -0.0156918
-0.154783 -0.195884 -0.0180635
-0.15036 -0.196025 -0.0211306
-0.145946 -0.19632 -0.0221775
-0.14116 -0.196556 -0.0272229
-0.139611 -0.199828 -0.0633574
-0.136295 -0.202199 -0.0864038
-0.020698 -0.177073 0.173904
-0.0162044 -0.175247 0.190342
-0.0122896 -0.175182 0.195477
-0.00771038 -0.174553 0.200452
-0.00429034 -0.174473 0.203017
0.000392618 -0.173695 0.207121
0.00408794 -0.173553 0.208258
0.0080899 -0.17318 0.211684
0.0122548 -0.173417 0.214268
0.0160623 -0.173331 0.215433
0.0200357 -0.172608 0.218166
0.0238872 -0.172578 0.220016
0.0282228 -0.172049 0.223449
0.0319047 -0.17212 0.223812
0.0359709 -0.172059 0.225068
0.0401653 -0.171922 0.227006
0.0442363 -0.171744 0.22626
0.0480502 -0.172089 0.225523
0.051838 -0.172203 0.226499
0.0558996 -0.171671 0.227349
0.0602182 -0.171976 0.227021
0.0638389 -0.17173 0.227354
0.0680018 -0.171673 0.227615
0.0719136 -0.171853 0.226133
0.0758237 -0.172307 0.225535
0.0803423 -0.172496 0.223093
0.084051 -0.172179 0.222625
0.0878925 -0.172541 0.222857
0.092288 -0.172723 0.222024
0.0959932 -0.172315 0.221036
0.100383 -0.172229 0.219362
0.104365 -0.172798 0.216544
0.108793 -0.173613 0.213617
0.112799 -0.173403 0.210945
0.117331 -0.173604 0.209222
0.121048 -0.173405 0.207284
0.125909 -0.174295 0.20352
0.129791 -0.174655 0.197938
0.134717 -0.175349 0.192416
0.139145 -0.175918 0.187563
0.144245 -0.176976 0.172766
-0.284342 -0.166159 0.248924
-0.280116 -0.165706 0.250864
-0.275839 -0.16563 0.254018
-0.271834 -0.165716 0.254075
-0.26815 -0.165727 0.254537
-0.263743 -0.16537 0.254595
-0.259644 -0.165656 0.253844
-0.255921 -0.165492 0.251521
-0.252566 -0.165886 0.249367
-0.248559 -0.166 0.248418
-0.244769 -0.165843 0.247153
-0.2415 -0.165962 0.244736
-0.237993 -0.166362 0.24192
-0.234401 -0.166915 0.239023
-0.230931 -0.167224 0.234599
-0.227458 -0.167482 0.231659
-0.223443 -0.167587 0.229557
-0.220329 -0.168209 0.225989
-0.216674 -0.168448 0.223041
-0.213044 -0.169055 0.216585
-0.210021 -0.169479 0.20896
-0.206047 -0.169755 0.208068
-0.201983 -0.17008 0.206699
-0.198061 -0.169648 0.207599
-0.19466 -0.170026 0.203355
-0.190925 -0.17082 0.197341
-0.20944 -0.19175 -0.0206075
-0.204428 -0.191178 -0.0186901
-0.200024 -0.19099 -0.0166988
-0.195341 -0.190711 -0.0131407
-0.190578 -0.189979 -0.00951743
-0.185891 -0.190567 -0.0109067
-0.181546 -0.19065 -0.0121458
-0.177006 -0.191013 -0.0115631
-0.172097 -0.190273 -0.0105569
-0.167472 -0.190438 -0.0112796
-0.163385 -0.190237 -0.00989747
-0.158935 -0.190412 -0.0121479
-0.154469 -0.191229 -0.0154307
-0.1501 -0.19119 -0.0181296
-0.145454 -0.191053 -0.0188553
-0.141171 -0.191253 -0.0196342
-0.137388 -0.191718 -0.0235004
-0.135158 -0.195774 -0.0664628
-0.131579 -0.196541 -0.0814576
-0.0244302 -0.173743 0.169335
-0.0203882 -0.171637 0.18814
-0.0164786 -0.171064 0.194335
-0.0123039 -0.1704 0.199805
-0.00775916 -0.170228 0.20242
-0.00414731 -0.170039 0.206229
-0.0002084 -0.169552 0.210657
0.00396359 -0.169184 0.212226
0.00809557 -0.169007 0.213726
0.0119368 -0.169187 0.213732
0.0157676 -0.169312 0.214957
0.0203015 -0.1685 0.219757
0.0238075 -0.168163 0.222965
0.0278412 -0.16783 0.225754
0.0323553 -0.168136 0.227697
0.0362041 -0.167599 0.228356
0.040172 -0.167299 0.228949
0.0439374 -0.167845 0.227553
0.0478407 -0.16784 0.227291
0.0516278 -0.167668 0.228551
0.0559324 -0.167765 0.228088
0.0601586 -0.167571 0.228322
0.06399 -0.167636 0.229139
0.0677496 -0.167968 0.227138
0.0714619 -0.167798 0.226438
0.0756951 -0.168179 0.224965
0.0803593 -0.168707 0.223278
0.0840353 -0.168263 0.224792
0.0881205 -0.167973 0.224017
0.0923015 -0.168859 0.221825
0.0961521 -0.168565 0.221551
0.100503 -0.168839 0.219062
0.104667 -0.168808 0.216371
0.108858 -0.168922 0.213243
0.112862 -0.169108 0.211854
0.116906 -0.169612 0.209403
0.121286 -0.169668 0.209021
0.125584 -0.169985 0.203584
0.130312 -0.170705 0.197371
0.134546 -0.171176 0.192422
0.139421 -0.172174 0.18527
0.144395 -0.173093 0.171556
-0.285753 -0.162718 0.240115
-0.279992 -0.161841 0.24809
-0.276018 -0.161469 0.251046
-0.271545 -0.161418 0.252172
-0.267541 -0.161616 0.252446
-0.263955 -0.16156 0.25309
-0.26028 -0.161387 0.252832
-0.256596 -0.16152 0.251925
-0.252823 -0.162067 0.249849
-0.249082 -0.162001 0.247954
-0.245146 -0.162299 0.246196
-0.241595 -0.162442 0.244478
-0.237944 -0.162527 0.241419
-0.2341 -0.162526 0.240204
-0.230363 -0.163197 0.235942
-0.226384 -0.163475 0.234146
-0.22295 -0.163454 0.232751
-0.219893 -0.16369 0.229848
-0.21592 -0.163773 0.226651
-0.212455 -0.164305 0.22274
-0.209026 -0.164665 0.218581
-0.205499 -0.164788 0.215084
-0.201821 -0.165467 0.210394
-0.197925 -0.165534 0.209681
-0.194016 -0.165702 0.208596
-0.190218 -0.166072 0.204326
-0.186698 -0.166305 0.200754
-0.185533 -0.169076 0.174409
-0.180532 -0.168736 0.177953
-0.176596 -0.168326 0.178376
-0.189987 -0.1851 -0.00349402
-0.185328 -0.185194 -0.00312877
-0.18109 -0.185247 -0.00468111
-0.175608 -0.18584 -0.00498223
-0.171651 -0.18554 -0.00528049
-0.167432 -0.185215 -0.00368357
-0.1628 -0.185216 -0.00521183
-0.158196 -0.185917 -0.00722337
-0.154099 -0.186033 -0.0101392
-0.149648 -0.186324 -0.0143924
-0.145379 -0.186595 -0.0160036
-0.140902 -0.186526 -0.016423
-0.136589 -0.186392 -0.0178249
-0.134399 -0.189843 -0.0548878
-0.130853 -0.191584 -0.0723622
-0.128555 -0.195784 -0.116472
-0.02489 -0.168454 0.180267
-0.0203454 -0.166856 0.193051
-0.0162879 -0.167004 0.197647
-0.0119982 -0.166759 0.201426
-0.00811197 -0.16571 0.206334
-0.00405294 -0.165443 0.211356
-0.000428468 -0.165021 0.214481
0.00431511 -0.164977 0.217296
0.00807564 -0.164952 0.218358
0.0117993 -0.164864 0.217132
0.0162125 -0.164936 0.218604
0.0204102 -0.164169 0.222969
0.0242775 -0.164087 0.225849
0.0280336 -0.163522 0.228085
0.0321346 -0.163525 0.229099
0.0358327 -0.163543 0.229488
0.0397974 -0.163718 0.22829
0.043964 -0.163822 0.229204
0.0479023 -0.163733 0.230043
0.0519748 -0.163742 0.230564
0.055972 -0.163467 0.230111
0.0601142 -0.163433 0.229845
0.0637422 -0.163224 0.229907
0.0678416 -0.163611 0.229093
0.071889 -0.163844 0.227647
0.0759553 -0.163561 0.2275
0.0804469 -0.163974 0.225447
0.0836202 -0.163927 0.225318
0.0883379 -0.164203 0.225074
0.0922101 -0.163998 0.223524
0.0960443 -0.164206 0.221198
0.100377 -0.164025 0.221081
0.104544 -0.164762 0.217661
0.109047 -0.165048 0.214675
0.112766 -0.165399 0.212713
0.117318 -0.16557 0.211136
0.121286 -0.16559 0.207154
0.125319 -0.166158 0.203841
0.130109 -0.16681 0.19689
0.134311 -0.167606 0.192717
0.139369 -0.168005 0.183881
0.144346 -0.169597 0.169385
-0.281079 -0.158104 0.242993
-0.276566 -0.158154 0.247539
-0.272236 -0.157803 0.249697
-0.26838 -0.15779 0.250023
-0.26394 -0.15761 0.251385
-0.260403 -0.157975 0.250897
-0.256575 -0.157982 0.250281
-0.252808 -0.157748 0.249495
-0.248956 -0.157758 0.246799
-0.245228 -0.15839 0.245054
-0.24156 -0.157952 0.244656
-0.238158 -0.158442 0.242226
-0.23433 -0.158614 0.240458
-0.230254 -0.159028 0.238221
-0.227 -0.159232 0.235347
-0.222969 -0.159142 0.233539
-0.219812 -0.159765 0.230494
-0.215784 -0.160206 0.228164
-0.212389 -0.160227 0.225328
-0.208512 -0.160487 0.221703
-0.204671 -0.160405 0.219658
-0.200775 -0.160838 0.216041
-0.19767 -0.161145 0.213215
-0.193685 -0.161657 0.211531
-0.189812 -0.161616 0.207879
-0.18612 -0.16196 0.203977
-0.182717 -0.162459 0.199882
-0.179511 -0.163635 0.189456
-0.176205 -0.164215 0.184057
-0.172146 -0.164341 0.181926
-0.168942 -0.164276 0.180081
-0.18045 -0.180453 -0.000206947
-0.175827 -0.18078 -0.000785112
-0.171491 -0.180612 -0.000618219
-0.166724 -0.180736 0.000178456
-0.162168 -0.180596 -0.000243425
-0.158271 -0.18054 -0.00114536
-0.153599 -0.180278 -0.00325894
-0.149449 -0.181497 -0.00854564
-0.145016 -0.181446 -0.0103147
-0.140318 -0.181324 -0.00997734
-0.136348 -0.181213 -0.0112541
-0.132236 -0.181873 -0.0167527
-0.130126 -0.185828 -0.0564163
-0.126629 -0.188271 -0.0843921
-0.123554 -0.190574 -0.112835
-0.0292043 -0.165393 0.168378
-0.0243653 -0.163374 0.188749
-0.0202475 -0.162824 0.19558
-0.0160642 -0.162342 0.199818
-0.0121567 -0.162359 0.203285
-0.0078645 -0.161552 0.209468
-0.0039825 -0.161467 0.2134
-0.00020052 -0.161216 0.216242
0.00379472 -0.160924 0.217568
0.00804377 -0.160544 0.22038
0.0120556 -0.160423 0.221204
0.0161787 -0.160446 0.223185
0.0199774 -0.160002 0.226416
0.0239241 -0.160002 0.22695
0.0279001 -0.159446 0.227901
0.0321946 -0.15987 0.229528
0.0362084 -0.160028 0.229581
0.0398086 -0.159523 0.228638
0.0439977 -0.160063 0.228273
0.0478264 -0.159595 0.230351
0.0520937 -0.159398 0.231233
0.0558172 -0.15925 0.230883
0.0596038 -0.159748 0.230727
0.0638816 -0.15938 0.230826
0.0679087 -0.159396 0.230112
0.0720132 -0.160086 0.228967
0.0758461 -0.15981 0.227681
0.080023 -0.15986 0.226646
0.0840927 -0.160373 0.22575
0.0877335 -0.159965 0.225645
0.0919391 -0.160323 0.22547
0.0960328 -0.160512 0.223683
0.100328 -0.160412 0.221957
0.104309 -0.160104 0.218025
0.108824 -0.161006 0.215788
0.112737 -0.161183 0.214584
0.116674 -0.161119 0.212327
0.121491 -0.161698 0.208401
0.125352 -0.161728 0.205721
0.129738 -0.162686 0.19919
0.134656 -0.163018 0.193727
0.138731 -0.163245 0.187766
0.145149 -0.165642 0.164895
-0.27733 -0.154696 0.242888
-0.272965 -0.154559 0.245409
-0.268648 -0.15437 0.248061
-0.264582 -0.154369 0.249293
-0.260571 -0.153697 0.249457
-0.256666 -0.153993 0.248784
-0.253073 -0.154297 0.246377
-0.249495 -0.15448 0.24561
-0.245045 -0.153874 0.244193
-0.241518 -0.154467 0.243328
-0.238191 -0.154874 0.241198
-0.234237 -0.154943 0.240027
-0.23071 -0.154875 0.237061
-0.226922 -0.155268 0.235142
-0.223328 -0.155171 0.233026
-0.219212 -0.156082 0.231685
-0.215741 -0.155833 0.228604
-0.211881 -0.155975 0.225357
-0.208054 -0.156015 0.223881
-0.204393 -0.156258 0.220454
-0.200998 -0.156635 0.218024
-0.197327 -0.156795 0.215222
-0.193547 -0.157306 0.2124
-0.189567 -0.157186 0.209895
-0.186029 -0.157472 0.207682
-0.182301 -0.158128 0.203699
-0.178539 -0.15828 0.200396
-0.175291 -0.158887 0.193341
-0.171242 -0.159325 0.187634
-0.167957 -0.159372 0.185445
-0.163908 -0.159898 0.1813
-0.175156 -0.175217 0.00606644
-0.170826 -0.175327 0.00613701
-0.166043 -0.175152 0.00842166
-0.161428 -0.175456 0.00775552
-0.157245 -0.175154 0.00734949
-0.152611 -0.174968 0.00641072
-0.148529 -0.175573 0.00288415
-0.144518 -0.176276 -0.00349927
-0.14028 -0.17611 -0.00488639
-0.135734 -0.176259 -0.00555825
-0.131626 -0.176729 -0.00982952
-0.129255 -0.17969 -0.0446692
-0.125572 -0.181284 -0.0587389
-0.122838 -0.184285 -0.0977583
-0.11885 -0.184849 -0.103408
-0.0286143 -0.160327 0.18211
-0.0246027 -0.158817 0.191039
-0.0201388 -0.158609 0.198033
-0.0160035 -0.158268 0.201024
-0.0122053 -0.157756 0.206443
-0.00801236 -0.157364 0.211482
-0.00395646 -0.156958 0.215251
-0.000201313 -0.156766 0.218634
0.00410022 -0.156264 0.220265
0.00780217 -0.156375 0.221969
0.0117984 -0.156485 0.223351
0.0158295 -0.156292 0.22685
0.019579 -0.155916 0.227454
0.0237467 -0.155669 0.228486
0.0280848 -0.156078 0.229841
0.0316471 -0.155379 0.230449
0.0358181 -0.155752 0.228927
0.0397871 -0.156081 0.229879
0.0438949 -0.155919 0.229667
0.0478646 -0.155543 0.230436
0.0520958 -0.155461 0.231232
0.0560966 -0.155688 0.230318
0.0595933 -0.15563 0.231244
0.0642354 -0.155618 0.22976
0.0679303 -0.155432 0.230506
0.0716221 -0.155822 0.228776
0.0761621 -0.155951 0.228148
0.0798443 -0.15582 0.226803
0.0839057 -0.155903 0.227041
0.0879752 -0.155977 0.226473
0.0920907 -0.155842 0.225419
0.0961367 -0.156367 0.223162
0.10086 -0.156641 0.220314
0.104474 -0.157001 0.21842
0.108845 -0.156719 0.215519
0.112985 -0.157179 0.214517
0.116844 -0.157226 0.211552
0.120807 -0.157478 0.209775
0.125469 -0.157427 0.205102
0.130152 -0.158455 0.198881
0.13468 -0.159181 0.19428
0.139112 -0.159147 0.187898
0.144598 -0.161039 0.168242
-0.273509 -0.150858 0.241298
-0.269162 -0.150427 0.243073
-0.265036 -0.150477 0.244913
-0.261313 -0.150026 0.246289
-0.257075 -0.150635 0.245246
-0.253353 -0.150146 0.244592
-0.249437 -0.150549 0.244026
-0.24557 -0.150611 0.241981
-0.242311 -0.150954 0.240767
-0.237933 -0.151024 0.239634
-0.234378 -0.150869 0.238409
-0.230476 -0.151197 0.23694
-0.227013 -0.150895 0.235276
-0.2231 -0.151321 0.231739
-0.2194 -0.151675 0.230706
-0.215429 -0.151676 0.228016
-0.2117 -0.152002 0.225417
-0.208519 -0.152014 0.223487
-0.204361 -0.152436 0.221084
-0.200742 -0.152436 0.218937
-0.197046 -0.15308 0.216873
-0.193426 -0.153185 0.212951
-0.189659 -0.153026 0.212554
-0.185953 -0.153265 0.208659
-0.181709 -0.153844 0.206092
-0.17822 -0.15416 0.202511
-0.174535 -0.154062 0.199272
-0.171099 -0.154685 0.194521
-0.167149 -0.154888 0.191962
-0.163749 -0.155491 0.186767
-0.160142 -0.156282 0.178626
-0.170606 -0.17036 0.0118423
-0.165626 -0.170428 0.0125163
-0.161505 -0.170175 0.0121981
-0.157138 -0.170381 0.0120567
-0.152295 -0.170331 0.0122006
-0.14778 -0.170332 0.0110481
-0.143844 -0.170901 0.00775838
-0.139794 -0.171262 0.00287592
-0.1354 -0.171297 0.00144994
-0.130738 -0.171654 -0.00148273
-0.126845 -0.172156 -0.00700808
-0.124959 -0.175612 -0.0473583
-0.120767 -0.176778 -0.0602827
-0.117693 -0.179999 -0.09636
-0.0332631 -0.157862 0.160807
-0.0286191 -0.155289 0.187527
-0.0239095 -0.154465 0.19525
-0.0204772 -0.15381 0.198796
-0.0163216 -0.154059 0.201721
-0.0122369 -0.153641 0.20938
-0.00799384 -0.153167 0.213475
-0.00399214 -0.152798 0.216801
9.97212e-06 -0.152763 0.220166
0.00391509 -0.152291 0.221384
0.00806548 -0.151966 0.224009
0.0118321 -0.15214 0.227211
0.0158345 -0.151891 0.228279
0.0199418 -0.151739 0.228769
0.0243066 -0.151525 0.230848
0.0280041 -0.151801 0.230032
0.0317751 -0.151863 0.230865
0.0359886 -0.151952 0.230274
0.0399139 -0.151339 0.230607
0.0436945 -0.151646 0.231678
0.0480285 -0.151589 0.231989
0.0517376 -0.151381 0.231158
0.0557613 -0.151808 0.231986
0.0595677 -0.151613 0.231956
0.0638942 -0.151527 0.231155
0.0677163 -0.151675 0.229959
0.071678 -0.151693 0.22885
0.0759321 -0.151679 0.228089
0.0801834 -0.151711 0.227288
0.084003 -0.152188 0.226737
0.0878833 -0.152234 0.226215
0.092097 -0.152275 0.224902
0.0964185 -0.152666 0.223024
0.10035 -0.152643 0.221022
0.104552 -0.152779 0.216776
0.108572 -0.153007 0.216303
0.112777 -0.15283 0.215672
0.116821 -0.153215 0.211429
0.12147 -0.153256 0.208796
0.12548 -0.153805 0.204859
0.129928 -0.154548 0.198657
0.134577 -0.15443 0.194487
0.138869 -0.155197 0.187261
0.144351 -0.157215 0.167773
-0.270214 -0.146892 0.237236
-0.266105 -0.146599 0.2392
-0.261681 -0.146478 0.239999
-0.257626 -0.146596 0.241383
-0.25376 -0.146588 0.240411
-0.249743 -0.146713 0.240655
-0.246082 -0.146631 0.240433
-0.242158 -0.146871 0.239168
-0.238169 -0.147007 0.238805
-0.234781 -0.147277 0.236494
-0.230799 -0.147163 0.235073
-0.226874 -0.147273 0.233392
-0.223068 -0.147488 0.232212
-0.219947 -0.147603 0.229467
-0.215716 -0.147904 0.227515
-0.211929 -0.148211 0.225024
-0.208614 -0.148106 0.223528
-0.204449 -0.14852 0.220553
-0.200737 -0.148585 0.2175
-0.197001 -0.148742 0.216492
-0.19306 -0.149289 0.213798
-0.189974 -0.149301 0.211161
-0.185725 -0.149655 0.208791
-0.182019 -0.149389 0.207163
-0.177796 -0.149882 0.204248
-0.174596 -0.149931 0.201319
-0.170703 -0.150523 0.197609
-0.167022 -0.150515 0.194021
-0.163527 -0.151151 0.189865
-0.159455 -0.151376 0.18538
-0.156285 -0.152083 0.174208
-0.165667 -0.165923 0.0162596
-0.161105 -0.165824 0.0157348
-0.156329 -0.165522 0.0163196
-0.152179 -0.165827 0.0143198
-0.147786 -0.165573 0.0141169
-0.143722 -0.166074 0.0109448
-0.138931 -0.166163 0.00733101
-0.135214 -0.166666 0.00473559
-0.130159 -0.166697 0.00321949
-0.126012 -0.16678 0.00187755
-0.122203 -0.166975 -0.00316668
-0.120217 -0.17059 -0.0469174
-0.116743 -0.172373 -0.0643671
-0.113466 -0.174332 -0.0912421
-0.0333377 -0.152912 0.168046
-0.0284786 -0.151 0.189196
-0.0247299 -0.150372 0.195295
-0.0204822 -0.150087 0.19987
-0.0159545 -0.149723 0.204623
-0.0119907 -0.149126 0.209967
-0.00847289 -0.148997 0.214266
-0.0040266 -0.148774 0.217354
-0.000124569 -0.148215 0.219833
0.00402131 -0.148659 0.222044
0.00811301 -0.147891 0.225884
0.0120745 -0.147856 0.227547
0.0161076 -0.147908 0.22923
0.0196132 -0.147207 0.230278
0.0241531 -0.147816 0.231353
0.0276696 -0.14737 0.232126
0.0315052 -0.147491 0.231523
0.0354493 -0.147548 0.231729
0.0398388 -0.147643 0.231412
0.0439313 -0.147871 0.232804
0.0475239 -0.147473 0.233355
0.0515209 -0.147393 0.233427
0.0557846 -0.147649 0.232645
0.0599121 -0.1474 0.232309
0.0636471 -0.147826 0.231686
0.0681414 -0.147714 0.231159
0.0720407 -0.147425 0.228536
0.0759477 -0.148277 0.228091
0.0799566 -0.147946 0.227613
0.0840515 -0.147798 0.226673
0.0880342 -0.147795 0.225642
0.0922491 -0.14778 0.224502
0.0960671 -0.148295 0.221533
0.100516 -0.148732 0.218465
0.104245 -0.148842 0.217761
0.108394 -0.148429 0.215624
0.112506 -0.148899 0.214065
0.117139 -0.14951 0.210412
0.121404 -0.149423 0.207677
0.125504 -0.15017 0.204116
0.130134 -0.150202 0.198556
0.134349 -0.150843 0.19434
0.13908 -0.151155 0.184756
-0.26261 -0.143286 0.233976
-0.258605 -0.143267 0.235886
-0.254342 -0.143108 0.237027
-0.250804 -0.143196 0.237602
-0.24664 -0.143381 0.236528
-0.242737 -0.143262 0.235966
-0.239082 -0.143079 0.234391
-0.235037 -0.143382 0.233864
-0.231306 -0.143102 0.232052
-0.227056 -0.143553 0.231918
-0.223519 -0.144095 0.228622
-0.220168 -0.144187 0.226549
-0.216485 -0.144058 0.225941
-0.212312 -0.14418 0.224317
-0.208205 -0.143964 0.221563
-0.204823 -0.14451 0.219969
-0.200918 -0.144901 0.21743
-0.197308 -0.144835 0.215339
-0.19345 -0.144874 0.213274
-0.189691 -0.145107 0.210865
-0.185972 -0.145273 0.210277
-0.181791 -0.145819 0.20734
-0.178517 -0.145859 0.204645
-0.174591 -0.145354 0.203117
-0.170569 -0.146105 0.199562
-0.166733 -0.146554 0.195436
-0.162986 -0.146386 0.193
-0.159918 -0.146873 0.189837
-0.15585 -0.14764 0.181835
-0.152914 -0.149037 0.1607
-0.160369 -0.160453 0.0218414
-0.156252 -0.16097 0.0198681
-0.152274 -0.160951 0.0184852
-0.147558 -0.160671 0.0184311
-0.143353 -0.160912 0.0155318
-0.139095 -0.161736 0.0103022
-0.134937 -0.161776 0.00889361
-0.130208 -0.161592 0.00833642
-0.125945 -0.161569 0.00561452
-0.121891 -0.162339 0.00254464
-0.119063 -0.165044 -0.0349505
-0.115612 -0.166374 -0.0480816
-0.112685 -0.168838 -0.0832965
-0.108758 -0.17003 -0.0890028
-0.03758 -0.149294 0.1609
-0.0331474 -0.147153 0.186023
-0.0284539 -0.146446 0.194243
-0.0244009 -0.146579 0.196758
-0.0203204 -0.145851 0.201651
-0.0158624 -0.145064 0.207944
-0.0120415 -0.14534 0.212277
-0.00790154 -0.144997 0.215371
-0.00429692 -0.144967 0.217085
0.000408801 -0.144414 0.220409
0.00392238 -0.14406 0.223077
0.00825977 -0.143713 0.22684
0.0120833 -0.14381 0.228923
0.0157242 -0.143771 0.229332
0.020103 -0.143902 0.231154
0.0239244 -0.143466 0.232038
0.0276469 -0.143716 0.231381
0.0317011 -0.143986 0.231919
0.035941 -0.143984 0.232447
0.0394973 -0.143274 0.23376
0.0438633 -0.143016 0.233557
0.0475616 -0.143555 0.234021
0.0517142 -0.143422 0.233627
0.0559039 -0.143302 0.234486
0.059794 -0.143087 0.233114
0.0633245 -0.143443 0.23324
0.0680101 -0.143725 0.23097
0.0721391 -0.143411 0.229432
0.0761011 -0.143771 0.229343
0.0800509 -0.143061 0.22843
0.0838702 -0.143718 0.227449
0.0881759 -0.144405 0.224994
0.0923643 -0.144324 0.222962
0.0966452 -0.144476 0.221898
0.100229 -0.144965 0.219062
0.104398 -0.144519 0.217774
0.108907 -0.144978 0.214915
0.11282 -0.14487 0.212595
0.117138 -0.145437 0.2097
0.12132 -0.145589 0.205967
0.125959 -0.145564 0.199827
0.130304 -0.146486 0.196565
0.134675 -0.147047 0.191527
0.139645 -0.147779 0.17995
-0.255532 -0.139793 0.229657
-0.251328 -0.139835 0.230466
-0.247222 -0.13977 0.230139
-0.243361 -0.139697 0.231478
-0.239556 -0.139964 0.229737
-0.235835 -0.139812 0.229131
-0.231794 -0.139762 0.229314
-0.228281 -0.139772 0.228197
-0.223837 -0.140067 0.226615
-0.220397 -0.140094 0.224507
-0.216572 -0.140321 0.223191
-0.212211 -0.140407 0.221395
-0.20901 -0.140588 0.218972
-0.204956 -0.14068 0.217361
-0.201382 -0.140814 0.215532
-0.197229 -0.141254 0.214239
-0.193464 -0.141239 0.212002
-0.189917 -0.141603 0.211101
-0.185617 -0.141409 0.209167
-0.181681 -0.141382 0.206789
-0.178468 -0.141869 0.20388
-0.174419 -0.141717 0.202725
-0.170256 -0.142141 0.20104
-0.166823 -0.142368 0.196671
-0.16308 -0.142335 0.192925
-0.159078 -0.142991 0.189418
-0.155309 -0.142942 0.186093
-0.152039 -0.14373 0.1753
-0.14907 -0.145449 0.16354
-0.145221 -0.14552 0.159
-0.151366 -0.155777 0.0253912
-0.146938 -0.156249 0.0236642
-0.142897 -0.15591 0.0227839
-0.138201 -0.156174 0.0183166
-0.134133 -0.156471 0.0146531
-0.130327 -0.156863 0.014613
-0.125506 -0.156355 0.0138857
-0.121454 -0.157253 0.00817776
-0.118648 -0.159581 -0.0244188
-0.114353 -0.160838 -0.0380859
-0.111073 -0.162303 -0.0530505
-0.108236 -0.16394 -0.0803163
-0.0369586 -0.143411 0.183063
-0.0325985 -0.142829 0.191557
-0.028549 -0.142289 0.196081
-0.0241283 -0.141614 0.202236
