ply
format ascii 1.0
element vertex 1712
property float x
property float y
property float z
end_header
0.116981 0.272663 0.27365
0.12044 0.272027 0.278038
0.123801 0.270982 0.281683
0.128156 0.272162 0.278416
0.132205 0.272517 0.275347
0.136436 0.272424 0.272728
0.13993 0.272761 0.27229
0.144414 0.272729 0.271067
0.148276 0.273139 0.270271
0.292183 0.320042 -0.0245874
0.295699 0.318331 -0.0179079
0.299412 0.317344 -0.0108731
0.302207 0.315645 -0.00169086
0.305963 0.314914 0.00281131
0.310409 0.314849 0.00582755
0.314494 0.314673 0.00744677
0.318489 0.313953 0.0099479
0.322617 0.31397 0.0119101
0.327246 0.313703 0.0123075
0.332166 0.314001 0.0108335
0.336194 0.313851 0.0112098
0.340636 0.313773 0.0116531
0.345007 0.313514 0.0124861
0.349181 0.313173 0.0158445
0.353013 0.312988 0.0171764
0.356933 0.312762 0.0206653
0.36155 0.312371 0.0229708
0.365312 0.311953 0.0261594
0.369017 0.310867 0.0286216
0.373486 0.310959 0.0307344
0.37731 0.310576 0.0323066
0.38103 0.310786 0.0343751
0.385713 0.310028 0.0349212
0.389872 0.309738 0.036702
0.393521 0.31011 0.0374887
0.397608 0.309135 0.0408864
0.401306 0.30859 0.043244
0.405516 0.30886 0.0459462
0.409804 0.30811 0.048074
0.413288 0.307307 0.0511183
0.416622 0.307339 0.0543559
0.420779 0.30664 0.0573657
0.424443 0.306259 0.0594914
0.427943 0.305993 0.0628773
0.431597 0.304972 0.0677508
0.435317 0.304853 0.0702931
0.438767 0.304212 0.0742484
0.442258 0.303454 0.0771095
0.445925 0.302893 0.079461
0.449431 0.301996 0.0829229
0.453638 0.30217 0.0856583
0.456973 0.301607 0.087932
0.461076 0.301559 0.0907792
0.46445 0.30117 0.0926814
0.46766 0.30053 0.0977205
0.471834 0.300157 0.0992187
0.476192 0.299683 0.0986247
0.4817 0.300777 0.0934469
0.487421 0.301949 0.0874188
0.49344 0.303193 0.0801644
-0.339561 0.281001 0.248032
-0.333143 0.278693 0.260857
-0.329068 0.277877 0.265837
-0.323394 0.276359 0.27237
-0.318711 0.275676 0.276617
-0.31422 0.275518 0.279013
-0.309925 0.274569 0.283407
-0.304675 0.273798 0.289974
-0.299843 0.273195 0.29384
-0.295755 0.272689 0.297616
-0.291308 0.272289 0.300282
-0.286586 0.271723 0.303344
-0.282794 0.271284 0.304724
-0.279081 0.271306 0.305581
-0.275233 0.27144 0.30617
-0.270924 0.270962 0.308374
-0.26663 0.270488 0.310459
-0.262271 0.270291 0.31187
-0.259218 0.270289 0.311073
-0.255142 0.270246 0.311558
-0.251563 0.270375 0.310813
-0.247511 0.270344 0.310683
-0.244012 0.270854 0.308532
-0.240193 0.270741 0.309387
-0.236132 0.270522 0.309212
-0.232606 0.270777 0.308991
-0.229072 0.271213 0.306453
-0.22551 0.271418 0.304716
-0.221638 0.271194 0.30525
-0.217903 0.271354 0.304298
-0.214327 0.272131 0.300965
-0.216945 0.280008 0.248793
-0.214714 0.281808 0.239705
-0.212439 0.284477 0.223721
-0.210187 0.286807 0.20947
-0.207414 0.288977 0.196189
-0.203757 0.289573 0.191939
-0.200155 0.290286 0.188755
-0.196434 0.29053 0.185193
-0.196257 0.324689 -0.0254247
-0.189451 0.320739 -0.00264263
-0.185038 0.320065 0.00202441
-0.178337 0.316472 0.024702
-0.173292 0.314881 0.0338626
-0.167704 0.313232 0.0443399
-0.162766 0.312697 0.0481411
-0.158341 0.312092 0.0496325
-0.154095 0.312196 0.0491768
-0.149298 0.312447 0.0484835
-0.145155 0.31265 0.0489988
-0.140651 0.312044 0.0508378
-0.13627 0.31206 0.052886
-0.131166 0.310488 0.0599517
-0.126246 0.309248 0.0674415
-0.121331 0.30825 0.0748489
-0.117012 0.307694 0.0787714
-0.112269 0.307617 0.0815772
-0.107723 0.306594 0.0850728
-0.103348 0.305914 0.0899519
-0.0985843 0.30398 0.100042
-0.094016 0.303909 0.103619
-0.0901211 0.302968 0.106649
-0.0850005 0.303137 0.108301
-0.0807763 0.302574 0.110043
-0.0764612 0.302298 0.113087
-0.0719937 0.302352 0.114849
-0.0678595 0.301732 0.114965
-0.0640923 0.301877 0.114618
-0.0598905 0.302033 0.112952
-0.055577 0.303122 0.107046
-0.0517299 0.303699 0.103568
-0.0472224 0.304312 0.0983148
-0.0427184 0.305432 0.0928088
-0.0384784 0.305663 0.0911981
-0.0339348 0.305474 0.0912367
-0.0307083 0.305238 0.0927832
-0.0261914 0.305329 0.0947546
-0.0212285 0.303843 0.103601
-0.0174794 0.302326 0.111507
-0.0126889 0.295474 0.154099
-0.0081872 0.294627 0.159622
-0.00428339 0.29407 0.163847
1.31011e-06 0.293265 0.168332
0.00381563 0.29315 0.169623
0.00798993 0.292963 0.17158
0.0123256 0.292522 0.173588
0.0164956 0.291978 0.174257
0.0198091 0.292495 0.175512
0.0248236 0.291804 0.178072
0.0286938 0.291631 0.180466
0.0326805 0.290936 0.183251
0.0370071 0.289585 0.190289
0.0408419 0.290166 0.19177
0.0443246 0.288224 0.200074
0.0485319 0.287287 0.205592
0.0522421 0.286371 0.211037
0.0565639 0.286003 0.213218
0.0601984 0.286078 0.214134
0.0645176 0.285946 0.215751
0.0682069 0.285194 0.21942
0.0719919 0.284616 0.223051
0.0760334 0.284115 0.22545
0.0801149 0.283609 0.228237
0.0836693 0.282062 0.237458
0.0876981 0.281662 0.240268
0.0911043 0.280152 0.246481
0.0946543 0.28063 0.246614
0.0990937 0.280653 0.247803
0.102605 0.280574 0.249494
0.106301 0.279678 0.253339
0.109996 0.279762 0.25419
0.114035 0.278657 0.257897
0.117545 0.278374 0.261447
0.120439 0.276365 0.27394
0.124092 0.275222 0.281037
0.128242 0.275692 0.280275
0.131984 0.275881 0.278011
0.136074 0.276098 0.276095
0.140226 0.276351 0.274453
0.144521 0.276894 0.272611
0.148268 0.276619 0.271183
0.297881 0.325223 -0.0311329
0.300329 0.323076 -0.0192912
0.303717 0.321887 -0.0100119
0.306943 0.320416 -0.00150871
0.310824 0.320009 0.00218797
0.314897 0.319482 0.00664246
0.318595 0.318835 0.0108477
0.322407 0.318113 0.0133498
0.326873 0.318067 0.0154753
0.330772 0.317677 0.0164938
0.335743 0.317723 0.0162766
0.340104 0.317992 0.0150162
0.344588 0.317794 0.0152502
0.349015 0.317557 0.015618
0.353687 0.317296 0.0178188
0.357142 0.317278 0.0203266
0.361253 0.316434 0.0228974
0.365338 0.316739 0.0246764
0.369311 0.315836 0.0272905
0.373076 0.315404 0.0296415
0.377397 0.315342 0.0325518
0.381699 0.314822 0.0337178
0.385607 0.314513 0.0354407
0.389234 0.313821 0.0383747
0.393802 0.314725 0.0379652
0.3977 0.313671 0.0407195
0.401192 0.313216 0.0440775
0.405375 0.312601 0.0467042
0.409372 0.312539 0.049775
0.412873 0.311866 0.0522159
0.417011 0.311213 0.0549073
0.420208 0.310943 0.0578098
0.424205 0.310214 0.0611867
0.42785 0.309835 0.0634815
0.431479 0.309642 0.0669208
0.434864 0.308579 0.0722336
0.438313 0.308209 0.075109
0.442188 0.30762 0.0793028
0.445054 0.307401 0.0835394
0.449017 0.30657 0.0859264
0.452831 0.305589 0.0885893
0.456489 0.305609 0.0904515
0.46016 0.305285 0.0933812
0.463681 0.304708 0.0956004
0.467058 0.304582 0.0993736
0.471469 0.304078 0.100521
0.475475 0.304047 0.101411
0.479283 0.304078 0.102483
0.485635 0.305029 0.0944834
0.493372 0.307395 0.080518
-0.340687 0.2849 0.243853
-0.333436 0.282198 0.260642
-0.328086 0.281317 0.268629
-0.32327 0.280102 0.273762
-0.317887 0.279197 0.278766
-0.314059 0.279021 0.280973
-0.308813 0.27785 0.287338
-0.304472 0.277219 0.291361
-0.300352 0.276958 0.294431
-0.295797 0.276306 0.298741
-0.29116 0.275622 0.302573
-0.286726 0.275183 0.304964
-0.282144 0.274743 0.306191
-0.27854 0.274711 0.306709
-0.275019 0.274673 0.308075
-0.270785 0.274675 0.309627
-0.266595 0.274513 0.311699
-0.262636 0.274281 0.311954
-0.258029 0.273694 0.314626
-0.254637 0.273904 0.313151
-0.251364 0.274052 0.312194
-0.247759 0.273976 0.310936
-0.24419 0.274433 0.31097
-0.240264 0.274252 0.311004
-0.23614 0.274148 0.310752
-0.232537 0.274815 0.309451
-0.22895 0.274698 0.307682
-0.225336 0.27507 0.305223
-0.221596 0.275219 0.305239
-0.218208 0.275496 0.304087
-0.214773 0.276167 0.300108
-0.217149 0.284064 0.25038
-0.214594 0.286485 0.236938
-0.212509 0.288509 0.222008
-0.210272 0.291143 0.205413
-0.207415 0.293469 0.196336
-0.203935 0.293584 0.192092
-0.199888 0.294242 0.18959
-0.197414 0.330238 -0.0339358
-0.191598 0.328705 -0.0252311
-0.185101 0.325343 -0.00337124
-0.179413 0.321852 0.014443
-0.173178 0.320271 0.0281805
-0.167805 0.317908 0.0406437
-0.163458 0.317071 0.0459675
-0.15837 0.31689 0.0486231
-0.154116 0.316862 0.0501511
-0.149495 0.317162 0.0498229
-0.144991 0.316509 0.0503112
-0.140692 0.316337 0.0509394
-0.136669 0.31624 0.0504284
-0.13173 0.31652 0.0517424
-0.127144 0.316014 0.053388
-0.122784 0.315618 0.055792
-0.118284 0.31601 0.0563477
-0.112903 0.312328 0.0747243
-0.108009 0.311849 0.0807295
-0.103689 0.310915 0.0851853
-0.0991304 0.309983 0.0913979
-0.0943883 0.308528 0.0995767
-0.0899004 0.307866 0.103205
-0.0856248 0.307376 0.105934
-0.0810196 0.30732 0.107548
-0.0767691 0.306508 0.110165
-0.0724339 0.306352 0.113938
-0.0682181 0.305636 0.115443
-0.0638702 0.306055 0.115885
-0.0591095 0.306493 0.116214
-0.0552816 0.306083 0.115156
-0.0514936 0.307012 0.110032
-0.0469512 0.307555 0.107194
-0.0432746 0.307889 0.102555
-0.0385696 0.308867 0.0981933
-0.0344384 0.309647 0.094792
-0.0301792 0.309526 0.0954266
-0.0255792 0.308776 0.0995336
-0.021275 0.307414 0.107732
-0.0173674 0.301055 0.147118
-0.0125705 0.29952 0.154964
-0.00849103 0.298762 0.160199
-0.00387581 0.297927 0.164787
-8.36339e-05 0.297416 0.168219
0.00409723 0.296892 0.170441
0.00831447 0.29693 0.171966
0.0123661 0.296371 0.17356
0.0166077 0.296255 0.173371
0.020537 0.296492 0.174664
0.0246825 0.295963 0.17731
0.0288577 0.295537 0.179234
0.0327239 0.295152 0.183139
0.0367673 0.295157 0.185376
0.0410398 0.29425 0.188872
0.0446034 0.293353 0.191083
0.048696 0.293067 0.193419
0.052917 0.293136 0.194494
0.0572333 0.293118 0.196657
0.0605841 0.292411 0.199354
0.0646198 0.291864 0.202978
0.0692575 0.291583 0.205785
0.0727101 0.290747 0.208392
0.0764852 0.290928 0.209813
0.0803023 0.289527 0.215138
0.0842917 0.288886 0.219289
0.0879342 0.288279 0.223336
0.0917479 0.287548 0.228124
0.0958571 0.28646 0.235085
0.0994745 0.286112 0.238306
0.103103 0.285432 0.241789
0.106711 0.285266 0.24459
0.110778 0.284098 0.250245
0.114242 0.283908 0.252199
0.118083 0.283216 0.254864
0.122049 0.283055 0.255896
0.126055 0.28346 0.255709
0.129981 0.283803 0.253795
0.132092 0.279368 0.278133
0.136585 0.279834 0.276893
0.13991 0.279915 0.275807
0.304505 0.327587 -0.0164855
0.307942 0.326475 -0.0100005
0.311977 0.325601 -0.00642562
0.315441 0.324309 0.00270665
0.319051 0.32316 0.00990534
0.322497 0.323002 0.0139031
0.326738 0.322082 0.0168439
0.330734 0.321335 0.0192357
0.335486 0.321638 0.0187572
0.339127 0.321538 0.0210938
0.343889 0.321784 0.0204175
0.348315 0.321334 0.0202022
0.352642 0.321114 0.0197499
0.356888 0.320784 0.0209023
0.361251 0.32156 0.0227275
0.365113 0.320975 0.0250882
0.36953 0.32077 0.0259923
0.373471 0.319954 0.028293
0.377236 0.319563 0.030944
0.381289 0.31954 0.0330529
0.385528 0.319089 0.0357684
0.390037 0.31833 0.036949
0.393731 0.318457 0.0390872
0.397427 0.318112 0.0417833
0.401531 0.317363 0.0439016
0.405129 0.316679 0.0477493
0.408732 0.316988 0.050082
0.412385 0.316224 0.0529379
0.416956 0.315745 0.0552315
0.42024 0.315564 0.0575541
0.42453 0.31461 0.0609207
0.427864 0.314529 0.062881
0.431815 0.313907 0.0672399
0.435035 0.313178 0.0712951
0.438017 0.312285 0.0763059
0.441474 0.311771 0.0816712
0.444727 0.310822 0.0851126
0.448425 0.310694 0.0889268
0.452265 0.310057 0.0910757
0.45623 0.309741 0.0914859
0.459844 0.30953 0.0946652
0.463071 0.308611 0.09828
0.46735 0.308456 0.0997329
0.470904 0.307806 0.102453
0.474037 0.307876 0.106077
0.47689 0.306469 0.111397
0.481126 0.306407 0.112422
0.487009 0.30745 0.105687
-0.333921 0.286996 0.257189
-0.328757 0.285209 0.267603
-0.322894 0.283995 0.275437
-0.318738 0.283674 0.278422
-0.313663 0.282929 0.282576
-0.308616 0.281552 0.289121
-0.304339 0.280942 0.293025
-0.299971 0.280387 0.296667
-0.295099 0.279581 0.301485
-0.290798 0.279231 0.305179
-0.286105 0.279047 0.307176
-0.28243 0.278485 0.308373
-0.278696 0.27837 0.308053
-0.274305 0.278395 0.30931
-0.270221 0.278017 0.31125
-0.266651 0.27761 0.312412
-0.262264 0.277439 0.314264
-0.258174 0.27756 0.315577
-0.255029 0.277947 0.313638
-0.250943 0.27786 0.312648
-0.247386 0.277693 0.311813
-0.244013 0.27772 0.311318
-0.240129 0.278088 0.310814
-0.235783 0.278346 0.310007
-0.233033 0.278358 0.30932
-0.229066 0.278642 0.307415
-0.225284 0.278367 0.307082
-0.221564 0.278772 0.306341
-0.21771 0.279209 0.304935
-0.220282 0.28693 0.258707
-0.217001 0.288066 0.248445
-0.214977 0.290079 0.235793
-0.212443 0.292678 0.220394
-0.210595 0.295572 0.203957
-0.207267 0.296825 0.197315
-0.203503 0.297357 0.19288
-0.199985 0.297977 0.190248
-0.192476 0.33426 -0.0296705
-0.186316 0.331514 -0.0131593
-0.181376 0.330394 -0.00712609
-0.174356 0.326826 0.0161557
-0.169257 0.324719 0.0272303
-0.163465 0.322833 0.0399126
-0.158974 0.321427 0.0450321
-0.154145 0.321244 0.0481035
-0.149363 0.320748 0.0512708
-0.144951 0.320529 0.0523579
-0.140413 0.320854 0.0537837
-0.136267 0.320116 0.0536822
-0.131447 0.320329 0.053865
-0.127106 0.320243 0.052936
-0.12295 0.32048 0.0534724
-0.118303 0.320305 0.0533921
-0.114123 0.320466 0.0539805
-0.109421 0.320089 0.0570308
-0.104082 0.316387 0.0786635
-0.0988561 0.315347 0.0864736
-0.0947651 0.31431 0.0899322
-0.0902175 0.313653 0.0953796
-0.0853406 0.312661 0.102323
-0.0812144 0.312197 0.105478
-0.0769858 0.311497 0.108661
-0.0723658 0.310852 0.1119
-0.0683892 0.310738 0.112222
-0.0637548 0.310318 0.11532
-0.0598619 0.310317 0.117586
-0.0551737 0.309456 0.1185
-0.0510938 0.310111 0.117936
-0.0465003 0.310603 0.114936
-0.0422886 0.310647 0.111425
-0.0383509 0.311173 0.110654
-0.0342331 0.311179 0.109744
-0.0297691 0.311313 0.109275
-0.02565 0.310474 0.115227
-0.0208536 0.305695 0.142452
-0.0167668 0.304463 0.149778
-0.0126712 0.303553 0.155935
-0.00862181 0.302674 0.160466
-0.00434638 0.302368 0.164147
0.00040136 0.301731 0.168197
0.0047899 0.301442 0.169616
0.00805232 0.301202 0.170579
0.0124499 0.300798 0.172677
0.0162955 0.300394 0.173727
0.0206279 0.300879 0.174574
0.0244107 0.299992 0.176921
0.0286786 0.299338 0.179708
0.0328098 0.298853 0.182805
0.0370682 0.29895 0.184366
0.0407989 0.298641 0.187681
0.0451057 0.298178 0.188957
0.0489973 0.297997 0.189335
0.0531041 0.298166 0.190126
0.0568719 0.2976 0.192194
0.0609334 0.297122 0.194548
0.0653131 0.296851 0.197304
0.0688839 0.29611 0.200721
0.0727385 0.295716 0.203784
0.0769342 0.295409 0.205948
0.0806821 0.294367 0.211884
0.0843431 0.293881 0.215939
0.0879682 0.293537 0.219579
0.0921721 0.292623 0.22298
0.0960993 0.291145 0.229001
0.0994026 0.290288 0.235026
0.103443 0.290134 0.2372
0.107548 0.289658 0.239621
0.111287 0.290178 0.239298
0.115063 0.290091 0.239711
0.118921 0.288982 0.244463
0.123437 0.29066 0.236552
0.127575 0.291209 0.231124
0.139841 0.308665 0.122662
0.145782 0.313048 0.0971068
0.309316 0.33167 -0.0160067
0.312862 0.330889 -0.0104465
0.316772 0.330684 -0.00700808
0.319226 0.328426 0.00430501
0.322581 0.326654 0.0129166
0.326554 0.326686 0.0149714
0.330773 0.326278 0.0189275
0.334526 0.325741 0.0211825
0.338698 0.325178 0.024579
0.34263 0.324589 0.026073
0.347284 0.32475 0.0268718
0.351444 0.324885 0.0272425
0.355845 0.324825 0.0267744
0.360256 0.325204 0.0266258
0.365316 0.325163 0.0255916
0.369338 0.324581 0.0275254
0.373515 0.324703 0.0277208
0.377708 0.324437 0.0301492
0.381241 0.323999 0.0314289
0.385668 0.323252 0.0351113
0.389704 0.322985 0.0369115
0.393409 0.322556 0.0385242
0.397507 0.322453 0.0408601
0.401484 0.322145 0.0446438
0.405053 0.321477 0.0474181
0.409244 0.320997 0.0500129
0.412895 0.320791 0.0537953
0.416463 0.319767 0.0560819
0.420649 0.319892 0.059008
0.424123 0.318981 0.0610306
0.428081 0.318862 0.0636637
0.431527 0.31851 0.0661389
0.435354 0.317478 0.0708324
0.438423 0.31688 0.0745928
0.441657 0.315794 0.0813143
0.445459 0.315255 0.0845423
0.448215 0.314347 0.0885948
0.45192 0.314007 0.09164
0.455709 0.313715 0.0940216
0.458953 0.313352 0.0974218
0.46304 0.312714 0.0998263
0.466859 0.31254 0.101197
0.470216 0.312279 0.103947
0.472958 0.311154 0.110637
0.475141 0.309664 0.119349
0.477765 0.309112 0.124144
0.482 0.309125 0.12446
0.488807 0.31053 0.115869
-0.335793 0.292289 0.248047
-0.328325 0.289199 0.267458
-0.323374 0.288117 0.273145
-0.318406 0.287473 0.278198
-0.313403 0.286547 0.283051
-0.308493 0.285493 0.28947
-0.304338 0.28452 0.294099
-0.298959 0.283618 0.299029
-0.295125 0.283214 0.302371
-0.290438 0.282613 0.306087
-0.286143 0.282396 0.308204
-0.282198 0.281925 0.309637
-0.278254 0.282165 0.310633
-0.274186 0.281992 0.310806
-0.270328 0.281635 0.312608
-0.266338 0.281347 0.314137
-0.262134 0.28057 0.315217
-0.25813 0.280716 0.316471
-0.254739 0.280867 0.31544
-0.25061 0.280869 0.314949
-0.247314 0.281647 0.312975
-0.243579 0.281447 0.312102
-0.239841 0.281795 0.311414
-0.236296 0.281972 0.311072
-0.232504 0.282124 0.308708
-0.228992 0.282335 0.307729
-0.225036 0.282076 0.308181
-0.221277 0.282801 0.305676
-0.218116 0.283014 0.303468
-0.220023 0.290803 0.258328
-0.217322 0.292328 0.248818
-0.215458 0.294928 0.23375
-0.21277 0.297195 0.219833
-0.210543 0.299587 0.204012
-0.207474 0.300642 0.198411
-0.203567 0.301261 0.195116
-0.199819 0.302001 0.191496
-0.192473 0.339465 -0.0345633
-0.187641 0.338695 -0.029232
-0.181754 0.336445 -0.0153534
-0.176396 0.334953 -0.0076611
-0.170367 0.331095 0.0151985
-0.163966 0.329174 0.0265294
-0.15986 0.328848 0.0304936
-0.155135 0.328446 0.0342537
-0.149487 0.325111 0.0512067
-0.144334 0.324893 0.0547048
-0.14047 0.324481 0.0541407
-0.135999 0.324477 0.0546151
-0.132081 0.324761 0.054368
-0.127284 0.325006 0.0535128
-0.12322 0.325078 0.0531628
-0.118462 0.325064 0.0524254
-0.114065 0.32485 0.0541511
-0.110071 0.324602 0.0552568
-0.105142 0.324104 0.0585154
-0.0992861 0.320853 0.0754325
-0.0947568 0.319397 0.0846735
-0.0904031 0.318668 0.0888674
-0.0857507 0.318752 0.0914394
-0.0815327 0.316575 0.102323
-0.0767578 0.31602 0.108022
-0.0727224 0.315556 0.108797
-0.0680219 0.315275 0.111391
-0.0639017 0.314792 0.114066
-0.0586698 0.314022 0.117733
-0.0552552 0.313891 0.120249
-0.0509683 0.313989 0.119663
-0.0465303 0.313755 0.119698
-0.042105 0.313714 0.119113
-0.0383704 0.314041 0.118991
-0.0342455 0.313541 0.120256
-0.0298421 0.313095 0.123141
-0.0252847 0.310294 0.137579
-0.0210139 0.310078 0.142751
-0.0169225 0.308621 0.149856
-0.0121399 0.308149 0.156099
-0.00831116 0.30697 0.160156
-0.00419727 0.306728 0.163314
-0.000104217 0.305928 0.167225
0.0043838 0.306071 0.168355
0.00823182 0.305493 0.170429
0.0124937 0.305228 0.170984
0.0168179 0.305225 0.172961
0.0205533 0.304891 0.17459
0.0245007 0.30433 0.17674
0.0285914 0.303668 0.180702
0.0330686 0.303364 0.182859
0.0370486 0.302932 0.184681
0.0413534 0.302969 0.186176
0.0450466 0.302482 0.187479
0.0490786 0.302135 0.188979
0.0527048 0.302303 0.189644
0.0571198 0.302235 0.190247
0.0612676 0.301756 0.191871
0.0650033 0.301209 0.194808
0.0693856 0.300273 0.200459
0.0732101 0.299559 0.203723
0.0766013 0.299779 0.204466
0.0803885 0.298491 0.209598
0.0848747 0.297587 0.215801
0.0883886 0.297237 0.219128
0.0921525 0.297059 0.221416
0.0962187 0.296355 0.221373
0.100282 0.296728 0.221444
0.104516 0.297134 0.219214
0.108456 0.297315 0.217752
0.111976 0.295341 0.23023
0.115713 0.294917 0.231937
0.119781 0.295132 0.230141
0.129657 0.309079 0.150731
0.134694 0.311308 0.135093
0.140265 0.313884 0.117958
0.318531 0.336832 -0.0179062
0.320816 0.33464 -0.0046823
0.324338 0.333024 0.00322819
0.3274 0.331968 0.0111972
0.331037 0.331102 0.0155176
0.334727 0.330385 0.0206211
0.338233 0.329882 0.0249094
0.34251 0.329001 0.0283012
0.346535 0.328365 0.0304273
0.350667 0.328471 0.0306273
0.355183 0.328341 0.031788
0.359607 0.328832 0.0312769
0.364637 0.329169 0.0284162
0.369146 0.32897 0.0290533
0.37364 0.328642 0.0282521
0.377822 0.329187 0.0286566
0.382041 0.328753 0.0312355
0.385521 0.328151 0.0325649
0.389621 0.327625 0.036276
0.393445 0.327186 0.0386766
0.39758 0.326781 0.041159
0.401212 0.326127 0.0445414
0.405271 0.325798 0.0489823
0.408442 0.325642 0.0497299
0.412948 0.324665 0.0539564
0.416443 0.324331 0.0581067
0.420059 0.323187 0.0609865
0.423859 0.323024 0.0630187
0.427885 0.323101 0.0649722
0.431406 0.322695 0.0670935
0.435491 0.321949 0.069268
0.438888 0.32138 0.0735066
0.442009 0.32053 0.0796895
0.445221 0.319982 0.0840766
0.44841 0.319002 0.0883534
0.452112 0.318859 0.0910419
0.455735 0.317785 0.0947894
0.459294 0.317482 0.097595
0.462652 0.317205 0.0998365
0.466688 0.316787 0.101569
0.470075 0.316061 0.105912
0.471892 0.314847 0.114838
0.473499 0.313211 0.125338
0.475491 0.311585 0.133909
0.47935 0.310986 0.135688
0.484439 0.311449 0.132249
0.490718 0.313525 0.122955
-0.338293 0.298559 0.235845
-0.329288 0.294531 0.262249
-0.323057 0.292449 0.272392
-0.318304 0.291548 0.277208
-0.313202 0.290241 0.283534
-0.308733 0.289393 0.290429
-0.303923 0.2882 0.296019
-0.299078 0.287624 0.299758
-0.29447 0.286721 0.30372
-0.289887 0.2861 0.307912
-0.286158 0.286024 0.309884
-0.28172 0.285597 0.312251
-0.27786 0.285446 0.311935
-0.274093 0.285673 0.311674
-0.270181 0.28512 0.313555
-0.266244 0.284708 0.314537
-0.26211 0.28492 0.316172
-0.258023 0.285178 0.316154
-0.254348 0.284986 0.316225
-0.250959 0.28505 0.315081
-0.247245 0.285258 0.31285
-0.243601 0.285725 0.311054
-0.239406 0.285523 0.3126
-0.235917 0.285807 0.311125
-0.232673 0.285956 0.308605
-0.22935 0.286373 0.307239
-0.225213 0.286516 0.306347
-0.221866 0.286877 0.303872
-0.22197 0.291618 0.273566
-0.220186 0.294978 0.256158
-0.217948 0.29666 0.246147
-0.215481 0.298779 0.232866
-0.213095 0.301199 0.218584
-0.210554 0.303512 0.204179
-0.207272 0.30428 0.20028
-0.203286 0.304946 0.197282
-0.19934 0.305852 0.19225
-0.188509 0.344272 -0.0335524
-0.183586 0.343268 -0.0290422
-0.178146 0.342215 -0.0226345
-0.171083 0.33758 0.00413954
-0.16566 0.335828 0.0141094
-0.160957 0.335089 0.0178823
-0.156171 0.334107 0.0228871
-0.1507 0.332994 0.0320052
-0.14549 0.329242 0.0539392
-0.140403 0.328674 0.0548398
-0.136129 0.328699 0.0554061
-0.13125 0.329457 0.0534307
-0.12727 0.329085 0.0528435
-0.122651 0.3294 0.0550416
-0.118148 0.32891 0.0550239
-0.113902 0.329069 0.0550122
-0.109463 0.328558 0.0556295
-0.105333 0.32848 0.0557081
-0.100905 0.328256 0.0601529
-0.0961616 0.327433 0.0639005
-0.0906428 0.324632 0.0797886
-0.0861081 0.323717 0.085425
-0.0817571 0.322416 0.0936458
-0.0771775 0.321161 0.101276
-0.0727898 0.319798 0.106868
-0.0684824 0.320056 0.109607
-0.064115 0.319517 0.110086
-0.0591444 0.318959 0.114579
-0.0552886 0.318191 0.117589
-0.0508176 0.317854 0.119525
-0.0464517 0.317858 0.120846
-0.0421229 0.317544 0.121584
-0.0380808 0.317663 0.12323
-0.0340629 0.317066 0.12516
-0.0294894 0.31619 0.131611
-0.0252881 0.315003 0.137561
-0.0211794 0.31419 0.142426
-0.0168809 0.313157 0.150235
-0.012845 0.311809 0.155223
-0.00870937 0.311311 0.159571
-0.00387283 0.310604 0.164127
-7.80755e-05 0.310384 0.165421
0.00443605 0.309943 0.167876
0.00850927 0.309973 0.167747
0.0122487 0.309805 0.169397
0.0165659 0.309473 0.171106
0.0207145 0.308692 0.173847
0.0249353 0.308232 0.177195
0.0287773 0.308348 0.178667
0.0326187 0.307848 0.18142
0.0369271 0.30745 0.184953
0.040626 0.306713 0.186912
0.0447668 0.3066 0.187906
0.0491192 0.306772 0.187312
0.0530102 0.306033 0.188603
0.0572797 0.306119 0.190212
0.0611387 0.306174 0.191144
0.0651903 0.305033 0.195154
0.0688813 0.304502 0.198529
0.0730591 0.303802 0.202269
0.0767231 0.303915 0.204201
0.0809686 0.303507 0.206213
0.084943 0.303021 0.208207
0.0884897 0.301048 0.217062
0.0925254 0.301083 0.219593
0.0963415 0.301465 0.218408
0.100152 0.301251 0.218264
0.104818 0.301804 0.215878
0.108338 0.301808 0.214579
0.113064 0.30253 0.212287
0.117345 0.302768 0.208225
0.124809 0.311219 0.16096
0.128621 0.311935 0.157884
0.134996 0.315446 0.133789
0.139859 0.318941 0.116322
0.325364 0.339203 -0.00334692
0.328963 0.337492 0.00352609
0.332222 0.337216 0.00682628
0.335507 0.335428 0.017043
0.338538 0.335045 0.0220122
0.34269 0.333498 0.0270799
0.346421 0.33342 0.0292584
0.350623 0.333084 0.031484
0.355175 0.333057 0.031551
0.359335 0.333157 0.0311837
0.36447 0.333123 0.0299858
0.368933 0.333146 0.0295272
0.373268 0.333516 0.029178
0.378155 0.333087 0.0292532
0.381922 0.333227 0.0293287
0.385974 0.332899 0.0327433
0.389591 0.33189 0.0365661
0.393566 0.331577 0.0395818
0.39755 0.331078 0.0418543
0.400857 0.330434 0.0455958
0.404853 0.330607 0.0476465
0.408822 0.329321 0.0503744
0.41239 0.329454 0.0546713
0.41588 0.328412 0.0585741
0.419418 0.327566 0.0619817
0.42308 0.327014 0.0648651
0.427386 0.327175 0.0670698
0.430889 0.32629 0.0698558
0.434923 0.326041 0.0724169
0.438992 0.325866 0.0735124
0.442341 0.32501 0.0778718
0.445346 0.324017 0.0831263
0.448468 0.323776 0.0866735
0.452075 0.323282 0.0902706
0.455479 0.322389 0.0936087
0.45958 0.322387 0.0961766
0.462998 0.321282 0.0995228
0.466605 0.321225 0.101467
0.469287 0.320021 0.108049
0.471635 0.318254 0.117474
0.472705 0.316307 0.127834
0.473931 0.314461 0.139599
0.476315 0.313357 0.146727
0.480675 0.31373 0.146031
0.486911 0.314437 0.138466
-0.329968 0.298646 0.258058
-0.323907 0.296846 0.269592
-0.319062 0.295259 0.275702
-0.314319 0.294272 0.281373
-0.308117 0.29276 0.292481
-0.303353 0.291808 0.29789
-0.299112 0.291661 0.29957
-0.29433 0.290568 0.305049
-0.289888 0.289965 0.308847
-0.285461 0.289253 0.31174
-0.281361 0.289219 0.313105
-0.27792 0.289052 0.312974
-0.273818 0.289176 0.312926
-0.270031 0.288767 0.314429
-0.26546 0.288383 0.316233
-0.262081 0.288444 0.316323
-0.258147 0.288556 0.316019
-0.254156 0.288949 0.315141
-0.250885 0.289077 0.31423
-0.247167 0.288965 0.313152
-0.243775 0.289245 0.311779
-0.240105 0.289493 0.311758
-0.236398 0.289797 0.309648
-0.232668 0.290111 0.308352
-0.22903 0.290513 0.307402
-0.225674 0.290153 0.30562
-0.224367 0.293875 0.285162
-0.222131 0.295707 0.274607
-0.22046 0.298344 0.257616
-0.217911 0.301612 0.243092
-0.215265 0.303099 0.231437
-0.213308 0.305971 0.214973
-0.20999 0.307492 0.205641
-0.20689 0.308196 0.201435
-0.203135 0.308724 0.198694
-0.199399 0.309532 0.194062
-0.18322 0.348092 -0.0302427
-0.178018 0.347331 -0.0250552
-0.173118 0.345377 -0.0146534
-0.166694 0.342218 0.0025301
-0.161609 0.341839 0.00610745
-0.157482 0.341297 0.00922585
-0.151973 0.339304 0.0209987
-0.146208 0.33638 0.0349499
-0.13997 0.333699 0.0520742
-0.136029 0.334106 0.052346
-0.132076 0.333823 0.0514984
-0.12693 0.333144 0.0547637
-0.122806 0.332954 0.0563153
-0.118023 0.332853 0.0586135
-0.113983 0.332866 0.057267
-0.109898 0.333074 0.05594
-0.105447 0.333291 0.0556062
-0.100582 0.332859 0.0565426
-0.0957592 0.332534 0.0596626
-0.0915496 0.331984 0.0646747
-0.0866667 0.330838 0.0702327
-0.0822275 0.330529 0.0751166
-0.0768746 0.326756 0.0960581
-0.0730875 0.325901 0.0992677
-0.0684116 0.325155 0.103786
-0.0644624 0.324386 0.10779
-0.0592503 0.32346 0.112803
-0.0551081 0.323373 0.115141
-0.0513218 0.322372 0.118831
-0.0465911 0.322281 0.119541
-0.042097 0.321697 0.122299
-0.0380994 0.321555 0.124177
-0.0338067 0.320844 0.127928
-0.0292112 0.31988 0.133316
-0.0251552 0.319397 0.137979
-0.0208485 0.318294 0.143533
-0.016186 0.31659 0.151551
-0.0124973 0.316338 0.155683
-0.00820803 0.315125 0.159822
-0.00432235 0.31505 0.162266
-4.13517e-05 0.314455 0.164638
0.00389231 0.314161 0.165978
0.00814291 0.313593 0.167761
0.012167 0.3144 0.167943
0.0170404 0.3136 0.170703
0.020549 0.312866 0.172809
0.0246817 0.312526 0.175909
0.0288321 0.312026 0.179181
0.0328275 0.311148 0.184378
0.0363564 0.310787 0.186621
0.0408213 0.310003 0.189829
0.0447185 0.310278 0.189888
0.0488476 0.310099 0.189946
0.0527314 0.310254 0.190227
0.0573267 0.310082 0.190559
0.061371 0.309817 0.192538
0.0650661 0.309084 0.194898
0.0692028 0.308941 0.19709
0.0730916 0.308156 0.201223
0.0774162 0.308064 0.202303
0.0809678 0.308091 0.203641
0.0851945 0.308325 0.202151
0.0892838 0.307849 0.202079
0.0928787 0.307596 0.203158
0.0977189 0.308428 0.200766
0.101703 0.308686 0.199276
0.105762 0.30906 0.197177
0.110377 0.31045 0.190856
0.115022 0.311893 0.179051
0.119134 0.31274 0.173641
0.124345 0.314721 0.164349
0.128855 0.315135 0.161039
0.133221 0.31635 0.153206
0.139735 0.323244 0.114536
0.330501 0.343543 -0.00481582
0.333785 0.342406 0.00186753
0.337194 0.341962 0.00503874
0.340693 0.34067 0.013659
0.344402 0.33973 0.019449
0.348053 0.339443 0.02149
0.351876 0.33837 0.0250593
0.355832 0.338406 0.0261813
0.360937 0.338273 0.0257521
0.36535 0.338465 0.025094
0.369369 0.338652 0.0250436
0.374234 0.339205 0.024129
0.378738 0.338214 0.026246
0.382597 0.338016 0.0277359
0.385961 0.337209 0.0318483
0.389862 0.33647 0.0361319
0.393526 0.335824 0.0398973
0.397687 0.335556 0.0431336
0.401132 0.335043 0.0458407
0.404975 0.33478 0.048605
0.408582 0.333675 0.0515159
0.412352 0.332733 0.0551683
0.415661 0.332562 0.0587618
0.41894 0.331787 0.0629268
0.422882 0.331058 0.0668721
0.42625 0.331004 0.0698322
0.430205 0.330525 0.0724913
0.433914 0.329988 0.0748777
0.43767 0.329311 0.0769868
0.441905 0.329492 0.0800619
0.445509 0.328773 0.0826857
0.448929 0.32801 0.0854821
0.452498 0.327646 0.0896639
0.456118 0.327175 0.0926517
0.459205 0.326224 0.0966656
0.463137 0.325645 0.097909
0.466505 0.325259 0.102951
0.468916 0.323925 0.110038
0.470544 0.322628 0.1201
0.471774 0.32006 0.132724
0.472139 0.31688 0.149067
0.474076 0.315935 0.154509
0.478114 0.315938 0.156425
0.483782 0.316828 0.151026
-0.324779 0.301076 0.265124
-0.319338 0.299792 0.272726
-0.314381 0.298645 0.280743
-0.307998 0.296363 0.293087
-0.303042 0.295349 0.297627
-0.29899 0.295166 0.300568
-0.294558 0.29469 0.304876
-0.289824 0.293736 0.308674
-0.285586 0.29358 0.310855
-0.281924 0.293183 0.311676
-0.27762 0.293304 0.313382
-0.27353 0.292468 0.314761
-0.26977 0.292436 0.315451
-0.265967 0.292505 0.31523
-0.262225 0.292127 0.315757
-0.257912 0.292246 0.316854
-0.254696 0.29256 0.315723
-0.250784 0.292448 0.314783
-0.247221 0.293086 0.313782
-0.243719 0.293119 0.312995
-0.239799 0.293256 0.310937
-0.236282 0.293375 0.309246
-0.232504 0.293914 0.307668
-0.228988 0.293939 0.307521
-0.226285 0.294969 0.301283
-0.224473 0.298188 0.283839
-0.221949 0.299817 0.273038
-0.220305 0.303005 0.254384
-0.217901 0.304927 0.242024
-0.215627 0.307444 0.229829
-0.213503 0.31031 0.214014
-0.210349 0.311426 0.20851
-0.206537 0.31203 0.203486
-0.202831 0.312586 0.199875
-0.199527 0.313607 0.194814
-0.183809 0.354215 -0.0381401
-0.178534 0.351995 -0.0274801
-0.172912 0.350395 -0.0182233
-0.167776 0.348911 -0.00868607
-0.162557 0.347439 -0.00153255
-0.157845 0.347442 -7.15256e-07
-0.153488 0.347473 -0.000196695
-0.146851 0.343689 0.0243151
-0.14176 0.34127 0.0354646
-0.137027 0.340683 0.0382651
-0.132235 0.339991 0.0409797
-0.12685 0.338075 0.0537008
-0.122723 0.33712 0.0577846
-0.118208 0.337055 0.0597268
-0.114045 0.337171 0.058605
-0.109677 0.337452 0.0586509
-0.105093 0.337206 0.0576944
-0.101076 0.337556 0.0561118
-0.0963184 0.337221 0.0572885
-0.0920184 0.337011 0.0600536
-0.0874518 0.336757 0.0627837
-0.0824673 0.334423 0.0715383
-0.0787955 0.334349 0.0737014
-0.0729583 0.329962 0.0967571
-0.0681756 0.329932 0.099708
-0.0642077 0.32929 0.102861
-0.0597532 0.328141 0.108989
-0.055216 0.327404 0.114249
-0.0507378 0.326891 0.116613
-0.0468577 0.326668 0.117881
-0.0421706 0.326921 0.119059
-0.0381534 0.325976 0.123675
-0.0338238 0.325186 0.127573
-0.0295273 0.324224 0.132463
-0.0250863 0.323532 0.1382
-0.0210574 0.321934 0.144276
-0.0164886 0.321223 0.150306
-0.0129078 0.32032 0.154989
-0.00809396 0.31979 0.158424
-0.00419994 0.319711 0.160609
-0.000156571 0.319145 0.163062
0.00420166 0.318472 0.164839
0.00805573 0.318699 0.165331
0.0122969 0.318235 0.166931
0.0168452 0.317704 0.168856
0.02069 0.317695 0.171375
0.0247895 0.316431 0.175162
0.028835 0.315827 0.1813
0.0325401 0.314903 0.186357
0.0367747 0.314046 0.189941
0.0406552 0.314126 0.19215
0.0447368 0.314106 0.191782
0.048885 0.313871 0.191772
0.0527912 0.31358 0.191983
0.0571401 0.313483 0.193894
0.0613912 0.313548 0.194834
0.0653903 0.313568 0.195643
0.069074 0.313197 0.197283
0.07288 0.312867 0.198671
0.0769898 0.312227 0.200435
0.0814609 0.311991 0.201979
0.085213 0.31264 0.201841
0.0895553 0.312553 0.20087
0.0933328 0.312898 0.19977
0.0975177 0.31311 0.197035
0.101733 0.312962 0.196182
0.105756 0.313664 0.193948
0.110155 0.314901 0.187208
0.114734 0.316465 0.178381
0.118843 0.316656 0.175469
0.124339 0.318239 0.166786
0.128917 0.319236 0.161296
0.133237 0.320335 0.155582
0.141541 0.329623 0.0999646
0.341623 0.346646 0.00525761
0.344896 0.344868 0.0132413
0.349334 0.344322 0.0161973
0.353327 0.34445 0.0175561
0.357053 0.343298 0.0216448
0.361482 0.343576 0.0209775
0.366209 0.343715 0.0197541
0.370328 0.343982 0.021456
0.37463 0.34336 0.0212412
0.379105 0.343251 0.0218672
0.382677 0.342636 0.0260991
0.386462 0.342287 0.0304652
0.39004 0.341055 0.0353106
0.393142 0.340471 0.0402727
0.397034 0.340013 0.0434752
0.401351 0.339206 0.0458475
0.404655 0.339106 0.0489749
0.408687 0.338383 0.052246
0.412401 0.338005 0.0555942
0.416036 0.337004 0.0585082
0.419078 0.33596 0.0635394
0.422507 0.335644 0.0667723
0.426127 0.334768 0.0714293
0.429687 0.334392 0.074749
0.433701 0.333494 0.077407
0.437143 0.333226 0.0801136
0.440844 0.333045 0.0826688
0.444847 0.332628 0.084756
0.44908 0.33248 0.0856261
0.452916 0.331866 0.0885514
0.456267 0.331248 0.091993
0.459108 0.3305 0.0963206
0.463246 0.330368 0.0980885
0.466637 0.329641 0.100914
0.468879 0.328109 0.110922
0.469928 0.325694 0.122377
0.470552 0.323623 0.138633
0.469478 0.319857 0.156745
0.472747 0.319139 0.161455
0.476428 0.318909 0.163616
0.482206 0.320163 0.157821
-0.326576 0.30663 0.256567
-0.319879 0.303979 0.271433
-0.313608 0.302236 0.282588
-0.308089 0.300398 0.292029
-0.303395 0.299283 0.29781
-0.298961 0.299065 0.300901
-0.294603 0.29832 0.303982
-0.290072 0.29759 0.308213
-0.285772 0.297049 0.310824
-0.281806 0.296608 0.31281
-0.277669 0.296688 0.314396
-0.273508 0.29628 0.314722
-0.26981 0.29607 0.316732
-0.265304 0.295755 0.318357
-0.261464 0.295617 0.31797
-0.257515 0.295579 0.318805
-0.254015 0.295777 0.318118
-0.25041 0.295894 0.317373
-0.246945 0.296214 0.315698
-0.242943 0.296698 0.313695
-0.240055 0.296826 0.312335
-0.236372 0.29742 0.309123
-0.233037 0.297811 0.308147
-0.229417 0.298287 0.305145
-0.226641 0.300286 0.294739
-0.224375 0.301409 0.284974
-0.222353 0.303978 0.272213
-0.220533 0.306739 0.253981
-0.218026 0.309033 0.242202
-0.215898 0.312134 0.226027
-0.213279 0.313798 0.214553
-0.21006 0.314687 0.211207
-0.206417 0.315509 0.20715
-0.202839 0.316719 0.200776
-0.178918 0.357923 -0.0344458
-0.173391 0.356024 -0.0243618
-0.168597 0.354945 -0.0173745
-0.163645 0.354546 -0.0116804
-0.158573 0.353289 -0.00737286
-0.154121 0.353446 -0.00685644
-0.148956 0.352239 -0.00421429
-0.142593 0.347326 0.0228952
-0.137159 0.346222 0.0330894
-0.132781 0.345404 0.0375152
-0.128237 0.34515 0.0387448
-0.122762 0.341329 0.0576756
-0.118329 0.341315 0.0603057
-0.113778 0.34133 0.0593529
-0.109331 0.34128 0.0607607
-0.105291 0.341373 0.0586817
-0.100806 0.341247 0.0578445
-0.0964017 0.34183 0.0567404
-0.0916426 0.341727 0.0579721
-0.0876067 0.341418 0.05924
-0.0826754 0.34099 0.064308
-0.0783178 0.339854 0.0691787
-0.0736913 0.338141 0.0755752
-0.0684872 0.334582 0.0966318
-0.0642625 0.334184 0.100518
-0.0600407 0.333727 0.10359
-0.0556516 0.332341 0.110222
-0.050832 0.332186 0.113806
-0.0468792 0.331402 0.11571
-0.0427211 0.331155 0.117645
-0.0381777 0.330301 0.122568
-0.0333751 0.329401 0.127912
-0.0297185 0.328688 0.13167
-0.0251653 0.327305 0.137611
-0.0208595 0.326852 0.143409
-0.0169338 0.325414 0.150646
-0.0126699 0.324875 0.154713
-0.00856262 0.32427 0.156922
-0.00418124 0.32358 0.160061
-0.000440598 0.322998 0.161192
0.00404928 0.322954 0.163007
0.00829362 0.322749 0.165345
0.0123147 0.32264 0.166068
0.0162168 0.322503 0.166844
0.020356 0.321704 0.170025
0.0248688 0.32125 0.173905
0.0286167 0.320002 0.182438
0.0327292 0.318879 0.187974
0.0364362 0.317957 0.190599
0.040527 0.317775 0.192587
0.0446296 0.317993 0.193034
0.0487853 0.31748 0.194975
0.0526856 0.317471 0.19484
0.0570135 0.317155 0.196645
0.0609249 0.316945 0.197857
0.06507 0.31726 0.196865
0.0696542 0.317411 0.19571
0.0729422 0.31707 0.195971
0.07745 0.316982 0.197392
0.081294 0.317378 0.196937
0.0852845 0.316917 0.198637
0.0892412 0.316804 0.198007
0.093521 0.316623 0.197429
0.0976219 0.317308 0.195673
0.101911 0.317482 0.193612
0.106256 0.318964 0.187714
0.110547 0.31972 0.181622
0.114797 0.32029 0.177615
0.119187 0.321079 0.175195
0.123218 0.321127 0.173533
0.128406 0.322839 0.163286
0.132942 0.324176 0.156394
0.352661 0.352093 -0.00281405
0.355946 0.351201 0.00173211
0.359863 0.350907 0.00462663
0.363767 0.349902 0.0101473
0.368174 0.350299 0.0100404
0.371621 0.349554 0.0122203
0.376374 0.349161 0.0135632
0.380419 0.349152 0.0143368
0.385099 0.349245 0.0157943
0.3865 0.346531 0.0302745
0.389657 0.345075 0.0353856
0.393148 0.344592 0.0406848
0.396908 0.343963 0.0439997
0.400782 0.343971 0.0472271
0.404826 0.343088 0.0493941
0.408549 0.342293 0.0536748
0.412667 0.342399 0.0542238
0.416154 0.341555 0.0576997
0.419315 0.340532 0.0621763
0.422633 0.339857 0.067675
0.426346 0.339004 0.0728804
0.429612 0.338334 0.0769905
0.432815 0.337801 0.0790277
0.436558 0.337653 0.0830761
0.440375 0.336672 0.0846819
0.44455 0.336735 0.0870779
0.448376 0.336328 0.0885116
0.452135 0.336046 0.0895271
0.45631 0.335621 0.0916151
0.459015 0.335554 0.0968719
0.463414 0.334784 0.0972997
0.467083 0.334414 0.0988033
0.469708 0.332783 0.106902
0.469605 0.329854 0.123464
0.469738 0.327113 0.140102
0.468832 0.323555 0.160078
0.472154 0.322728 0.164751
0.475824 0.322713 0.164658
0.480678 0.323696 0.161034
-0.320572 0.308724 0.267495
-0.313523 0.306367 0.281874
-0.309129 0.304973 0.28811
-0.303625 0.303347 0.297653
-0.298871 0.302597 0.301089
-0.294541 0.30194 0.303777
-0.290258 0.30157 0.307431
-0.285805 0.301392 0.310191
-0.281544 0.30041 0.313853
-0.277416 0.300256 0.315564
-0.273227 0.299716 0.317969
-0.269148 0.299135 0.319615
-0.264847 0.298972 0.323102
-0.260839 0.298747 0.323332
-0.257299 0.299004 0.322706
-0.253343 0.298773 0.321261
-0.250277 0.298938 0.320528
-0.246307 0.299217 0.318995
-0.243012 0.299907 0.315889
-0.239672 0.300679 0.312288
-0.236103 0.301318 0.309546
-0.232673 0.301534 0.307111
-0.229671 0.302812 0.301831
-0.22714 0.304123 0.293504
-0.224611 0.306265 0.282177
-0.222696 0.308517 0.268993
-0.220855 0.31151 0.252195
-0.218055 0.313388 0.240546
-0.216022 0.315921 0.224857
-0.212837 0.317896 0.215799
-0.209744 0.318572 0.212983
-0.20623 0.319063 0.210088
-0.202787 0.320416 0.201852
-0.174695 0.362813 -0.0366874
-0.169114 0.360854 -0.02564
-0.163512 0.359517 -0.0174987
-0.158832 0.358698 -0.0134857
-0.15429 0.358018 -0.0108016
-0.149807 0.357739 -0.00812984
-0.144292 0.356283 -0.0014863
-0.138742 0.35319 0.0170438
-0.133269 0.351699 0.0269623
-0.128831 0.350334 0.0328072
-0.123407 0.346922 0.0532321
-0.118553 0.34561 0.0582824
-0.113934 0.344973 0.0606517
-0.109337 0.345759 0.0601609
-0.105135 0.345414 0.0603821
-0.100474 0.34539 0.0597476
-0.0967552 0.345889 0.0589242
-0.091932 0.346178 0.0586158
-0.0878827 0.346468 0.0577062
-0.0833699 0.345405 0.0605507
-0.0787423 0.344579 0.0644586
-0.0745334 0.344091 0.0689323
-0.0688982 0.341746 0.0822246
-0.0645461 0.339508 0.0951164
-0.0600751 0.338086 0.101805
-0.0552463 0.336922 0.108695
-0.0510757 0.336637 0.111679
-0.0467115 0.335637 0.11439
-0.0427303 0.335587 0.116119
-0.0379927 0.334616 0.121069
-0.0339057 0.333695 0.126045
-0.0294881 0.332939 0.131453
-0.0249598 0.331875 0.137418
-0.021248 0.330943 0.142415
-0.0167003 0.329092 0.150283
-0.0128201 0.32894 0.154341
-0.00864064 0.328192 0.157104
-0.00428771 0.32765 0.159644
1.27181e-05 0.327498 0.160559
0.00412009 0.327525 0.161704
0.00836007 0.326832 0.163528
0.0121887 0.327111 0.164804
0.0168626 0.326795 0.166295
0.0208029 0.326307 0.16794
0.0244041 0.325278 0.171994
0.0287892 0.323411 0.183096
0.032757 0.322691 0.18927
0.0367433 0.321921 0.191539
0.0405047 0.322366 0.194051
0.044644 0.321669 0.194767
0.0488282 0.321776 0.194973
0.0526482 0.321211 0.198505
0.0569378 0.320479 0.200275
0.0608811 0.320667 0.198961
0.0650299 0.321017 0.19743
0.0690334 0.321722 0.195243
0.0735111 0.321417 0.195208
0.0771519 0.321636 0.194874
0.0817511 0.321767 0.194067
0.0857312 0.322095 0.192116
0.0896794 0.322227 0.191835
0.0939149 0.322276 0.190764
0.0983236 0.322759 0.188331
0.101755 0.322818 0.186921
0.106413 0.323837 0.182967
0.111042 0.324578 0.177859
0.115311 0.325037 0.174838
0.119606 0.325261 0.174966
0.123261 0.325559 0.173278
0.128479 0.326805 0.164826
0.133189 0.328656 0.155404
0.369927 0.356084 0.000246882
0.374817 0.357131 -0.00244784
0.37729 0.354705 0.0072453
0.382172 0.355441 0.00571418
0.385823 0.35043 0.0312361
0.389605 0.349865 0.0359331
0.393474 0.349361 0.0399605
0.397073 0.348456 0.0450488
0.400335 0.347795 0.0481914
0.404313 0.347635 0.0512429
0.408125 0.347171 0.0535747
0.412135 0.346377 0.0550402
0.416054 0.345833 0.0581938
0.419817 0.3461 0.0601032
0.423022 0.34419 0.0672288
0.425948 0.343792 0.0724082
0.429065 0.342796 0.0774615
0.432723 0.341912 0.0805717
0.436378 0.341036 0.0845525
0.440439 0.341174 0.086325
0.444481 0.340291 0.0880998
0.448071 0.340309 0.0906135
0.45177 0.339771 0.0935844
0.455016 0.339009 0.096084
0.459309 0.338901 0.097694
0.462969 0.339071 0.0979223
0.468186 0.339363 0.0951177
0.475921 0.341451 0.0823765
0.470828 0.33196 0.135537
0.469509 0.3285 0.157083
0.472431 0.327626 0.163132
0.475978 0.327461 0.163867
0.482655 0.328661 0.155596
-0.31408 0.310081 0.280022
-0.309161 0.309323 0.285721
-0.303437 0.307377 0.296742
-0.298688 0.306204 0.301371
-0.294535 0.305802 0.303903
-0.290212 0.30555 0.308313
-0.28541 0.304371 0.312729
-0.280888 0.303691 0.317002
-0.276463 0.302978 0.32059
-0.272008 0.302202 0.32436
-0.266769 0.300921 0.334343
-0.262974 0.300823 0.334503
-0.259441 0.300823 0.333009
-0.256337 0.301512 0.328138
-0.252941 0.301387 0.326667
-0.248766 0.3017 0.328178
-0.24544 0.301842 0.327346
-0.241938 0.302428 0.324555
-0.239331 0.303616 0.316066
-0.236087 0.304787 0.310797
-0.233161 0.305417 0.30635
-0.229648 0.306276 0.30038
-0.227293 0.308691 0.291052
-0.224921 0.310017 0.281764
-0.223064 0.312777 0.265435
-0.220561 0.315344 0.252631
-0.218218 0.31748 0.239616
-0.216267 0.320344 0.225118
-0.212921 0.321195 0.218519
-0.208985 0.321485 0.216695
-0.205847 0.322308 0.212239
-0.169669 0.367846 -0.0369735
-0.16465 0.365736 -0.026886
-0.159649 0.36435 -0.0208321
-0.154343 0.364174 -0.0189738
-0.149837 0.363096 -0.0122662
-0.144641 0.361354 -0.00303459
-0.139961 0.360951 5.47171e-05
-0.135153 0.360271 0.00284338
-0.130202 0.359939 0.00736713
-0.124598 0.356265 0.0269315
-0.118354 0.350873 0.055087
-0.114009 0.350624 0.0588388
-0.108889 0.35023 0.0605125
-0.104876 0.349693 0.060805
-0.100377 0.350001 0.060758
-0.096179 0.349914 0.0609257
-0.0917473 0.349973 0.0595181
-0.0876816 0.350136 0.0585481
-0.0832844 0.350285 0.0583825
-0.0785218 0.349678 0.0596665
-0.0743421 0.349468 0.0635654
-0.0696497 0.348339 0.0700039
-0.0651195 0.345214 0.0856361
-0.0601177 0.343528 0.0939659
-0.0554335 0.342106 0.104184
-0.0512463 0.341299 0.10983
-0.0467159 0.340271 0.113906
-0.0423525 0.339733 0.11698
-0.0380602 0.339407 0.119527
-0.0336854 0.338258 0.125583
-0.0297363 0.337517 0.130232
-0.0252634 0.336624 0.135174
-0.0209409 0.335531 0.14115
-0.0165192 0.333884 0.148556
-0.0122585 0.333214 0.152907
-0.00832267 0.332748 0.154783
-0.00408086 0.332738 0.15745
-0.000297681 0.332313 0.158461
0.0041871 0.332332 0.159798
0.00852225 0.331908 0.161318
0.0124967 0.331273 0.162655
0.0167701 0.331296 0.16381
0.0207394 0.3308 0.166329
0.0244896 0.330243 0.171844
0.0284957 0.328067 0.181313
0.0328466 0.327113 0.187778
0.0367895 0.32663 0.1918
0.0404549 0.325736 0.193807
0.0446368 0.325245 0.195666
0.0484842 0.32528 0.198805
0.0530479 0.324477 0.201498
0.0565899 0.32463 0.201146
0.0608261 0.32504 0.200068
0.0649466 0.325443 0.197241
0.0693602 0.325832 0.193467
0.0736257 0.326375 0.191733
0.0776231 0.32619 0.191869
0.0816173 0.32634 0.191358
0.0860775 0.326854 0.188525
0.0898451 0.326962 0.187885
0.0941681 0.326976 0.186544
0.0985347 0.327535 0.184497
0.102856 0.328543 0.181411
0.107038 0.3286 0.177952
0.111261 0.329557 0.173596
0.115264 0.329401 0.174189
0.119608 0.329252 0.174675
0.123951 0.329684 0.173815
0.127487 0.329548 0.172567
0.133061 0.332313 0.156464
0.386112 0.355004 0.0332024
0.389466 0.354225 0.0375167
0.393282 0.353081 0.0416739
0.396629 0.353189 0.0447588
0.400269 0.351816 0.0494506
0.404205 0.351149 0.0517507
0.4077 0.351072 0.0549721
0.411488 0.350333 0.0572999
0.415877 0.34995 0.0596226
0.419763 0.349637 0.0605711
0.422883 0.348796 0.0655799
0.426148 0.347796 0.0721445
0.428842 0.346583 0.0784481
0.432505 0.34622 0.0821607
0.436206 0.345763 0.0853488
0.440044 0.345411 0.0860392
0.443489 0.34447 0.0910712
0.447436 0.343694 0.093012
0.45074 0.343942 0.0961822
0.454553 0.343161 0.0969545
0.458778 0.34275 0.0993763
0.462968 0.343186 0.100205
0.468175 0.343626 0.095737
0.47484 0.34565 0.0860264
-0.314866 0.314711 0.276452
-0.309229 0.313438 0.284252
-0.303983 0.311641 0.293365
-0.298921 0.310633 0.299368
-0.294464 0.309836 0.304919
-0.289278 0.308497 0.312031
-0.283571 0.306462 0.322158
-0.279251 0.305823 0.324766
-0.27437 0.304764 0.3321
-0.269518 0.303585 0.3391
-0.265621 0.303634 0.339786
-0.261889 0.303142 0.33935
-0.258472 0.303799 0.337494
-0.255273 0.303985 0.335247
-0.251772 0.304477 0.332313
-0.248434 0.30478 0.331291
-0.244909 0.304682 0.330124
-0.241017 0.305464 0.328251
-0.238431 0.306344 0.322602
-0.235809 0.308799 0.312766
-0.232761 0.308968 0.306646
-0.230222 0.310502 0.299498
-0.227393 0.312167 0.291448
-0.225434 0.315181 0.274868
-0.223372 0.317547 0.262696
-0.220381 0.319168 0.252899
-0.218337 0.321671 0.239228
-0.215922 0.323954 0.225507
-0.212671 0.325212 0.221082
-0.208985 0.325546 0.21742
-0.205458 0.325928 0.213377
-0.172825 0.377637 -0.0688131
-0.165316 0.371941 -0.0374231
-0.159914 0.37132 -0.0320213
-0.155472 0.370595 -0.0288723
-0.150545 0.369024 -0.0194337
-0.145316 0.367 -0.00893283
-0.140169 0.3659 -0.00343394
-0.135261 0.364884 0.00133085
-0.130275 0.364101 0.00562942
-0.126231 0.364014 0.00846612
-0.121269 0.363108 0.012495
-0.113979 0.355282 0.0569236
-0.109188 0.35434 0.0599207
-0.104906 0.354402 0.0617596
-0.100367 0.354205 0.0616522
-0.096086 0.354228 0.060764
-0.0917468 0.35435 0.0612102
-0.0871547 0.354568 0.0603702
-0.0830099 0.354453 0.0588654
-0.0784983 0.354816 0.0590992
-0.0749007 0.354859 0.0591173
-0.0700878 0.35336 0.0646734
-0.06547 0.352487 0.0708836
-0.0602244 0.348905 0.0898831
-0.0556651 0.347887 0.0951264
-0.0513074 0.346098 0.104102
-0.0466834 0.344627 0.111746
-0.0426238 0.343944 0.115535
-0.0378553 0.343222 0.11995
-0.0338559 0.342795 0.125585
-0.029118 0.341113 0.130559
-0.0250569 0.340743 0.134031
-0.0204721 0.339865 0.140536
-0.0168179 0.338813 0.145849
-0.0123919 0.337904 0.150776
-0.00831557 0.336917 0.15465
-0.00420029 0.336301 0.156996
-0.000127552 0.336308 0.158381
0.004056 0.336224 0.159662
0.00866304 0.33592 0.160791
0.0124741 0.33629 0.160846
0.0165871 0.335414 0.163398
0.0202537 0.334954 0.166514
0.0242871 0.334293 0.17196
0.0287824 0.332245 0.182047
0.032583 0.331442 0.187326
0.0369604 0.330338 0.191821
0.0405952 0.329766 0.194662
0.0448455 0.328905 0.198223
0.0487266 0.328416 0.201248
0.0525625 0.328114 0.201929
0.0563185 0.328193 0.2026
0.0603946 0.329015 0.20058
0.0647038 0.329526 0.195552
0.0694791 0.331171 0.18799
0.0736948 0.331545 0.184785
0.0780802 0.33196 0.183975
0.0815439 0.331314 0.184544
0.086128 0.33234 0.180835
0.0901743 0.33269 0.179559
0.0950343 0.332786 0.178712
0.0984669 0.332743 0.178036
0.103091 0.333823 0.174939
0.107174 0.333748 0.171209
0.11088 0.334013 0.171519
0.115249 0.333572 0.172573
0.119499 0.333733 0.174208
0.124121 0.333763 0.173116
0.127728 0.334049 0.171862
0.132084 0.334237 0.168513
0.390775 0.359775 0.0317645
0.393344 0.358118 0.0400672
0.396948 0.357244 0.0447505
0.400293 0.35637 0.0493662
0.403874 0.355954 0.0525646
0.407809 0.354908 0.0568508
0.41138 0.354778 0.0597283
0.415489 0.354116 0.0604476
0.418999 0.353898 0.0634842
0.42331 0.353131 0.066528
0.426459 0.352695 0.0710704
0.42916 0.351706 0.0768386
0.432353 0.350259 0.0825406
0.436252 0.349938 0.0840315
0.439962 0.349306 0.0880512
0.443331 0.348442 0.091797
0.447171 0.347673 0.0947592
0.45078 0.347885 0.0964139
0.454065 0.346786 0.100119
0.457923 0.346192 0.10309
0.461054 0.34605 0.10647
0.466065 0.34658 0.10472
0.472706 0.347906 0.095027
-0.317688 0.321715 0.260406
