ply
format ascii 1.0
element vertex 1731
property float x
property float y
property float z
end_header
0.393631 0.242479 0.0813189
0.399328 0.243066 0.0746733
0.407811 0.245666 0.0554672
-0.340869 0.290288 -0.258279
-0.328749 0.284395 -0.210211
-0.323529 0.283852 -0.205815
-0.317894 0.283252 -0.201801
-0.31259 0.282394 -0.198862
-0.307023 0.282204 -0.195401
-0.301387 0.281741 -0.190395
-0.295419 0.280624 -0.182618
-0.283414 0.273624 -0.126639
-0.277233 0.272644 -0.121046
-0.271834 0.272369 -0.115314
-0.265302 0.269936 -0.0984049
-0.256443 0.266062 -0.0679357
-0.248523 0.262619 -0.0445876
-0.24396 0.261635 -0.0397367
-0.224492 0.246103 0.0844851
-0.219438 0.245274 0.0915275
-0.213176 0.243064 0.111733
-0.20664 0.240342 0.132014
-0.200433 0.238173 0.14694
-0.195683 0.237241 0.153688
-0.189862 0.235024 0.171791
-0.185055 0.234223 0.17918
-0.179933 0.233498 0.185596
-0.175655 0.23279 0.188284
-0.170911 0.232122 0.193483
-0.167356 0.231878 0.195436
-0.162639 0.231762 0.196814
-0.158248 0.231728 0.198197
-0.153879 0.230727 0.204991
-0.149413 0.229917 0.209501
-0.145297 0.229853 0.212404
-0.140968 0.229549 0.214236
-0.136847 0.229395 0.215824
-0.132595 0.229071 0.218149
-0.128422 0.228515 0.222053
-0.124554 0.228966 0.222319
-0.120186 0.228223 0.224586
-0.115622 0.228034 0.227424
-0.111505 0.227525 0.229011
-0.107667 0.227357 0.230951
-0.103842 0.227247 0.23235
-0.100067 0.227136 0.234419
-0.0957295 0.226247 0.236765
-0.0914353 0.226634 0.236962
-0.087385 0.226637 0.236811
-0.0833749 0.22639 0.238733
-0.07918 0.226007 0.241794
-0.0754092 0.226093 0.243141
-0.0713428 0.225699 0.244663
-0.067442 0.225631 0.244693
-0.0630702 0.225742 0.24578
-0.0594357 0.22586 0.245976
-0.0553286 0.225225 0.246826
-0.051608 0.225229 0.247596
-0.0475824 0.225469 0.247367
-0.043626 0.225219 0.248929
-0.0397346 0.225134 0.248698
-0.0354486 0.22484 0.248822
-0.0314752 0.224825 0.248119
-0.0273328 0.225212 0.248735
-0.0236814 0.225169 0.248183
-0.0199819 0.225558 0.246855
-0.0156726 0.224627 0.248822
-0.0116605 0.224811 0.249266
-0.00816719 0.225163 0.249537
-0.0039435 0.22486 0.24934
7.1397e-05 0.225267 0.248768
0.00366606 0.22544 0.247782
0.00789449 0.225196 0.247167
0.0123504 0.225434 0.245277
0.015549 0.225891 0.24432
0.01977 0.225885 0.243026
0.0236909 0.225967 0.241267
0.0278183 0.226538 0.238659
0.0316863 0.226456 0.237641
0.0360014 0.226838 0.235943
0.0398428 0.226741 0.233929
0.0437592 0.227162 0.230997
0.0479261 0.227714 0.228935
0.0520562 0.227956 0.227733
0.0558667 0.228 0.227197
0.0601057 0.228042 0.226478
0.0639635 0.228289 0.224854
0.0681439 0.228483 0.223906
0.0724752 0.22848 0.221884
0.0766924 0.228751 0.219113
0.080185 0.229183 0.217008
0.0848639 0.230268 0.210109
0.0888674 0.230915 0.205683
0.0930188 0.230326 0.205403
0.097303 0.230787 0.203765
0.101783 0.231745 0.196769
0.1064 0.233614 0.184001
0.110648 0.23409 0.179895
0.115019 0.234552 0.176299
0.120138 0.235793 0.164822
0.124325 0.235906 0.164078
0.128072 0.236131 0.162852
0.13237 0.236158 0.161526
0.13708 0.236646 0.159698
0.141006 0.236259 0.159075
0.14556 0.236967 0.156995
0.149755 0.237163 0.157681
0.153243 0.236845 0.157348
0.157768 0.236434 0.158412
0.162279 0.236882 0.159102
0.16587 0.236449 0.158208
0.170449 0.23684 0.156924
0.174609 0.236862 0.157594
0.178425 0.236647 0.159001
0.183321 0.236939 0.156564
0.186906 0.236852 0.154987
0.191604 0.237255 0.154138
0.195866 0.237715 0.15146
0.200322 0.237639 0.149953
0.205178 0.238245 0.147904
0.209118 0.238334 0.145636
0.21343 0.238463 0.144351
0.217815 0.238701 0.141603
0.222715 0.239741 0.137441
0.227104 0.239513 0.136702
0.23123 0.239271 0.135788
0.235025 0.24029 0.134839
0.240264 0.240358 0.131584
0.244903 0.240774 0.127502
0.248857 0.240221 0.128477
0.253343 0.240704 0.1284
0.25794 0.240791 0.126325
0.26215 0.24116 0.125384
0.266578 0.240626 0.12593
0.270597 0.240663 0.127227
0.275091 0.241742 0.122127
0.280992 0.242921 0.109773
0.285864 0.243276 0.106329
0.291068 0.244135 0.101937
0.295766 0.244395 0.0988939
0.300373 0.244317 0.0973692
0.304556 0.244173 0.0962557
0.308917 0.244548 0.0960242
0.313648 0.244831 0.0945348
0.318129 0.244975 0.0939763
0.322075 0.244987 0.0952896
0.326755 0.244702 0.096202
0.329912 0.244235 0.0995961
0.334025 0.244212 0.100423
0.337858 0.244178 0.102982
0.342324 0.243687 0.10252
0.346818 0.243718 0.101728
0.351353 0.244015 0.101613
0.355347 0.243664 0.100885
0.360271 0.244139 0.0993121
0.364605 0.244297 0.0983206
0.369019 0.244698 0.095714
0.374317 0.244724 0.0947173
0.378748 0.245094 0.09326
0.383413 0.245677 0.089159
0.388592 0.245739 0.086358
0.393274 0.246155 0.0841216
0.398349 0.24648 0.0790181
0.404439 0.247888 0.071641
0.422675 0.256479 0.00554812
-0.329577 0.289831 -0.213332
-0.323248 0.288015 -0.20632
-0.317424 0.287979 -0.201792
-0.312274 0.28796 -0.199403
-0.30702 0.287329 -0.196305
-0.301737 0.287153 -0.192572
-0.295649 0.28611 -0.186092
-0.290053 0.285077 -0.180176
-0.278382 0.278668 -0.127904
-0.272876 0.277973 -0.124262
-0.267391 0.277277 -0.117045
-0.257207 0.27118 -0.073308
-0.250219 0.268757 -0.0543454
-0.244517 0.267382 -0.0454428
-0.224747 0.250418 0.0852634
-0.219507 0.249605 0.0928429
-0.211007 0.245081 0.126459
-0.204642 0.243211 0.143815
-0.200239 0.242256 0.14853
-0.196012 0.241531 0.152982
-0.189703 0.239816 0.167656
-0.185455 0.238567 0.176314
-0.180617 0.237613 0.182977
-0.175962 0.236608 0.188835
-0.171248 0.236248 0.192862
-0.166956 0.236108 0.195757
-0.162696 0.235952 0.19657
-0.158551 0.235849 0.197551
-0.154304 0.234883 0.20398
-0.149263 0.234269 0.208916
-0.144809 0.234116 0.211303
-0.141142 0.233676 0.214179
-0.137138 0.233374 0.216751
-0.132443 0.232737 0.219793
-0.128119 0.232506 0.22163
-0.124066 0.232284 0.223751
-0.120555 0.232395 0.224979
-0.116457 0.231827 0.227238
-0.111897 0.231892 0.22932
-0.107485 0.231418 0.231682
-0.103379 0.230898 0.234148
-0.0991784 0.230777 0.23598
-0.0954839 0.230774 0.237108
-0.0916497 0.230739 0.236132
-0.0871855 0.23082 0.237034
-0.0832575 0.229932 0.239429
-0.0795645 0.230034 0.241139
-0.0749422 0.229843 0.243077
-0.0713598 0.229286 0.244433
-0.0671404 0.228944 0.246362
-0.0633197 0.228979 0.246544
-0.0595188 0.229601 0.246466
-0.0552663 0.228968 0.248303
-0.051186 0.229476 0.247847
-0.0475574 0.229311 0.248503
-0.0433679 0.229288 0.249128
-0.0398704 0.229124 0.250034
-0.0361186 0.229096 0.248958
-0.0317661 0.228852 0.249696
-0.0275019 0.228983 0.249239
-0.0236657 0.229296 0.24749
-0.0195483 0.229306 0.248305
-0.016004 0.228801 0.249454
-0.0114405 0.228764 0.250188
-0.00780707 0.22918 0.249527
-0.00389741 0.228807 0.249139
-0.000307646 0.229269 0.24917
0.00412516 0.229326 0.247261
0.0074818 0.229314 0.246924
0.0120901 0.229821 0.244889
0.0157977 0.22992 0.242572
0.0196168 0.230259 0.241552
0.0239542 0.230294 0.239882
0.0279909 0.230379 0.237587
0.0314372 0.23059 0.23666
0.0359108 0.230818 0.234965
0.0396575 0.231169 0.233123
0.0438729 0.23154 0.231225
0.0481537 0.231648 0.228717
0.0520426 0.231856 0.229764
0.0556084 0.23186 0.228167
0.0598794 0.23167 0.228376
0.0638433 0.231856 0.226888
0.0678388 0.232032 0.225301
0.0718576 0.232217 0.223105
0.0761099 0.232975 0.219632
0.0803972 0.232883 0.217479
0.085 0.234061 0.211159
0.0888912 0.23478 0.206572
0.0928464 0.234383 0.205873
0.0972975 0.235423 0.202516
0.101408 0.235638 0.199044
0.106366 0.237235 0.185253
0.110994 0.237828 0.180579
0.115164 0.238807 0.177235
0.119924 0.239892 0.166488
0.124017 0.240277 0.16382
0.128407 0.240513 0.162417
0.132555 0.24063 0.161145
0.136809 0.240779 0.16014
0.140838 0.240711 0.15838
0.145399 0.241255 0.156393
0.149402 0.241056 0.156883
0.15389 0.241329 0.156996
0.157698 0.241272 0.157537
0.162186 0.240685 0.157354
0.166324 0.241078 0.156692
0.170666 0.240939 0.15606
0.174398 0.240966 0.15707
0.179247 0.240988 0.155972
0.183298 0.24115 0.155661
0.187724 0.241378 0.154975
0.191226 0.24161 0.153066
0.196133 0.241929 0.15008
0.200477 0.242228 0.148501
0.20427 0.242364 0.14767
0.208943 0.242772 0.144804
0.213439 0.243037 0.143036
0.218218 0.24329 0.139579
0.223038 0.243708 0.13667
0.227605 0.243768 0.135213
0.23126 0.244162 0.133847
0.23601 0.244365 0.131776
0.240502 0.244739 0.128756
0.244848 0.244982 0.12687
0.249321 0.245186 0.126385
0.254013 0.245164 0.124949
0.257732 0.24543 0.12475
0.262346 0.245272 0.125021
0.266373 0.245156 0.125663
0.270457 0.244588 0.125388
0.275153 0.245668 0.122032
0.281525 0.24755 0.106526
0.286931 0.248022 0.103151
0.291584 0.248295 0.0994908
0.296153 0.248984 0.0986265
0.300068 0.247909 0.0980551
0.304648 0.248775 0.0965213
0.308886 0.248694 0.0969393
0.313227 0.248637 0.0963725
0.317489 0.249517 0.0962753
0.321954 0.248981 0.0968723
0.325939 0.248845 0.0979457
0.329611 0.248487 0.101202
0.333685 0.248158 0.10289
0.337564 0.247799 0.104406
0.342641 0.248369 0.10311
0.346718 0.247966 0.103241
0.350972 0.248448 0.102414
0.355513 0.248388 0.101176
0.359862 0.248371 0.100437
0.364508 0.249031 0.0983747
0.368995 0.248913 0.0972522
0.373948 0.249392 0.0943705
0.378304 0.249352 0.0937096
0.383435 0.24949 0.0904886
0.388108 0.250243 0.0876871
0.393114 0.250655 0.0843327
0.398024 0.250975 0.0811846
0.403452 0.251986 0.0760982
0.411275 0.253385 0.0607225
-0.331461 0.296126 -0.223873
-0.32364 0.293762 -0.207626
-0.318086 0.293823 -0.204001
-0.312145 0.292371 -0.20079
-0.307964 0.292707 -0.199114
-0.301913 0.292577 -0.195298
-0.296244 0.29148 -0.189567
-0.29057 0.290839 -0.183796
-0.284626 0.289737 -0.177755
-0.273822 0.283794 -0.131209
-0.268442 0.282664 -0.124963
-0.26305 0.28227 -0.119842
-0.252052 0.275624 -0.0708556
-0.245324 0.272913 -0.0513444
-0.224975 0.254882 0.0850276
-0.217445 0.251638 0.108127
-0.21071 0.248268 0.131606
-0.205162 0.246894 0.146052
-0.200231 0.245832 0.150535
-0.195378 0.245887 0.155147
-0.190888 0.244175 0.165071
-0.185432 0.243392 0.171985
-0.180997 0.242131 0.177663
-0.175959 0.241525 0.184552
-0.171571 0.240817 0.191092
-0.16693 0.240369 0.194236
-0.162791 0.239783 0.195616
-0.158664 0.239542 0.197842
-0.153817 0.239036 0.204338
-0.149466 0.238421 0.208971
-0.145408 0.238046 0.210479
-0.140713 0.237454 0.214664
-0.136647 0.237411 0.217626
-0.132371 0.236575 0.219666
-0.128333 0.236601 0.22167
-0.124249 0.236325 0.223987
-0.120302 0.236025 0.226289
-0.116199 0.235393 0.22813
-0.11144 0.235463 0.229844
-0.107445 0.235068 0.232099
-0.103705 0.23558 0.234092
-0.099347 0.234794 0.235568
-0.095461 0.234799 0.236545
-0.0916165 0.234796 0.236488
-0.087337 0.234862 0.237696
-0.0837406 0.234264 0.239409
-0.0791259 0.233741 0.242896
-0.075382 0.233803 0.243351
-0.0714972 0.233535 0.245208
-0.0673758 0.23352 0.245211
-0.0629886 0.23317 0.246811
-0.0592762 0.233434 0.247515
-0.0554557 0.232936 0.248113
-0.0512415 0.233079 0.248669
-0.0470922 0.232712 0.250557
-0.0435122 0.232953 0.249636
-0.0393752 0.232613 0.250904
-0.0354836 0.232772 0.249934
-0.0316692 0.232947 0.250565
-0.0273892 0.233185 0.249679
-0.0240393 0.232864 0.248556
-0.0196948 0.233274 0.246979
-0.0159431 0.233552 0.248371
-0.0120033 0.233107 0.249951
-0.00793518 0.232958 0.249623
-0.00362255 0.233156 0.249024
4.34253e-05 0.233303 0.248666
0.00378065 0.232943 0.247435
0.00801128 0.233492 0.245524
0.0120857 0.233584 0.243159
0.015637 0.233961 0.242574
0.0199757 0.23376 0.240774
0.0240856 0.234483 0.239553
0.0276893 0.234336 0.237912
0.0317869 0.234458 0.237493
0.0361573 0.234797 0.235536
0.0397254 0.235011 0.234121
0.0440966 0.235136 0.231327
0.0478608 0.23574 0.230306
0.0520472 0.235733 0.22924
0.0561057 0.235394 0.229645
0.0599949 0.235973 0.228665
0.0639424 0.236063 0.226781
0.0680096 0.236346 0.224968
0.0719225 0.236209 0.22319
0.0762852 0.236418 0.220665
0.0807574 0.237079 0.216878
0.0846956 0.237891 0.212705
0.088903 0.238703 0.206304
0.093094 0.238798 0.205215
0.0970442 0.239264 0.204226
0.101226 0.239773 0.198727
0.106411 0.240551 0.190754
0.110734 0.242009 0.180746
0.115114 0.242767 0.177093
0.119324 0.243355 0.170403
0.124219 0.244222 0.165184
0.128609 0.244369 0.164071
0.132856 0.244957 0.161609
0.136696 0.244374 0.160236
0.141144 0.24521 0.157234
0.145317 0.24523 0.155868
0.149463 0.245444 0.155668
0.153742 0.245424 0.155187
0.158128 0.245702 0.155795
0.16226 0.244749 0.156311
0.166271 0.24553 0.155373
0.170651 0.245481 0.15487
0.174852 0.245152 0.15614
0.179207 0.245463 0.155632
0.183311 0.245395 0.154365
0.187529 0.245934 0.152633
0.191654 0.245771 0.151945
0.196248 0.246468 0.149056
0.200797 0.246469 0.146113
0.204747 0.246791 0.145188
0.209494 0.246969 0.14283
0.214083 0.247519 0.139828
0.218544 0.247774 0.136817
0.222741 0.24789 0.134389
0.227113 0.248507 0.133068
0.231723 0.248675 0.131156
0.236135 0.248533 0.130007
0.240386 0.248971 0.127694
0.245242 0.249908 0.124714
0.249503 0.249551 0.124259
0.25373 0.249433 0.12405
0.258608 0.249574 0.12327
0.262478 0.249632 0.12188
0.266803 0.250259 0.122956
0.270886 0.249503 0.12318
0.27599 0.250194 0.118988
0.282155 0.252376 0.103445
0.287136 0.252643 0.0997524
0.291993 0.253058 0.0972184
0.296268 0.253237 0.0957921
0.300656 0.253294 0.096324
0.304614 0.253598 0.0969182
0.309377 0.253108 0.0974331
0.313277 0.25342 0.0968611
0.317559 0.253059 0.0979708
0.321818 0.252841 0.0988957
0.325589 0.252843 0.0995981
0.329835 0.252597 0.101728
0.333474 0.252104 0.104234
0.337725 0.25195 0.104838
0.341751 0.252271 0.105056
0.346608 0.252119 0.104558
0.351 0.252549 0.102577
0.355191 0.252457 0.101872
0.359981 0.252389 0.100648
0.364513 0.252955 0.0996982
0.368845 0.253122 0.0984582
0.373256 0.252823 0.0963571
0.37815 0.253517 0.0928547
0.383244 0.253994 0.0907724
0.388254 0.254396 0.0887715
0.392711 0.254558 0.0859476
0.398145 0.255119 0.0814557
0.402965 0.255544 0.0779115
0.409083 0.256979 0.070933
0.416959 0.25889 0.0542294
-0.324618 0.299437 -0.213315
-0.318593 0.298713 -0.20669
-0.312889 0.297729 -0.203468
-0.30755 0.297755 -0.200459
-0.302174 0.297039 -0.197404
-0.2972 0.296745 -0.193599
-0.290451 0.296011 -0.187496
-0.28555 0.29495 -0.181175
-0.280126 0.294698 -0.17889
-0.269664 0.2891 -0.136253
-0.263907 0.287635 -0.128036
-0.257959 0.287242 -0.121982
-0.246156 0.278151 -0.0594699
-0.223855 0.258592 0.0894804
-0.216945 0.25597 0.111522
-0.210348 0.25224 0.134385
-0.204663 0.25075 0.147444
-0.200428 0.250177 0.151043
-0.194849 0.249258 0.159967
-0.190059 0.247758 0.167882
-0.185143 0.247063 0.173978
-0.180722 0.246149 0.177915
-0.17687 0.246332 0.180417
-0.171621 0.2455 0.186674
-0.167125 0.24455 0.191127
-0.162716 0.244428 0.194521
-0.159009 0.243964 0.195598
-0.154166 0.243957 0.201037
-0.149677 0.242597 0.207541
-0.145102 0.242065 0.210745
-0.140957 0.241642 0.214049
-0.136794 0.24149 0.216616
-0.132512 0.240845 0.219951
-0.128753 0.240607 0.221343
-0.124185 0.240333 0.22353
-0.12017 0.239833 0.226275
-0.115903 0.239259 0.228333
-0.111342 0.239233 0.231196
-0.107985 0.239266 0.232159
-0.103586 0.239316 0.234054
-0.0997749 0.239186 0.234936
-0.0955394 0.238904 0.236463
-0.0917903 0.238469 0.235996
-0.0874065 0.238777 0.236883
-0.0831833 0.238367 0.239712
-0.0788644 0.238146 0.24266
-0.075357 0.237831 0.243026
-0.0712873 0.237543 0.244699
-0.066602 0.237307 0.246098
-0.0632587 0.237258 0.246346
-0.0591038 0.237108 0.247684
-0.055296 0.236982 0.24887
-0.051559 0.236628 0.248841
-0.0473665 0.236853 0.249846
-0.0436293 0.23689 0.249411
-0.0399689 0.236834 0.25016
-0.0354035 0.236784 0.250853
-0.031689 0.23702 0.250669
-0.0276133 0.237146 0.249193
-0.0237095 0.237054 0.247002
-0.0194397 0.237375 0.246857
-0.0159464 0.237474 0.246749
-0.0118417 0.236964 0.247495
-0.00786259 0.236682 0.247572
-0.00400532 0.236932 0.247951
-9.79964e-05 0.237357 0.24722
0.00420024 0.237284 0.245834
0.00796517 0.237817 0.24453
0.0117674 0.237617 0.243425
0.0157395 0.238085 0.2424
0.0201144 0.237925 0.242574
0.0240136 0.237788 0.242183
0.0276369 0.238018 0.240834
0.0318712 0.237917 0.239844
0.035847 0.237953 0.239051
0.039757 0.238501 0.235577
0.0439726 0.23969 0.23153
0.0482533 0.239657 0.230748
0.0519216 0.239426 0.231012
0.0561384 0.239577 0.231134
0.0596373 0.239752 0.229821
0.0639394 0.23974 0.227376
0.0677737 0.240099 0.22659
0.0720234 0.240548 0.222322
0.0760067 0.240798 0.220592
0.0803848 0.241288 0.217711
0.0847701 0.242043 0.212666
0.0891073 0.242786 0.206409
0.092747 0.242441 0.206571
0.096708 0.242914 0.204466
0.101355 0.243573 0.200103
0.105628 0.244314 0.194109
0.110591 0.24633 0.180295
0.115167 0.246487 0.17777
0.118933 0.247052 0.174392
0.123727 0.248321 0.166781
0.128747 0.248958 0.163384
0.132532 0.248735 0.161568
0.137045 0.249078 0.159306
0.141555 0.249572 0.156188
0.145573 0.249632 0.15475
0.150033 0.24933 0.154274
0.15389 0.249815 0.15373
0.158572 0.249644 0.154128
0.162481 0.249273 0.154862
0.166288 0.248951 0.154806
0.170923 0.24969 0.153268
0.174777 0.250281 0.153409
0.179146 0.250021 0.153075
0.18314 0.250064 0.153048
0.187278 0.249963 0.152362
0.192023 0.250567 0.149104
0.196299 0.250723 0.146634
0.201282 0.25129 0.144526
0.205152 0.251743 0.142724
0.209308 0.251589 0.141299
0.214347 0.252425 0.137868
0.218981 0.252114 0.135504
0.223367 0.252871 0.132692
0.227616 0.25322 0.130396
0.232037 0.253161 0.129184
0.236337 0.253545 0.127216
0.241157 0.254018 0.123486
0.245997 0.254243 0.121065
0.250324 0.253668 0.121828
0.254252 0.254677 0.120205
0.258808 0.254239 0.119197
0.262875 0.254595 0.118439
0.266847 0.25453 0.119801
0.271408 0.254176 0.118759
0.276985 0.255146 0.112565
0.28255 0.257375 0.0993477
0.287608 0.257777 0.0959408
0.29222 0.257814 0.0951253
0.296553 0.257598 0.0951676
0.301028 0.257711 0.0944074
0.30499 0.257754 0.0964116
0.309038 0.25745 0.0965906
0.313323 0.257591 0.0984575
0.316873 0.25747 0.0996332
0.321459 0.25695 0.100146
0.325602 0.256865 0.101644
0.329279 0.256829 0.10366
0.333175 0.256289 0.105384
0.337844 0.256735 0.1049
0.341605 0.256163 0.105727
0.346307 0.256247 0.105518
0.350963 0.256566 0.104106
0.355145 0.256559 0.103161
0.359732 0.256949 0.102289
0.364052 0.257049 0.100737
0.368673 0.257223 0.0988275
0.373534 0.257554 0.096378
0.378972 0.257766 0.0926291
0.382775 0.258296 0.0916758
0.387889 0.258657 0.0888147
0.392672 0.258949 0.0864105
0.397972 0.259362 0.0827506
0.403175 0.259743 0.079289
0.408093 0.260198 0.0754884
0.414095 0.261773 0.0668039
-0.3218 0.306598 -0.228382
-0.313838 0.303897 -0.208059
-0.308179 0.302822 -0.203214
-0.302484 0.30241 -0.200572
-0.2971 0.301847 -0.197559
-0.291822 0.30206 -0.194584
-0.286401 0.301327 -0.189541
-0.280863 0.300639 -0.185081
-0.275298 0.299829 -0.180805
-0.270127 0.299613 -0.178114
-0.265247 0.298814 -0.176541
-0.260428 0.299296 -0.175488
-0.224045 0.262792 0.0882627
-0.217099 0.259837 0.112649
-0.210706 0.256665 0.134053
-0.205004 0.25502 0.147016
-0.2007 0.254284 0.150965
-0.194497 0.252737 0.163983
-0.189935 0.251456 0.171083
-0.185256 0.25103 0.175641
-0.180586 0.2504 0.179905
-0.176802 0.249823 0.182182
-0.171638 0.249313 0.186704
-0.16741 0.249276 0.190476
-0.162933 0.248455 0.192634
-0.158691 0.2487 0.194774
-0.154278 0.247707 0.198319
-0.149621 0.246737 0.205201
-0.1454 0.246531 0.208668
-0.14106 0.245599 0.212508
-0.136806 0.245432 0.216463
-0.132712 0.245223 0.218326
-0.128601 0.244629 0.220949
-0.124372 0.244598 0.222881
-0.120207 0.244012 0.226315
-0.115759 0.243434 0.229001
-0.112005 0.243634 0.229014
-0.107545 0.243353 0.231172
-0.103978 0.243093 0.233766
-0.0995787 0.242354 0.235501
-0.0956736 0.242579 0.236529
-0.0913957 0.242524 0.236257
-0.0877167 0.242721 0.235635
-0.0836072 0.242245 0.238643
-0.0792389 0.241949 0.241701
-0.0752312 0.241439 0.243708
-0.0713869 0.241467 0.244508
-0.0673706 0.241643 0.245188
-0.0634353 0.241162 0.246653
-0.0596185 0.241455 0.246961
-0.0552754 0.24113 0.247418
-0.0512576 0.240851 0.249061
-0.0471814 0.24115 0.249477
-0.0434616 0.240885 0.24953
-0.0394022 0.240718 0.250203
-0.035776 0.24124 0.249696
-0.0314762 0.240339 0.249668
-0.0276148 0.240981 0.247176
-0.0237064 0.241274 0.245783
-0.019833 0.241347 0.245306
-0.0160111 0.241117 0.245292
-0.0123372 0.241048 0.247717
-0.00788872 0.24085 0.247751
-0.00386802 0.241047 0.247984
0.000146099 0.240843 0.24669
0.00421035 0.241096 0.246763
0.00789661 0.241403 0.246511
0.0121845 0.241388 0.245604
0.0161784 0.241635 0.245274
0.0194607 0.241582 0.245206
0.0239237 0.241718 0.243091
0.028047 0.241935 0.242691
0.0318859 0.24189 0.241605
0.0354175 0.241936 0.239721
0.0393014 0.242414 0.237598
0.0439229 0.243301 0.232309
0.0477327 0.243405 0.232119
0.0519566 0.243309 0.230078
0.055578 0.243545 0.230602
0.0597716 0.243658 0.229325
0.0640437 0.244025 0.227272
0.0683449 0.244172 0.225003
0.0721358 0.244579 0.222094
0.0763082 0.244798 0.220288
0.0802923 0.24554 0.216622
0.0844874 0.246408 0.212517
0.0892997 0.247004 0.206062
0.0927428 0.246345 0.205536
0.0972271 0.246838 0.20424
0.101718 0.247827 0.199418
0.105512 0.248379 0.19554
0.111279 0.249942 0.179508
0.114916 0.250199 0.177443
0.11916 0.250984 0.173869
0.124367 0.252202 0.165341
0.128289 0.252756 0.163074
0.132978 0.25324 0.160534
0.136764 0.253187 0.15854
0.141343 0.253417 0.156564
0.145939 0.253909 0.153636
0.149884 0.254273 0.152316
0.154611 0.254506 0.150953
0.158543 0.254015 0.151399
0.162341 0.254544 0.151724
0.166733 0.254431 0.151
0.17118 0.254328 0.150523
0.175133 0.254496 0.14975
0.179299 0.254411 0.150425
0.183427 0.254477 0.150525
0.187974 0.254575 0.148914
0.192277 0.254838 0.146713
0.196824 0.255429 0.143696
0.201314 0.25545 0.14199
0.205127 0.255698 0.140686
0.209852 0.255938 0.138485
0.214411 0.256473 0.135812
0.218986 0.256966 0.132924
0.223388 0.257349 0.130502
0.228093 0.258134 0.127645
0.232129 0.257771 0.127156
0.23643 0.257737 0.124823
0.241735 0.259039 0.118955
0.24655 0.258465 0.117918
0.250233 0.258938 0.117461
0.254896 0.259057 0.116878
0.259331 0.259229 0.115522
0.263445 0.259422 0.114258
0.26789 0.259453 0.114056
0.271908 0.259093 0.11385
0.277627 0.260496 0.107197
0.28352 0.2619 0.0960888
0.288126 0.262495 0.0945243
0.291812 0.261803 0.0943594
0.296627 0.262464 0.0943635
0.300774 0.262393 0.0937517
0.305 0.261842 0.0958095
0.308852 0.261917 0.0973474
0.313198 0.261636 0.098667
0.317393 0.261319 0.100058
0.320959 0.260902 0.101847
0.324298 0.260904 0.103834
0.329308 0.260475 0.104686
0.333296 0.260273 0.106187
0.337365 0.260576 0.105907
0.341667 0.260278 0.106656
0.345965 0.260396 0.105477
0.350476 0.260929 0.104533
0.354397 0.260543 0.104277
0.359782 0.260961 0.102032
0.364185 0.261296 0.100619
0.36811 0.261677 0.100581
0.373042 0.261539 0.0973127
0.378266 0.262032 0.0924988
0.383106 0.262657 0.0914549
0.387385 0.262651 0.0902067
0.392354 0.262639 0.0873605
0.397397 0.263637 0.0841979
0.402962 0.264049 0.0807987
0.407828 0.264172 0.0772597
0.412827 0.265436 0.0715659
0.420475 0.267051 0.058202
-0.324198 0.313875 -0.245908
-0.317873 0.312945 -0.235338
-0.311623 0.312375 -0.233646
-0.303891 0.308752 -0.209489
-0.298445 0.308191 -0.206549
-0.293247 0.308288 -0.203539
-0.28758 0.307361 -0.198092
-0.282339 0.30718 -0.19583
-0.27708 0.306973 -0.193905
-0.270882 0.305719 -0.185548
-0.266257 0.305395 -0.182185
-0.260549 0.305057 -0.181479
-0.225358 0.268779 0.0782155
-0.217162 0.263744 0.112094
-0.210745 0.260975 0.133198
-0.204983 0.259079 0.14608
-0.200103 0.258827 0.152087
-0.194399 0.2567 0.164595
-0.189416 0.255463 0.172499
-0.185301 0.254907 0.175817
-0.180764 0.25384 0.180865
-0.175928 0.253947 0.185897
-0.17196 0.253471 0.188895
-0.167336 0.252693 0.191673
-0.162735 0.252702 0.194266
-0.158598 0.252467 0.195512
-0.154498 0.251734 0.198179
-0.149986 0.251419 0.201596
-0.145526 0.250646 0.206399
-0.141346 0.250125 0.209066
-0.137244 0.250206 0.21172
-0.132698 0.249093 0.215593
-0.128373 0.248714 0.219333
-0.124343 0.248614 0.221823
-0.120193 0.248281 0.224197
-0.115985 0.248241 0.225895
-0.111382 0.247235 0.229055
-0.107455 0.247707 0.230721
-0.1035 0.246827 0.232227
-0.0997274 0.246974 0.233387
-0.0955861 0.247184 0.233744
-0.0912676 0.246808 0.233789
-0.0875876 0.246928 0.234015
-0.0833753 0.246597 0.236458
-0.0792384 0.246099 0.240324
-0.0750502 0.245822 0.241904
-0.071162 0.245357 0.24365
-0.0674334 0.245716 0.244235
-0.0630451 0.245439 0.24522
-0.05938 0.245239 0.245227
-0.0556371 0.245436 0.245916
-0.0512209 0.244909 0.24809
-0.0475961 0.24509 0.248362
-0.0433679 0.244734 0.248766
-0.039188 0.244547 0.248692
-0.035751 0.244647 0.248434
-0.0320437 0.245281 0.248473
-0.027744 0.245191 0.246367
-0.0235037 0.245113 0.245569
-0.0197177 0.245511 0.245889
-0.0158244 0.245704 0.246372
-0.0118608 0.244918 0.247574
-0.00787923 0.245073 0.247588
-0.00406346 0.245187 0.249087
4.42739e-05 0.244784 0.248129
0.00369141 0.245129 0.24854
0.00829621 0.245075 0.247805
0.0116485 0.245332 0.247209
0.0160794 0.244771 0.246127
0.0200346 0.245339 0.244907
0.0236418 0.245494 0.2457
0.0277334 0.245527 0.243876
0.0316793 0.245503 0.243032
0.0355801 0.246058 0.241187
0.0398065 0.246478 0.238108
0.0437552 0.247119 0.233872
0.0477859 0.247401 0.231414
0.0513234 0.246988 0.232154
0.0558122 0.247471 0.230232
0.0599919 0.24756 0.229095
0.0639934 0.247997 0.226234
0.0684834 0.248111 0.22348
0.0725496 0.248359 0.221595
0.0764396 0.248982 0.219188
0.0805318 0.249071 0.216785
0.0849327 0.250272 0.210977
0.0885304 0.250804 0.206557
0.0930969 0.250678 0.206136
0.0967889 0.251237 0.203723
0.101393 0.251672 0.199729
0.105998 0.252456 0.194291
0.110984 0.254419 0.180079
0.115122 0.254848 0.176386
0.119379 0.2554 0.172577
0.12402 0.256287 0.167153
0.12839 0.257116 0.163092
0.132971 0.256739 0.160932
0.13696 0.257528 0.157827
0.141351 0.258196 0.155153
0.145665 0.258652 0.152554
0.149914 0.258532 0.150048
0.154339 0.259118 0.149401
0.158512 0.25891 0.148531
0.16298 0.259666 0.147624
0.166707 0.259081 0.148579
0.171277 0.258976 0.147399
0.175343 0.259257 0.146874
0.179467 0.258934 0.147679
0.183588 0.259341 0.146095
0.188079 0.259048 0.14569
0.192588 0.259178 0.145653
0.196835 0.259629 0.141536
0.201891 0.260075 0.139272
0.205642 0.26057 0.138123
0.209933 0.260919 0.136099
0.214466 0.261063 0.134324
0.219475 0.261681 0.129217
0.223908 0.261906 0.125973
0.228439 0.262293 0.12376
0.233139 0.262627 0.121394
0.237926 0.263311 0.11715
0.242741 0.26348 0.113869
0.247371 0.263799 0.112586
0.251386 0.263854 0.112713
0.255659 0.26371 0.112067
0.259783 0.263674 0.111225
0.264642 0.264643 0.108447
0.268584 0.264383 0.108677
0.273692 0.265058 0.106716
0.27903 0.265979 0.0973983
0.283994 0.266765 0.091712
0.288026 0.266742 0.0925465
0.292315 0.266741 0.0933764
0.296859 0.266633 0.0919532
0.300925 0.266756 0.0929561
0.304987 0.266561 0.0956203
0.309183 0.266207 0.0965819
0.313101 0.265568 0.0986307
0.317116 0.265587 0.10073
0.320848 0.265766 0.102857
0.325081 0.265154 0.103975
0.329079 0.264806 0.10523
0.333455 0.264608 0.106475
0.33737 0.264892 0.107595
0.341531 0.264645 0.106134
0.345947 0.265052 0.105923
0.350517 0.264631 0.105202
0.355051 0.265003 0.10444
0.359404 0.26535 0.102992
0.364303 0.26547 0.101506
0.368412 0.265417 0.100534
0.372695 0.265565 0.0980569
0.377494 0.266164 0.0955672
0.382854 0.26668 0.0925772
0.387147 0.26699 0.0911496
0.392743 0.267617 0.0876631
0.397074 0.267274 0.0861864
0.402375 0.267855 0.0818094
0.407051 0.268401 0.0797879
0.412098 0.269091 0.0756646
0.41874 0.2704 0.0646918
-0.32038 0.320259 -0.25314
-0.315296 0.319628 -0.249414
-0.308306 0.318169 -0.242267
-0.30259 0.317584 -0.236848
-0.295284 0.315568 -0.222786
-0.289543 0.314207 -0.212006
-0.283245 0.312737 -0.203678
-0.278207 0.312957 -0.20103
-0.27196 0.312047 -0.195994
-0.266575 0.311088 -0.192309
-0.262124 0.311459 -0.191788
-0.257013 0.311697 -0.193013
-0.217429 0.269001 0.109952
-0.210681 0.265622 0.130171
-0.205024 0.263575 0.144397
-0.2004 0.263185 0.150081
-0.194403 0.260957 0.163552
-0.189798 0.259825 0.170273
-0.184825 0.258863 0.177155
-0.180397 0.258523 0.182424
-0.176007 0.257365 0.186586
-0.171366 0.257158 0.190349
-0.166962 0.256892 0.192869
-0.162797 0.256509 0.194646
-0.158466 0.256401 0.196164
-0.154589 0.256193 0.197842
-0.15011 0.255705 0.201382
-0.145747 0.254929 0.206051
-0.141153 0.254466 0.209233
-0.136696 0.253661 0.212173
-0.132668 0.253728 0.213966
-0.128854 0.253471 0.215766
-0.124756 0.253241 0.21802
-0.120038 0.252541 0.222098
-0.116169 0.252337 0.224074
-0.112157 0.25215 0.225853
-0.107752 0.252015 0.229339
-0.10396 0.251487 0.230675
-0.0994703 0.251463 0.232178
-0.095817 0.251024 0.232709
-0.0916926 0.25086 0.232475
-0.0878424 0.251278 0.232379
-0.0837122 0.251027 0.234408
-0.0793564 0.250037 0.238179
-0.0754658 0.2499 0.240047
-0.0715077 0.249771 0.242018
-0.0670234 0.249427 0.243801
-0.0630394 0.249334 0.243958
-0.0596749 0.249581 0.244225
-0.0552343 0.249309 0.245412
-0.0516334 0.249405 0.24605
-0.0473157 0.249203 0.246891
-0.0431401 0.249075 0.247781
-0.0396138 0.248788 0.248971
-0.0356717 0.24868 0.247766
-0.0317767 0.248985 0.248239
-0.0275564 0.249232 0.247313
-0.0238027 0.249344 0.246253
-0.0198022 0.249221 0.24596
-0.0158994 0.249143 0.247681
-0.0119078 0.248783 0.2496
-0.00775699 0.2485 0.249809
-0.00391663 0.248826 0.249596
-0.000203591 0.248534 0.250163
0.00392302 0.248682 0.248887
0.00773116 0.249067 0.248996
0.0119464 0.248505 0.247582
0.0161348 0.2491 0.246943
0.0199756 0.249352 0.245849
0.0233588 0.24957 0.244931
0.0276869 0.249948 0.242241
0.0318374 0.249533 0.241299
0.0358102 0.250108 0.240769
0.0396621 0.250268 0.238477
0.043502 0.250656 0.235204
0.0478447 0.251109 0.231104
0.0519921 0.251268 0.231567
0.0557311 0.251634 0.230731
0.0596637 0.251899 0.228718
0.0635743 0.251594 0.228151
0.0682683 0.252339 0.223268
0.0721602 0.252551 0.221341
0.076217 0.252985 0.219311
0.0804668 0.253511 0.216477
0.084786 0.25392 0.211621
0.0888096 0.25451 0.206152
0.0930186 0.255058 0.204771
0.0974285 0.255481 0.203238
0.101588 0.256069 0.199331
0.105657 0.256494 0.194677
0.110767 0.258346 0.181314
0.11534 0.259246 0.17479
0.119063 0.259566 0.172485
0.123914 0.260641 0.165594
0.128491 0.261168 0.162017
0.133035 0.261387 0.159467
0.137427 0.261552 0.156547
0.141797 0.262526 0.153291
0.145992 0.263067 0.151282
0.15062 0.262978 0.149423
0.154581 0.26301 0.147489
0.158876 0.263314 0.146172
0.162894 0.263579 0.145298
0.167309 0.26318 0.14528
0.171356 0.26336 0.144118
0.175642 0.264032 0.144807
0.179817 0.263431 0.145273
0.184108 0.263533 0.143771
0.188478 0.264168 0.143354
0.192528 0.263605 0.141914
0.197345 0.264139 0.139084
0.201587 0.264221 0.137955
0.205734 0.26501 0.135741
0.210771 0.265511 0.132384
0.215131 0.266036 0.128445
0.219946 0.266662 0.122445
0.225098 0.267487 0.117329
0.22968 0.267783 0.115879
0.233854 0.267658 0.114692
0.238586 0.268311 0.110716
0.243177 0.269009 0.10635
0.247655 0.269325 0.106211
0.251869 0.269347 0.106434
0.256186 0.269327 0.105963
0.260447 0.269118 0.104992
0.265469 0.269814 0.103932
0.268885 0.269185 0.103967
0.274435 0.270216 0.0988842
0.280102 0.271752 0.0892931
0.284904 0.271606 0.089793
0.288804 0.270888 0.0903672
0.292652 0.271204 0.0915118
0.297118 0.271725 0.0904955
0.301094 0.271015 0.0903941
0.305094 0.271223 0.0928652
0.309342 0.270466 0.0950245
0.313252 0.270399 0.0972998
0.317013 0.26966 0.101043
0.32076 0.269436 0.102979
0.324721 0.26925 0.103556
0.329285 0.268985 0.10477
0.333183 0.269345 0.105408
0.337381 0.268646 0.106451
0.341619 0.268776 0.107178
0.345581 0.268983 0.106902
0.350145 0.269229 0.106214
0.354432 0.269254 0.105238
0.358871 0.269382 0.104434
0.363375 0.269363 0.102994
0.368127 0.269682 0.101698
0.373632 0.269929 0.0978129
0.377801 0.270397 0.0956688
0.382895 0.271303 0.0935756
0.387187 0.270901 0.0913144
0.392086 0.271357 0.0895785
0.396869 0.271849 0.0865545
0.401763 0.272239 0.0834116
0.406568 0.272774 0.0810981
0.412358 0.273468 0.0756764
0.41931 0.274894 0.0639007
-0.315263 0.325069 -0.254555
-0.309576 0.325249 -0.252671
-0.304526 0.325343 -0.252284
-0.299472 0.325244 -0.250959
-0.29214 0.322167 -0.233085
-0.285969 0.320794 -0.222639
-0.279835 0.319798 -0.217322
-0.273913 0.318525 -0.204997
-0.267586 0.316716 -0.198867
-0.262817 0.317188 -0.198389
-0.257581 0.317457 -0.20081
-0.217114 0.272988 0.109744
-0.211614 0.270613 0.125521
-0.205684 0.268262 0.140252
-0.200302 0.267122 0.148322
-0.194949 0.265328 0.160979
-0.190083 0.264262 0.168352
-0.185383 0.263067 0.175221
-0.180164 0.262296 0.181914
-0.176113 0.261971 0.185914
-0.171585 0.261587 0.190317
-0.16714 0.260648 0.194491
-0.162688 0.26033 0.196034
-0.158539 0.260774 0.195713
-0.154494 0.260062 0.197362
-0.149864 0.259358 0.203929
-0.145535 0.258656 0.207986
-0.141095 0.258319 0.20971
-0.137445 0.257895 0.212161
-0.132842 0.257735 0.213256
-0.128522 0.257307 0.217087
-0.124134 0.257386 0.219074
-0.120521 0.257167 0.220405
-0.116225 0.256659 0.223328
-0.111821 0.255968 0.226461
-0.107694 0.255913 0.227994
-0.103856 0.255465 0.229897
-0.0996452 0.255454 0.231214
-0.0958903 0.255281 0.232196
-0.0914986 0.254813 0.232922
-0.0874917 0.254936 0.232487
-0.0836097 0.25462 0.234133
-0.0794588 0.254519 0.236368
-0.0754927 0.254385 0.239879
-0.07154 0.253619 0.241774
-0.0673455 0.253666 0.243099
-0.0634625 0.254411 0.243291
-0.0592033 0.25329 0.245441
-0.0551389 0.253133 0.246141
-0.0515105 0.253175 0.245359
-0.0473143 0.25315 0.247818
-0.0436198 0.252806 0.248366
-0.0396512 0.25269 0.248908
-0.0352745 0.252548 0.249617
-0.0314278 0.252735 0.249094
-0.0275557 0.252906 0.248075
-0.0238205 0.253109 0.246459
-0.0198886 0.253014 0.247722
-0.0157306 0.252782 0.248829
-0.0116614 0.252228 0.250881
-0.00790428 0.252451 0.250596
-0.00356409 0.252547 0.25098
-7.29905e-06 0.252441 0.250604
0.00389288 0.252628 0.249769
0.00788346 0.252735 0.250079
0.0123383 0.253073 0.247858
0.0157382 0.253015 0.247078
0.019577 0.253109 0.246049
0.0241031 0.253372 0.244694
0.0278346 0.253519 0.243548
0.0314937 0.253774 0.241982
0.0358319 0.254075 0.240472
0.0399582 0.254328 0.23806
0.0434175 0.254953 0.233812
0.0477864 0.255013 0.231987
0.0519412 0.255544 0.230169
0.0559561 0.255445 0.230485
0.0597406 0.255655 0.229112
0.0641627 0.256122 0.226184
0.0677711 0.256448 0.223887
0.0720744 0.256783 0.221402
0.0758719 0.257108 0.21936
0.0803478 0.257456 0.215645
0.0847383 0.2582 0.211179
0.089159 0.259191 0.204369
0.0934563 0.259434 0.202777
0.097311 0.259646 0.201598
0.101315 0.260072 0.198274
0.106345 0.260879 0.192432
0.110974 0.262579 0.181649
0.115025 0.264048 0.173033
0.119536 0.264121 0.17003
0.124692 0.264773 0.165589
0.128396 0.265552 0.162318
0.133109 0.266079 0.158895
0.137055 0.266164 0.155413
0.141473 0.266115 0.153774
0.145912 0.267272 0.150435
0.150432 0.267555 0.14832
0.154405 0.26752 0.146748
0.159057 0.267758 0.144601
0.16342 0.268294 0.143258
0.167289 0.268102 0.143061
0.171939 0.268276 0.141439
0.175982 0.268175 0.141508
0.180773 0.268385 0.14154
0.184709 0.268272 0.141443
0.188603 0.268233 0.140907
0.193258 0.268848 0.137695
0.197384 0.268884 0.135649
0.202159 0.269658 0.132243
0.206671 0.269962 0.131253
0.211253 0.270217 0.126953
0.21588 0.271367 0.120639
0.221776 0.272362 0.112197
0.225822 0.27268 0.109821
0.230748 0.272699 0.108457
0.234831 0.273333 0.103373
0.263439 0.276403 0.0851264
0.266848 0.275813 0.0902984
0.271669 0.275919 0.087871
0.276898 0.276946 0.0810714
0.280906 0.276195 0.0840161
0.284752 0.276286 0.086567
0.2887 0.27596 0.0895022
0.292938 0.275856 0.0891253
0.29738 0.276035 0.0889387
0.301246 0.276019 0.0897645
0.306272 0.276046 0.088994
0.309981 0.275396 0.0917919
0.313548 0.275093 0.0952939
0.316962 0.274372 0.100534
0.32079 0.27395 0.102835
0.324793 0.27407 0.103462
0.329146 0.273563 0.105622
0.333021 0.273403 0.10563
0.337372 0.273494 0.106375
0.341635 0.273501 0.106588
0.346131 0.2734 0.10527
0.350489 0.27308 0.106786
0.354679 0.272889 0.1062
0.359082 0.274026 0.104163
0.363443 0.273659 0.103219
0.368225 0.273901 0.101694
0.373464 0.274409 0.0980731
0.37769 0.274631 0.0963796
0.38251 0.275058 0.0938356
0.387159 0.275588 0.0920558
0.392291 0.275758 0.0894817
0.396412 0.275681 0.0873386
0.402021 0.276452 0.0844655
0.406568 0.276759 0.0816668
0.411975 0.277493 0.0774325
0.42072 0.280426 0.0570281
-0.311115 0.331627 -0.263884
-0.306656 0.332487 -0.265283
-0.296341 0.331875 -0.262685
-0.288251 0.328724 -0.24531
-0.281591 0.326757 -0.230957
-0.275938 0.326567 -0.225612
-0.270033 0.325331 -0.220347
-0.265081 0.32517 -0.217669
-0.260319 0.325142 -0.219218
-0.219457 0.279943 0.0907934
-0.212058 0.275155 0.121828
-0.2062 0.273629 0.135447
-0.200738 0.271623 0.147496
-0.195865 0.270805 0.152438
-0.18999 0.268274 0.167605
-0.185977 0.268028 0.172861
-0.180708 0.266855 0.180723
-0.176228 0.265954 0.185404
-0.171375 0.265467 0.189818
-0.167022 0.264496 0.194054
-0.163137 0.264549 0.195765
-0.158776 0.264339 0.196292
-0.154748 0.263999 0.198154
-0.149695 0.263264 0.205321
-0.145456 0.262757 0.209859
-0.14131 0.2624 0.211823
-0.13683 0.261848 0.21408
-0.132558 0.26117 0.216754
-0.128756 0.261458 0.218031
-0.124623 0.261146 0.220233
-0.120627 0.260215 0.221959
-0.116174 0.260204 0.225647
-0.111923 0.259943 0.226909
-0.107984 0.259872 0.229348
-0.103572 0.259698 0.230855
-0.0993203 0.259431 0.232222
-0.0955801 0.259066 0.232846
-0.0917476 0.259132 0.233584
-0.0873467 0.259076 0.233399
-0.0838616 0.258335 0.236387
-0.0794881 0.258356 0.238984
-0.0756008 0.257838 0.240509
-0.0711384 0.257137 0.242702
-0.0669092 0.257145 0.244336
-0.0634906 0.257256 0.244274
-0.0589113 0.25731 0.246218
-0.0552416 0.256882 0.246895
-0.0516981 0.256921 0.248073
-0.0473848 0.257004 0.247479
-0.0434019 0.256511 0.249441
-0.0392121 0.256188 0.250003
-0.0358377 0.256406 0.250005
-0.0319033 0.256785 0.250332
-0.0274202 0.25673 0.249166
-0.0240481 0.256976 0.24796
-0.0196312 0.256616 0.248271
-0.0157586 0.256488 0.249755
-0.0118753 0.256833 0.250183
-0.00773787 0.256484 0.250878
-0.00402336 0.256555 0.25037
-0.000132388 0.256633 0.251094
0.0039148 0.256255 0.250136
0.00778652 0.25678 0.249457
0.0116262 0.256713 0.247547
0.015773 0.2569 0.247268
0.0198513 0.257221 0.245702
0.0236699 0.256946 0.245257
0.0276358 0.25745 0.243676
0.031759 0.257818 0.240937
0.0357705 0.258007 0.240263
0.0395772 0.258203 0.238271
0.0440062 0.259188 0.232856
0.047637 0.259324 0.231182
0.0517791 0.259257 0.230454
0.0560084 0.259555 0.229392
0.0601184 0.25986 0.227807
0.0642815 0.260168 0.225048
0.0680673 0.260681 0.223301
0.0721685 0.26051 0.2211
0.0762575 0.261167 0.218682
0.0803096 0.261799 0.216442
0.0847542 0.262376 0.211617
0.0890125 0.263453 0.20437
0.0933433 0.263319 0.203167
0.0972069 0.263863 0.201826
0.101472 0.264318 0.196978
0.106217 0.265081 0.192135
0.11072 0.266281 0.183525
0.115559 0.268295 0.171371
0.11952 0.268569 0.169804
0.123909 0.269 0.16589
0.128476 0.269535 0.161159
0.133076 0.270025 0.157815
0.137357 0.270601 0.154696
0.142506 0.271096 0.150328
0.145995 0.271275 0.14913
0.150558 0.271843 0.146735
0.154898 0.271887 0.144305
0.158764 0.272471 0.142878
0.163416 0.272114 0.140756
0.167806 0.272411 0.13884
0.172183 0.273456 0.135888
0.17666 0.273197 0.136728
0.180478 0.273096 0.137606
0.18472 0.273111 0.137051
0.189339 0.273888 0.134702
0.193539 0.273708 0.132679
0.198576 0.27438 0.127426
0.20324 0.275422 0.123693
0.207749 0.275175 0.12151
0.212052 0.276013 0.117658
0.218059 0.277669 0.103526
0.272256 0.28524 0.0508034
0.274105 0.28267 0.0718422
0.278112 0.282916 0.0722849
0.281871 0.282037 0.0772331
0.285203 0.281367 0.0818043
0.289545 0.280724 0.0850232
0.29319 0.280532 0.0871006
0.297089 0.28021 0.0884944
0.301993 0.280014 0.088223
0.306314 0.280295 0.0876144
0.310462 0.28013 0.0893179
0.314114 0.280065 0.0922041
0.317429 0.279041 0.0981581
0.321245 0.278201 0.102128
0.325392 0.277528 0.10337
0.329044 0.277497 0.104609
0.333215 0.278108 0.104973
0.33736 0.277566 0.106018
0.341636 0.276978 0.107178
0.346036 0.277958 0.106608
0.350446 0.277439 0.106613
0.354714 0.278046 0.105911
0.359353 0.277925 0.104268
0.363874 0.278505 0.102591
0.36828 0.278223 0.100994
0.372909 0.278962 0.099151
0.377669 0.278979 0.0966517
0.382436 0.279375 0.0951042
0.387177 0.279689 0.0925385
0.392255 0.279633 0.0900882
0.396933 0.280214 0.0875012
0.401236 0.280819 0.0842414
0.406839 0.281235 0.0811619
0.412908 0.282389 0.0740815
0.421536 0.285491 0.0527406
0.446959 0.299886 -0.0434258
-0.292387 0.338641 -0.275769
-0.286461 0.337311 -0.266963
-0.279778 0.335061 -0.251699
-0.27331 0.33452 -0.24596
-0.268308 0.333965 -0.24362
-0.261184 0.331596 -0.230612
-0.219517 0.284726 0.0879625
-0.212154 0.280238 0.117418
-0.206424 0.278093 0.131537
-0.200755 0.276305 0.145087
-0.196041 0.275142 0.151312
-0.190163 0.27336 0.165097
-0.185735 0.272148 0.171078
-0.180874 0.271363 0.178833
-0.175356 0.269867 0.185201
-0.171809 0.269631 0.188326
-0.167006 0.269295 0.192783
-0.16298 0.26872 0.194949
-0.158373 0.268483 0.196389
-0.154507 0.268455 0.198263
-0.149864 0.267473 0.205186
-0.145573 0.26642 0.208435
-0.140803 0.266199 0.211638
-0.136687 0.265641 0.214628
-0.132657 0.265482 0.217913
-0.128444 0.265141 0.21991
-0.124698 0.264808 0.221234
-0.119932 0.264513 0.223714
-0.116266 0.264193 0.225553
-0.111693 0.263669 0.227926
-0.107842 0.263479 0.229669
-0.103626 0.263209 0.231349
-0.09975 0.2628 0.233786
-0.0956097 0.262675 0.234796
-0.0915699 0.262814 0.23433
-0.0878102 0.263028 0.235151
-0.0833142 0.262341 0.238684
-0.0791788 0.262188 0.240273
-0.0750891 0.261226 0.243524
-0.0713424 0.261398 0.2457
-0.0671933 0.261041 0.244849
-0.0633661 0.261267 0.246559
-0.0590952 0.260717 0.247085
-0.0554853 0.260468 0.248147
-0.0510874 0.261016 0.24794
-0.0472767 0.26088 0.2493
-0.0435655 0.26041 0.250377
-0.0392348 0.259957 0.251455
-0.0355839 0.26044 0.250357
-0.0314073 0.260628 0.249863
-0.027379 0.260551 0.249603
-0.0236853 0.260848 0.247391
-0.0201623 0.260816 0.248498
-0.0158459 0.260445 0.250385
-0.011702 0.26021 0.251363
-0.00800623 0.260275 0.250785
-0.00355478 0.260555 0.250331
4.02674e-05 0.260551 0.249808
0.00370917 0.26034 0.249128
0.00807798 0.260459 0.249064
0.0120325 0.260652 0.24834
0.0158341 0.260792 0.247144
0.0197904 0.261024 0.246212
0.0234356 0.261282 0.244963
0.0276661 0.261897 0.242043
0.0318542 0.261805 0.240668
0.0354969 0.26182 0.240311
0.0395652 0.262423 0.237665
0.0437824 0.262646 0.233294
0.048163 0.263459 0.230447
0.0522275 0.263294 0.229977
0.0558235 0.263752 0.229178
0.0596632 0.264121 0.227196
0.0645814 0.263845 0.225132
0.068046 0.26417 0.222707
0.0724113 0.265159 0.220105
0.0763105 0.265758 0.218099
0.080477 0.265652 0.214722
0.0847189 0.266368 0.210071
0.0892091 0.267428 0.203627
0.0934517 0.267744 0.202421
0.0972794 0.267872 0.200663
0.101778 0.26858 0.195743
0.106195 0.269404 0.191377
0.111228 0.271505 0.1748
0.115642 0.27214 0.170568
0.119913 0.272303 0.168858
0.124104 0.272957 0.164554
0.128625 0.273955 0.160406
0.133032 0.275143 0.15499
0.137589 0.274809 0.152607
0.141821 0.275549 0.149236
0.146302 0.275448 0.146561
0.150999 0.276893 0.143166
0.155159 0.276771 0.140832
0.159274 0.276735 0.13872
0.164038 0.277238 0.136378
0.168596 0.277795 0.133613
0.172947 0.278249 0.130714
0.177098 0.27843 0.129825
0.181192 0.278252 0.131011
0.186113 0.27878 0.129093
0.190456 0.279034 0.125651
0.194567 0.279541 0.121726
0.199595 0.280095 0.117343
0.204567 0.280359 0.115744
0.273892 0.29179 0.0385841
0.27746 0.290947 0.0464866
0.278871 0.287844 0.0690342
0.282559 0.287769 0.0704393
0.286226 0.285864 0.0777822
0.290031 0.285288 0.0826724
0.294026 0.284948 0.084427
0.298147 0.284858 0.0849864
0.302337 0.284863 0.0854594
0.306516 0.284783 0.0855283
0.310368 0.284635 0.0862781
0.314261 0.284341 0.0900879
0.317826 0.283528 0.0943465
0.321939 0.28257 0.100087
0.325798 0.282653 0.100957
0.329342 0.282139 0.103852
0.333561 0.281895 0.105669
0.337484 0.281733 0.105528
0.341412 0.282053 0.106443
0.345977 0.281911 0.106975
0.350584 0.28229 0.105788
0.354467 0.281765 0.106056
0.359191 0.282279 0.104431
0.3631 0.282357 0.103363
0.368378 0.282687 0.10099
0.373101 0.282642 0.0983411
0.377589 0.2825 0.0977112
0.382427 0.283504 0.0949825
0.387607 0.284227 0.0925931
0.392312 0.284296 0.0893981
0.397325 0.284508 0.0873165
0.401662 0.284751 0.0851665
0.407294 0.286135 0.0785378
0.414129 0.287658 0.066394
0.437695 0.300976 -0.0200391
0.443726 0.301933 -0.0288954
0.452057 0.304471 -0.0457158
-0.277082 0.343488 -0.272048
-0.271431 0.34341 -0.269558
-0.266051 0.342073 -0.266289
-0.261033 0.343504 -0.27231
-0.212775 0.285559 0.111542
-0.20688 0.282777 0.127889
-0.201498 0.280885 0.140572
-0.196359 0.279696 0.149284
-0.19068 0.277584 0.161957
-0.185558 0.276485 0.170946
-0.180838 0.275286 0.177559
-0.176507 0.274386 0.181986
-0.17115 0.273583 0.188722
-0.167315 0.273259 0.191627
-0.162739 0.273066 0.194901
-0.158819 0.272522 0.196252
-0.154457 0.272573 0.197163
-0.149863 0.270986 0.205281
-0.145444 0.270674 0.209559
-0.141291 0.270476 0.212022
-0.136824 0.269492 0.215046
-0.132333 0.269347 0.217917
-0.128323 0.268899 0.220033
-0.124224 0.268686 0.222448
-0.120052 0.268359 0.224407
-0.115787 0.268178 0.226704
-0.11217 0.267934 0.228249
-0.107538 0.267099 0.231193
-0.103609 0.267173 0.232056
-0.0994843 0.266699 0.233889
-0.095483 0.266172 0.23584
-0.0915929 0.266938 0.234776
-0.0872449 0.266756 0.235602
-0.0829971 0.266281 0.239812
-0.0791053 0.265268 0.24228
-0.075074 0.264968 0.243882
-0.0712313 0.265004 0.244965
-0.0672356 0.265251 0.245224
-0.0634004 0.26485 0.246316
-0.0595477 0.265171 0.246379
-0.0549673 0.264625 0.247797
-0.0516494 0.264678 0.248012
-0.0473704 0.264643 0.248436
-0.0431428 0.264505 0.249504
-0.039494 0.264591 0.249313
-0.0353467 0.264544 0.250239
-0.0318167 0.264309 0.249932
-0.0273525 0.264541 0.249613
-0.0236984 0.264765 0.247348
-0.0194194 0.26446 0.248047
-0.0159643 0.264186 0.249459
-0.012325 0.264854 0.249389
-0.00791241 0.264649 0.249998
-0.00385882 0.264211 0.250738
0.000172945 0.264276 0.24998
0.00404251 0.264418 0.249845
0.00754881 0.264164 0.248734
0.0119969 0.265047 0.247109
0.0158634 0.265135 0.24661
0.0199726 0.265155 0.245814
0.024065 0.265012 0.243906
0.0274634 0.265608 0.241953
0.0314987 0.265675 0.240636
0.0355798 0.265929 0.238935
0.0395691 0.266236 0.237743
0.043948 0.266741 0.233496
0.0478568 0.26739 0.229431
0.0519692 0.267882 0.228361
0.0559621 0.267622 0.228481
0.0603677 0.267664 0.226535
0.0640245 0.268079 0.224592
0.0683299 0.268775 0.221931
0.0724026 0.269182 0.218424
0.0763797 0.269654 0.216166
0.0803861 0.270134 0.213755
0.0848172 0.270548 0.210139
0.0894821 0.271483 0.201876
0.0929165 0.271706 0.201602
0.0975649 0.272122 0.199439
0.102069 0.272755 0.194447
0.105611 0.273074 0.191353
0.111209 0.275592 0.174869
0.115877 0.276748 0.168766
0.12006 0.277558 0.165424
0.124297 0.277801 0.161567
0.128653 0.278471 0.157919
0.133091 0.278867 0.154613
0.137687 0.279168 0.150197
0.141923 0.280094 0.146659
0.146694 0.280338 0.14299
0.15078 0.281088 0.139252
0.155361 0.281694 0.135412
0.160114 0.281965 0.133635
0.164298 0.2822 0.13103
0.168887 0.283 0.126796
0.173958 0.28353 0.122642
0.1778 0.283999 0.119352
0.182364 0.284397 0.119503
0.186662 0.283869 0.120257
0.191221 0.284803 0.116134
0.274788 0.297151 0.0344422
0.278377 0.295691 0.0423614
0.279938 0.29348 0.0599312
0.283749 0.292004 0.0666757
0.287507 0.29184 0.0681061
0.291014 0.290815 0.0750605
0.294673 0.290478 0.0789945
0.298559 0.289956 0.0809654
0.302697 0.289554 0.0840898
0.306485 0.289338 0.0850796
0.310928 0.289523 0.0860919
0.314356 0.288527 0.0890223
0.318521 0.288548 0.0900867
0.322307 0.287365 0.0952742
0.32606 0.287242 0.0988939
0.329463 0.286517 0.101453
0.333756 0.286754 0.103952
0.337497 0.286168 0.105069
0.341479 0.285521 0.106216
0.346046 0.286073 0.106152
0.34993 0.285644 0.107182
0.354793 0.28621 0.105474
0.358674 0.286176 0.105098
0.363775 0.286621 0.10387
0.368541 0.286923 0.101221
0.372572 0.287149 0.0999485
0.377272 0.287272 0.0983843
0.382436 0.287864 0.0961965
0.386923 0.288181 0.0941112
0.392243 0.288999 0.0891259
0.396976 0.289164 0.0867372
0.402358 0.290246 0.0814036
0.407936 0.290789 0.0761964
0.415991 0.293599 0.0570562
0.435857 0.303858 -0.0133259
0.441912 0.305431 -0.0213933
0.449659 0.307008 -0.034034
0.457151 0.309411 -0.0488079
-0.276667 0.362126 -0.356669
-0.269555 0.359368 -0.343992
-0.215697 0.29321 0.0888569
-0.207811 0.288391 0.120864
-0.201879 0.285759 0.136757
-0.196621 0.284481 0.146929
-0.190943 0.282009 0.160959
-0.1855 0.280609 0.169739
-0.180348 0.279964 0.176465
-0.176708 0.278806 0.180924
-0.171663 0.277988 0.186328
-0.167051 0.27759 0.189935
-0.162845 0.276628 0.193525
-0.158654 0.276701 0.194853
-0.154374 0.276321 0.197086
-0.149785 0.275406 0.204166
-0.145389 0.274421 0.209077
