ply
format ascii 1.0
element vertex 1716
property float x
property float y
property float z
end_header
-0.269299 0.295679 0.319039
-0.265355 0.295652 0.31932
-0.261933 0.296015 0.316708
-0.258172 0.296066 0.316805
-0.254289 0.296239 0.316569
-0.250624 0.296007 0.316713
-0.246774 0.296156 0.316623
-0.24325 0.296645 0.315714
-0.239616 0.296857 0.314083
-0.235868 0.296875 0.312589
-0.232431 0.296973 0.311141
-0.228592 0.297597 0.309
-0.225424 0.298162 0.305166
-0.222179 0.298749 0.301703
-0.21909 0.300102 0.292903
-0.21609 0.301126 0.287824
-0.213105 0.301857 0.283408
-0.209692 0.303006 0.277437
-0.206621 0.303662 0.272157
-0.203146 0.304288 0.268193
-0.199954 0.305741 0.261059
-0.196663 0.307023 0.255016
-0.192391 0.357448 -0.0314569
-0.186354 0.354481 -0.0164962
-0.181292 0.353166 -0.00646877
-0.175716 0.351188 0.0037961
-0.169954 0.348999 0.0145667
-0.164409 0.347846 0.0231704
-0.160387 0.347204 0.0262175
-0.155152 0.346102 0.0323067
-0.15076 0.345791 0.034609
-0.146037 0.34525 0.0368667
-0.141422 0.344746 0.0401527
-0.136366 0.343058 0.049783
-0.131594 0.342136 0.0529724
-0.127166 0.341979 0.0566461
-0.122908 0.341545 0.0583146
-0.118138 0.340987 0.0631138
-0.112641 0.339215 0.0723573
-0.108681 0.338297 0.0763831
-0.103745 0.337602 0.0793272
-0.099293 0.336786 0.0866516
-0.094473 0.335042 0.0945567
-0.0895687 0.333234 0.106659
-0.0839319 0.330087 0.124576
-0.0794 0.325829 0.148679
-0.0748206 0.323927 0.159125
-0.0703228 0.322112 0.169863
-0.0658035 0.321084 0.174995
-0.0613253 0.319792 0.180128
-0.05761 0.319933 0.182698
-0.0528404 0.319318 0.185373
-0.049218 0.3185 0.187804
-0.0447353 0.317486 0.193835
-0.0403081 0.317726 0.194943
-0.0364238 0.317195 0.198022
-0.032313 0.316485 0.19996
-0.0283214 0.31664 0.198713
-0.0242161 0.316879 0.199535
-0.0206736 0.316633 0.19845
-0.0159375 0.315757 0.205149
-0.0120959 0.315804 0.207257
-0.00827344 0.315283 0.208409
-0.00421604 0.31472 0.209915
2.17724e-05 0.3149 0.209411
0.00403016 0.315673 0.208496
0.00823289 0.314677 0.210723
0.0123715 0.313748 0.214692
0.0160241 0.314272 0.215512
0.0199212 0.313655 0.216875
0.0239304 0.313592 0.217826
0.028199 0.313538 0.216664
0.0322094 0.313394 0.218329
0.036146 0.312936 0.219549
0.0402413 0.313122 0.218766
0.0442668 0.314045 0.216699
0.0485933 0.313964 0.215302
0.0522308 0.31398 0.214878
0.0565484 0.314102 0.21397
0.0602486 0.313837 0.215053
0.0645505 0.314198 0.21417
0.0683578 0.314292 0.212905
0.0725901 0.313891 0.212368
0.0763368 0.31502 0.211201
0.0809531 0.315361 0.210446
0.0847072 0.314671 0.211606
0.0889332 0.314294 0.212448
0.0925933 0.314288 0.213994
0.0964192 0.313856 0.214271
0.100529 0.314176 0.212415
0.104826 0.314247 0.211068
0.108748 0.314939 0.210833
0.113286 0.3152 0.207974
0.117034 0.315151 0.207158
0.121359 0.315534 0.205069
0.125219 0.316319 0.204163
0.129355 0.315905 0.20347
0.134576 0.316964 0.198966
0.138452 0.317823 0.194131
0.14284 0.317687 0.193002
0.14663 0.31741 0.194427
0.150828 0.318176 0.192898
0.154936 0.31854 0.189161
0.159829 0.31952 0.185814
0.164222 0.319972 0.181615
0.168335 0.320869 0.178271
0.173401 0.322136 0.169086
0.177807 0.322638 0.164935
0.182332 0.323315 0.16164
0.186719 0.323944 0.158367
0.191352 0.32442 0.155584
0.196061 0.325509 0.151178
0.201246 0.327133 0.141328
0.205933 0.327992 0.135839
0.210775 0.329079 0.131518
0.215307 0.329689 0.124961
0.221526 0.332503 0.111086
0.227868 0.33548 0.0935612
-0.47147 0.321091 0.199036
-0.464253 0.319159 0.209125
-0.458407 0.317609 0.216157
-0.454167 0.317492 0.219339
-0.44622 0.314481 0.234144
-0.441668 0.31422 0.236908
-0.435312 0.312573 0.245449
-0.430127 0.311417 0.251353
-0.425002 0.311336 0.253462
-0.420146 0.310114 0.258123
-0.415235 0.309778 0.262212
-0.41079 0.309112 0.264502
-0.40729 0.309105 0.264241
-0.402908 0.30917 0.264903
-0.398889 0.308734 0.266676
-0.394543 0.308721 0.267762
-0.390426 0.308463 0.26887
-0.386369 0.308249 0.269063
-0.382261 0.308513 0.270467
-0.377483 0.307683 0.273682
-0.373397 0.30674 0.275759
-0.369413 0.307241 0.275469
-0.366024 0.307367 0.273829
-0.362367 0.308022 0.271945
-0.358633 0.307631 0.271554
-0.354349 0.307461 0.273702
-0.35052 0.30747 0.272792
-0.346432 0.307469 0.274399
-0.340771 0.30608 0.283712
-0.335376 0.305023 0.288157
-0.331127 0.304266 0.292452
-0.326699 0.303754 0.295243
-0.32291 0.303571 0.29592
-0.31876 0.303075 0.299546
-0.312605 0.301546 0.309209
-0.308429 0.30039 0.312497
-0.303896 0.300127 0.315151
-0.300029 0.299769 0.316834
-0.295676 0.299707 0.318648
-0.29202 0.299235 0.319673
-0.28796 0.299362 0.320596
-0.284063 0.299322 0.319469
-0.279962 0.29919 0.320562
-0.276527 0.299198 0.319524
-0.273171 0.299722 0.318433
-0.269614 0.299877 0.317087
-0.265813 0.299811 0.317852
-0.261914 0.300132 0.31661
-0.257942 0.299833 0.316467
-0.254584 0.300227 0.315456
-0.250891 0.300084 0.315289
-0.24699 0.300287 0.314467
-0.243519 0.300379 0.313597
-0.239702 0.300481 0.312055
-0.236202 0.301289 0.310307
-0.232466 0.301114 0.308882
-0.229136 0.30174 0.307108
-0.225759 0.301971 0.303543
-0.222585 0.303046 0.298432
-0.219697 0.304942 0.289249
-0.21677 0.305789 0.284003
-0.213896 0.30684 0.277557
-0.210626 0.308223 0.270305
-0.207852 0.309592 0.260907
-0.204559 0.310789 0.256965
-0.185964 0.358673 -0.0127618
-0.180153 0.356357 -0.00223756
-0.175357 0.355376 0.00617146
-0.170251 0.353738 0.0142251
-0.165353 0.352724 0.0204912
-0.160365 0.351776 0.0253921
-0.15568 0.35098 0.0284882
-0.151055 0.350244 0.033053
-0.146203 0.349884 0.0365407
-0.140958 0.349434 0.0393147
-0.136423 0.347728 0.0467843
-0.131415 0.347531 0.0511909
-0.127331 0.346729 0.0534451
-0.122687 0.346235 0.0569435
-0.118218 0.34556 0.0600767
-0.113317 0.343825 0.0694702
-0.108928 0.343902 0.0723039
-0.104236 0.343069 0.0750028
-0.099842 0.34211 0.0803642
-0.0948815 0.340903 0.0882519
-0.0902788 0.339269 0.0967584
-0.0852856 0.336882 0.110998
-0.0794343 0.328829 0.153278
-0.0744789 0.328248 0.159077
-0.0702792 0.326123 0.168685
-0.0659295 0.325419 0.173657
-0.061426 0.324735 0.1783
-0.0573098 0.323505 0.182635
-0.0532969 0.323827 0.183208
-0.0491193 0.323431 0.184778
-0.0451691 0.323066 0.186159
-0.0408597 0.321941 0.192712
-0.0369641 0.321386 0.195419
-0.0324748 0.321299 0.196465
-0.0286268 0.321103 0.198116
-0.0244377 0.321351 0.197152
-0.020606 0.32133 0.196339
-0.0162124 0.320431 0.199283
-0.0122527 0.319909 0.204572
-0.00801907 0.319389 0.206164
-0.00347942 0.31898 0.20804
-0.000153024 0.319368 0.207182
0.00406319 0.3194 0.207118
0.00825915 0.318874 0.209192
0.0122148 0.318589 0.212245
0.0161424 0.318314 0.213511
0.0202425 0.318155 0.213847
0.0240502 0.318186 0.215113
0.0281205 0.317996 0.215724
0.0326948 0.317626 0.216272
0.0361613 0.317898 0.215911
0.04041 0.31794 0.21516
0.0445617 0.318723 0.212663
0.0483825 0.317709 0.214248
0.0522623 0.31771 0.214623
0.0564921 0.317887 0.214834
0.0603151 0.318392 0.214303
0.0643613 0.318551 0.213493
0.0687918 0.31852 0.212561
0.0726636 0.31848 0.211409
0.0765226 0.318717 0.209723
0.0806007 0.319177 0.208467
0.0846134 0.318753 0.20884
0.0888187 0.31856 0.211062
0.0928146 0.318803 0.211584
0.0966705 0.31899 0.211196
0.1008 0.318817 0.210908
0.105063 0.318974 0.209377
0.108974 0.319297 0.208144
0.113403 0.319492 0.206613
0.117439 0.319637 0.20585
0.121595 0.319523 0.203562
0.126096 0.320335 0.201866
0.129789 0.32078 0.200463
0.134241 0.321182 0.196814
0.1385 0.322064 0.192009
0.143014 0.321768 0.191921
0.14674 0.322318 0.191466
0.151225 0.323111 0.188995
0.155704 0.323121 0.186306
0.16022 0.323875 0.181969
0.16423 0.324151 0.178037
0.16943 0.326259 0.170059
0.173871 0.326557 0.167278
0.178139 0.327175 0.164148
0.182275 0.3276 0.161982
0.186896 0.328024 0.158282
0.191516 0.328741 0.154585
0.196774 0.330088 0.149343
0.20201 0.331757 0.137377
0.205919 0.332204 0.134472
0.210698 0.333295 0.129661
0.215913 0.334462 0.121406
0.221991 0.337094 0.106518
0.229782 0.342385 0.0803465
-0.451762 0.322662 0.212008
-0.441933 0.318437 0.235013
-0.436092 0.317449 0.241215
-0.430445 0.315985 0.248814
-0.425942 0.315626 0.25186
-0.420975 0.314994 0.254746
-0.415896 0.313983 0.259937
-0.411607 0.31338 0.262835
-0.407326 0.313104 0.263662
-0.40321 0.313287 0.263408
-0.399059 0.312904 0.265753
-0.394739 0.312425 0.267804
-0.390687 0.312567 0.26785
-0.387085 0.312493 0.268115
-0.38223 0.312382 0.269497
-0.37711 0.311485 0.274286
-0.373367 0.311138 0.275459
-0.369388 0.311365 0.2745
-0.365922 0.311694 0.273309
-0.362529 0.311778 0.27276
-0.35857 0.311497 0.272169
-0.354244 0.311938 0.272256
-0.350744 0.311899 0.27197
-0.34683 0.311901 0.272921
-0.341052 0.309953 0.280482
-0.336323 0.309342 0.286334
-0.331634 0.308403 0.290464
-0.327348 0.308027 0.293204
-0.323084 0.30738 0.295588
-0.319005 0.307273 0.296852
-0.313695 0.305725 0.303108
-0.308044 0.30412 0.313075
-0.304225 0.303734 0.313738
-0.299708 0.303634 0.316199
-0.296158 0.303597 0.317156
-0.292204 0.304169 0.317284
-0.28826 0.303255 0.318453
-0.284499 0.303256 0.318364
-0.280805 0.303532 0.318105
-0.277059 0.303683 0.316339
-0.273422 0.303926 0.316776
-0.269801 0.303599 0.316421
-0.265994 0.303989 0.315713
-0.26192 0.303621 0.31588
-0.258573 0.304074 0.314332
-0.255102 0.304214 0.31425
-0.251113 0.304312 0.313117
-0.247224 0.304669 0.311316
-0.24404 0.304809 0.309886
-0.24035 0.305454 0.307091
-0.236769 0.305885 0.30558
-0.233066 0.305832 0.304138
-0.229918 0.306742 0.300395
-0.226601 0.307221 0.297459
-0.223372 0.308074 0.291822
-0.220948 0.309877 0.281716
-0.217782 0.310897 0.275921
-0.214834 0.312085 0.268995
-0.211859 0.313936 0.260522
-0.20907 0.315683 0.25162
-0.186454 0.363294 -0.0135605
-0.180762 0.361502 -0.00374484
-0.175578 0.360101 0.00411344
-0.170328 0.358881 0.0114561
-0.165543 0.358038 0.0157053
-0.160844 0.357375 0.0207108
-0.155594 0.355412 0.0279649
-0.151131 0.354705 0.0319868
-0.146303 0.355091 0.0340947
-0.141678 0.35446 0.0350447
-0.136654 0.352865 0.0434523
-0.132205 0.352208 0.047456
-0.127036 0.351496 0.0519902
-0.123231 0.351274 0.053455
-0.118389 0.350494 0.0569491
-0.11295 0.34902 0.0648581
-0.10867 0.348596 0.0690778
-0.10442 0.347883 0.0720762
-0.0997157 0.347194 0.0744107
-0.0953652 0.346276 0.0812382
-0.0899839 0.344537 0.0901737
-0.0857338 0.342622 0.100841
-0.0789372 0.332863 0.155048
-0.0746079 0.332558 0.15775
-0.0703482 0.33188 0.160814
-0.0662544 0.33037 0.169239
-0.061889 0.329222 0.173578
-0.0577009 0.329395 0.17603
-0.0533149 0.328574 0.180215
-0.0493174 0.328086 0.181743
-0.0453542 0.327833 0.182417
-0.0409879 0.327982 0.183268
-0.0365993 0.326843 0.190303
-0.032564 0.325797 0.194169
-0.0286339 0.325356 0.195337
-0.0245497 0.325971 0.195095
-0.0206255 0.325881 0.19478
-0.0166775 0.326121 0.193058
-0.0122527 0.32505 0.198679
-0.00838869 0.324117 0.203487
-0.00400685 0.323653 0.205931
-0.00047853 0.323782 0.205544
0.00396238 0.324063 0.205246
0.0079805 0.323666 0.205845
0.0120609 0.323105 0.209146
0.0162977 0.322478 0.212104
0.0202163 0.322651 0.212697
0.0247415 0.322498 0.212654
0.028068 0.322335 0.214087
0.0319744 0.322077 0.214192
0.0368901 0.322629 0.212867
0.0404527 0.322839 0.21078
0.0442641 0.322997 0.211164
0.0482845 0.322953 0.211854
0.0525607 0.322184 0.213371
0.0563138 0.322131 0.213921
0.0606121 0.322234 0.214074
0.0643197 0.321949 0.213755
0.0682528 0.322718 0.211884
0.0726306 0.322526 0.210666
0.0768354 0.322948 0.209511
0.0810053 0.323457 0.207909
0.0849269 0.323582 0.205955
0.0892915 0.323912 0.204631
0.0927106 0.323564 0.205852
0.0967741 0.323666 0.207404
0.100726 0.323406 0.20737
0.105144 0.323941 0.206724
0.109537 0.323362 0.206095
0.113136 0.323859 0.20518
0.117675 0.324007 0.203827
0.121916 0.324805 0.201328
0.125832 0.324612 0.200393
0.130051 0.324949 0.198638
0.134193 0.325551 0.193873
0.13875 0.32629 0.189546
0.142851 0.326894 0.188752
0.147356 0.326812 0.188507
0.151331 0.327079 0.185615
0.155984 0.327983 0.180061
0.160443 0.32918 0.175434
0.16486 0.329671 0.172161
0.16957 0.330124 0.169262
0.173363 0.330465 0.167176
0.177533 0.330451 0.166465
0.182493 0.331628 0.161886
0.187368 0.332609 0.157639
0.191831 0.333424 0.152867
0.196378 0.334475 0.146524
0.201958 0.336624 0.135344
0.206014 0.336649 0.132843
0.211439 0.338218 0.125435
0.217142 0.340103 0.114365
0.222639 0.342594 0.100275
-0.4432 0.323538 0.229283
-0.438247 0.322998 0.232854
-0.432339 0.321095 0.241563
-0.426943 0.320351 0.247265
-0.422268 0.319614 0.250277
-0.418106 0.319378 0.252801
-0.412138 0.318507 0.259013
-0.407859 0.317931 0.260522
-0.404081 0.317317 0.261701
-0.399239 0.317204 0.264313
-0.395082 0.316829 0.265835
-0.391099 0.316815 0.26677
-0.386822 0.316871 0.266995
-0.382458 0.31654 0.268892
-0.378325 0.315302 0.272027
-0.373492 0.315121 0.274512
-0.369844 0.315153 0.274166
-0.365573 0.315511 0.273021
-0.362716 0.315949 0.271416
-0.358827 0.315942 0.270517
-0.354718 0.315994 0.271414
-0.350833 0.315675 0.27141
-0.346856 0.315504 0.271701
-0.34121 0.3148 0.278523
-0.336286 0.313432 0.285043
-0.332272 0.312512 0.287377
-0.327247 0.311961 0.29225
-0.323242 0.311876 0.293743
-0.319144 0.31111 0.295696
-0.314313 0.310612 0.299606
-0.308156 0.308521 0.312056
-0.304302 0.308257 0.313146
-0.300465 0.307952 0.314358
-0.29601 0.307917 0.315438
-0.291868 0.307372 0.316985
-0.288227 0.307293 0.317046
-0.284762 0.307251 0.316375
-0.281183 0.30748 0.316735
-0.277197 0.306962 0.317058
-0.273793 0.307919 0.314984
-0.270053 0.308234 0.314471
-0.266352 0.307786 0.313978
-0.262416 0.307872 0.313037
-0.258824 0.308125 0.311511
-0.255406 0.308475 0.310277
-0.251508 0.308673 0.310258
-0.248316 0.30923 0.306115
-0.245056 0.309268 0.30385
-0.242201 0.311331 0.296807
-0.239349 0.313637 0.284825
-0.236341 0.313717 0.284136
-0.232013 0.313649 0.282896
-0.228719 0.314635 0.2784
-0.225648 0.315228 0.275149
-0.222321 0.315574 0.271832
-0.219308 0.316958 0.265751
-0.216024 0.317817 0.260608
-0.212707 0.319053 0.253555
-0.186517 0.368443 -0.0172582
-0.180868 0.366578 -0.00575137
-0.176194 0.365231 1.04904e-05
-0.171095 0.363858 0.00713563
-0.166003 0.362973 0.0126508
-0.161326 0.361996 0.0172721
-0.155918 0.360814 0.0230283
-0.150921 0.360204 0.0277398
-0.146711 0.359925 0.0299587
-0.142191 0.359455 0.0313058
-0.137107 0.359057 0.0354619
-0.132332 0.357147 0.0434481
-0.127812 0.356721 0.0467132
-0.122933 0.356109 0.0497934
-0.118703 0.356087 0.0507456
-0.113632 0.354234 0.0606805
-0.108966 0.353624 0.0652714
-0.104667 0.353123 0.0683186
-0.100156 0.352217 0.0703729
-0.0954319 0.35129 0.077176
-0.0904763 0.349876 0.0838146
-0.0849925 0.343534 0.11881
-0.0791383 0.33722 0.153954
-0.0751582 0.337292 0.154667
-0.0707018 0.336589 0.156228
-0.066306 0.337325 0.156013
-0.0619438 0.334703 0.166471
-0.0576969 0.334454 0.169514
-0.0535127 0.333673 0.172897
-0.0496119 0.333361 0.175737
-0.0452125 0.332943 0.176866
-0.040937 0.332988 0.177857
-0.0373039 0.332522 0.177518
-0.0330623 0.333044 0.177064
-0.0288195 0.330795 0.189669
-0.0245633 0.330695 0.190467
-0.0205975 0.330364 0.1908
-0.0166054 0.330475 0.189687
-0.0120324 0.330712 0.190124
-0.00838042 0.329351 0.198312
-0.00421129 0.328722 0.202377
-8.32969e-05 0.328065 0.20374
0.00387764 0.328709 0.202378
0.00815488 0.328636 0.202294
0.0118754 0.327843 0.205756
0.0163251 0.326704 0.209897
0.0199229 0.327247 0.21051
0.0240426 0.326755 0.211353
0.0284227 0.327091 0.210761
0.032117 0.326504 0.210926
0.0366248 0.327498 0.2082
0.0404057 0.327236 0.207177
0.0441626 0.327014 0.209501
0.048312 0.326947 0.211012
0.0526259 0.3262 0.212576
0.0563588 0.326236 0.211881
0.0606393 0.327074 0.211539
0.0644068 0.327112 0.21116
0.0687578 0.326936 0.210836
0.0726643 0.327217 0.209473
0.0765061 0.326974 0.208789
0.0810487 0.32786 0.207184
0.0851363 0.328327 0.203314
0.0893642 0.328352 0.20132
0.0931773 0.328845 0.200746
0.0973323 0.328613 0.200347
0.101074 0.328341 0.201438
0.105208 0.328642 0.201781
0.10965 0.328189 0.202587
0.11319 0.328453 0.202029
0.117505 0.328416 0.200908
0.121819 0.329118 0.199235
0.12628 0.329158 0.198141
0.130216 0.329412 0.195535
0.135062 0.33074 0.188278
0.138745 0.331235 0.185971
0.143308 0.331769 0.184248
0.147834 0.332637 0.180707
0.151572 0.332556 0.179193
0.156261 0.332755 0.177748
0.160905 0.332991 0.174416
0.164715 0.333642 0.173092
0.169332 0.334216 0.170552
0.173354 0.334747 0.167236
0.178202 0.335296 0.164337
0.182399 0.335945 0.160651
0.187289 0.336716 0.15537
0.191865 0.338127 0.150322
0.19684 0.339432 0.141699
0.202146 0.341151 0.133271
0.206298 0.341279 0.130727
0.210705 0.342792 0.124175
0.217597 0.345571 0.107767
0.224382 0.34883 0.0886352
-0.43966 0.32777 0.227843
-0.434808 0.326766 0.231577
-0.428811 0.325601 0.239813
-0.423871 0.324783 0.244593
-0.418826 0.324109 0.248113
-0.413776 0.323187 0.252981
-0.408828 0.322547 0.256818
-0.404705 0.321962 0.259339
-0.399778 0.3216 0.261709
-0.395357 0.32123 0.264213
-0.391117 0.32084 0.265523
-0.387283 0.320834 0.266064
-0.382692 0.320505 0.26786
-0.378917 0.319606 0.269623
-0.373635 0.319321 0.273083
-0.369957 0.319289 0.273326
-0.366624 0.31941 0.271688
-0.362217 0.319261 0.271823
-0.358648 0.319572 0.271624
-0.354523 0.31977 0.271538
-0.350698 0.319826 0.271331
-0.347135 0.319482 0.270833
-0.342614 0.319441 0.272751
-0.33635 0.316995 0.284613
-0.333014 0.317386 0.28473
-0.327865 0.316582 0.289651
-0.323183 0.31541 0.29296
-0.319807 0.315996 0.292252
-0.315164 0.315066 0.296329
-0.308939 0.31262 0.309209
-0.304434 0.312158 0.312653
-0.300517 0.311756 0.313775
-0.296516 0.311999 0.313871
-0.292573 0.31201 0.313652
-0.289054 0.311876 0.313569
-0.285112 0.312276 0.313418
-0.281509 0.311546 0.313195
-0.277748 0.311777 0.313136
-0.274183 0.312017 0.312701
-0.270383 0.312089 0.312536
-0.26663 0.312171 0.312234
-0.263216 0.312734 0.309762
-0.25933 0.312714 0.308753
-0.256218 0.313476 0.305866
-0.252829 0.313541 0.304595
-0.250856 0.316352 0.288141
-0.247733 0.317493 0.284437
-0.244073 0.317639 0.282107
-0.240369 0.317791 0.281339
-0.237203 0.319018 0.27593
-0.233599 0.319192 0.272707
-0.229756 0.319907 0.269922
-0.226846 0.320855 0.264646
-0.223544 0.321233 0.262268
-0.2201 0.322057 0.258721
-0.181102 0.371942 -0.00992632
-0.175605 0.37008 -0.00186872
-0.171258 0.369143 0.00419891
-0.165953 0.367696 0.0100396
-0.161398 0.366923 0.013041
-0.156695 0.366689 0.0175529
-0.151812 0.366169 0.021655
-0.146675 0.365114 0.0252869
-0.142224 0.364851 0.026625
-0.137585 0.36358 0.033833
-0.132614 0.362439 0.0390695
-0.128465 0.362183 0.0419773
-0.123848 0.36166 0.0436248
-0.11893 0.361463 0.0460029
-0.114103 0.360232 0.0521759
-0.109512 0.358744 0.0589647
-0.104784 0.358492 0.0612767
-0.100495 0.358407 0.0622416
-0.0961964 0.357594 0.0666622
-0.0912661 0.355579 0.0784311
-0.0846848 0.348022 0.121414
-0.0790526 0.342983 0.147584
-0.0751621 0.341775 0.151878
-0.0711577 0.3424 0.150647
-0.0670348 0.34228 0.149359
-0.0625993 0.342159 0.149302
-0.0587752 0.342038 0.150538
-0.0543765 0.341528 0.152526
-0.0495905 0.33954 0.162492
-0.0455639 0.339856 0.16306
-0.0411455 0.339227 0.166641
-0.037172 0.338413 0.169396
-0.0329802 0.338238 0.170458
-0.0286553 0.338187 0.170289
-0.0241651 0.3358 0.184125
-0.0202009 0.335668 0.186146
-0.0164169 0.335419 0.185985
-0.0124652 0.335875 0.184622
-0.00845709 0.33425 0.191377
-0.00413718 0.332822 0.19966
4.35508e-05 0.333048 0.20034
0.00421458 0.332878 0.201156
0.00819322 0.33268 0.200839
0.0119579 0.332936 0.200524
0.0160617 0.331709 0.205611
0.0206049 0.331885 0.206186
0.0243991 0.331086 0.207865
0.0282239 0.331484 0.206601
0.0328711 0.331659 0.206087
0.0364136 0.331931 0.205175
0.040387 0.331705 0.206773
0.0446736 0.330847 0.209793
0.0486743 0.331041 0.210057
0.0523734 0.331205 0.209838
0.0565856 0.331227 0.209126
0.0605134 0.331443 0.209525
0.0647115 0.33071 0.209432
0.068309 0.331492 0.207712
0.0729047 0.331795 0.207731
0.0762388 0.331205 0.20905
0.0810354 0.332018 0.205696
0.0847872 0.332272 0.202915
0.0896023 0.33278 0.200595
0.0933323 0.333228 0.198986
0.0973911 0.332879 0.198867
0.101457 0.333154 0.198092
0.106102 0.333393 0.196981
0.110016 0.333682 0.195315
0.113755 0.333885 0.195317
0.118239 0.332911 0.197271
0.122286 0.333601 0.195947
0.12618 0.33395 0.193927
0.131215 0.335966 0.184108
0.135442 0.335721 0.182946
0.138953 0.335689 0.183251
0.143459 0.33684 0.181286
0.147651 0.336481 0.180918
0.15231 0.336754 0.178148
0.156274 0.337095 0.176876
0.160872 0.338 0.174253
0.164484 0.337744 0.173786
0.169313 0.33803 0.169964
0.173707 0.339018 0.166186
0.1784 0.339397 0.16294
0.182708 0.341024 0.157174
0.187342 0.341747 0.153013
0.192364 0.342986 0.146943
0.197893 0.344996 0.135366
0.201696 0.345139 0.132765
0.206793 0.346214 0.127474
0.211939 0.348472 0.115597
0.218636 0.351653 0.0997125
-0.449492 0.336132 0.203526
-0.441914 0.333601 0.217851
-0.434638 0.331124 0.231459
-0.428769 0.329378 0.24009
-0.423621 0.328651 0.2451
-0.419123 0.327932 0.247366
-0.41375 0.327111 0.252523
-0.408631 0.326023 0.256529
-0.404079 0.325782 0.2596
-0.400455 0.325802 0.261264
-0.39558 0.324986 0.26282
-0.391552 0.324542 0.264038
-0.38728 0.32437 0.266652
-0.382939 0.324486 0.26695
-0.378763 0.324257 0.268125
-0.374512 0.324078 0.26926
-0.370391 0.324107 0.269698
-0.366971 0.324003 0.269764
-0.363105 0.323742 0.26928
-0.358669 0.323722 0.270354
-0.354714 0.324357 0.270325
-0.350786 0.323558 0.271171
-0.347326 0.323836 0.269866
-0.343857 0.323773 0.269988
-0.3378 0.322388 0.277607
-0.333051 0.321715 0.282167
-0.328729 0.320863 0.286215
-0.323828 0.320242 0.289473
-0.319528 0.319731 0.291817
-0.31589 0.319665 0.29309
-0.310665 0.318236 0.299076
-0.305098 0.317058 0.308578
-0.30113 0.315888 0.31073
-0.297257 0.316323 0.311015
-0.293472 0.316011 0.311508
-0.289387 0.316262 0.311319
-0.285719 0.31617 0.311252
-0.281888 0.316139 0.310556
-0.277949 0.316102 0.311086
-0.274639 0.316574 0.309577
-0.270609 0.316589 0.308794
-0.267489 0.31688 0.307055
-0.263843 0.317548 0.304035
-0.260958 0.318684 0.298712
-0.258098 0.319879 0.291185
-0.255042 0.320779 0.285959
-0.25208 0.3217 0.281671
-0.248131 0.322067 0.278902
-0.245085 0.322545 0.275862
-0.241538 0.323358 0.272793
-0.238247 0.323894 0.268856
-0.235333 0.325411 0.261765
-0.23183 0.326433 0.256906
-0.181199 0.376973 -0.0116584
-0.17665 0.375966 -0.00659418
-0.171977 0.375082 -0.00285745
-0.165996 0.373225 0.00778711
-0.16198 0.3721 0.0104637
-0.156316 0.371537 0.014763
-0.151918 0.371112 0.018921
-0.147453 0.369949 0.0214535
-0.142325 0.370015 0.0236988
-0.137769 0.368107 0.0316424
-0.132305 0.367985 0.0363096
-0.12808 0.367112 0.0391891
-0.12351 0.366579 0.0410892
-0.119159 0.365895 0.0442386
-0.114001 0.364771 0.0510247
-0.109644 0.364199 0.0547278
-0.104787 0.363327 0.0572912
-0.100996 0.363296 0.0580868
-0.0966917 0.362634 0.0623345
-0.091212 0.361642 0.0686922
-0.0850873 0.351495 0.120372
-0.079538 0.348145 0.140317
-0.0755306 0.34676 0.145373
-0.0714399 0.348269 0.142334
-0.0672198 0.348129 0.141149
-0.0629059 0.34756 0.144088
-0.058261 0.346789 0.147323
-0.054604 0.346559 0.147983
-0.0497197 0.346321 0.148775
-0.0461493 0.347208 0.147295
-0.0416414 0.346637 0.148331
-0.0374236 0.346498 0.148322
-0.0334889 0.344238 0.160438
-0.0290316 0.343398 0.164925
-0.0246677 0.342929 0.167288
-0.0201785 0.342648 0.170477
-0.0166543 0.34168 0.174508
-0.0121662 0.340863 0.178683
-0.00814077 0.340531 0.180543
-0.00411575 0.338346 0.193804
0.000104004 0.337537 0.197419
0.00384777 0.337732 0.1979
0.00825722 0.337498 0.196887
0.0122642 0.337329 0.197282
0.0161706 0.337822 0.196758
0.0201144 0.336903 0.200326
0.0238984 0.337192 0.199587
0.0282477 0.336702 0.200866
0.0323725 0.336175 0.202918
0.0365559 0.33601 0.203869
0.0406507 0.335982 0.205854
0.0444901 0.335386 0.207161
0.048499 0.33564 0.206361
0.052425 0.335653 0.206188
0.0565112 0.335738 0.206142
0.0605054 0.335627 0.206408
0.0646117 0.335581 0.206883
0.0688929 0.33565 0.206251
0.0729934 0.335526 0.206323
0.0765672 0.33557 0.206394
0.0812475 0.336051 0.203653
0.085473 0.336396 0.200473
0.0893452 0.336905 0.199187
0.0934442 0.337337 0.198575
0.0976944 0.337535 0.198141
0.10157 0.337713 0.196861
0.105545 0.337403 0.195298
0.110169 0.337981 0.192497
0.114589 0.338706 0.190232
0.118826 0.339699 0.188187
0.122847 0.33972 0.186142
0.12707 0.34047 0.18225
0.13086 0.340647 0.181202
0.13523 0.340391 0.180637
0.139302 0.340424 0.181049
0.143374 0.340473 0.181587
0.14787 0.341019 0.180125
0.152081 0.340816 0.178166
0.155768 0.341446 0.176774
0.160408 0.341541 0.173764
0.165161 0.342392 0.170541
0.169418 0.343023 0.167655
0.174027 0.343659 0.163901
0.178192 0.344384 0.160072
0.183026 0.345541 0.154501
0.187725 0.346516 0.149759
0.192649 0.348005 0.142614
0.198396 0.34982 0.131706
0.202511 0.350017 0.129631
0.207921 0.351604 0.121144
0.213173 0.353912 0.108314
-0.454152 0.340711 0.202051
-0.446896 0.338326 0.214158
-0.441424 0.336833 0.221203
-0.434162 0.334796 0.232788
-0.427873 0.333034 0.24209
-0.423303 0.332489 0.245432
-0.418581 0.332029 0.248494
-0.414028 0.331102 0.252208
-0.408976 0.329909 0.255966
-0.404429 0.329711 0.259287
-0.399903 0.329663 0.261265
-0.395838 0.329198 0.26235
-0.391182 0.328825 0.264602
-0.387196 0.328396 0.266286
-0.382775 0.328025 0.268248
-0.379071 0.328424 0.267431
-0.374926 0.328295 0.268983
-0.371041 0.328105 0.26753
-0.367357 0.32836 0.267365
-0.363265 0.328208 0.268672
-0.359242 0.32806 0.267857
-0.355252 0.327588 0.269685
-0.350858 0.327755 0.270372
-0.347378 0.32775 0.268862
-0.343607 0.328137 0.269442
-0.339685 0.327736 0.269179
-0.334195 0.326665 0.276238
-0.329453 0.32548 0.281918
-0.324762 0.324942 0.285456
-0.320674 0.324498 0.287502
-0.316231 0.324005 0.289864
-0.311825 0.323293 0.292794
-0.306289 0.321768 0.301703
-0.301671 0.320826 0.305926
-0.297687 0.320392 0.307431
-0.294014 0.320605 0.308025
-0.29027 0.320912 0.307317
-0.285977 0.320457 0.308627
-0.282795 0.320929 0.306928
-0.278526 0.320887 0.307573
-0.275151 0.321088 0.306855
-0.271216 0.321432 0.304754
-0.268057 0.32165 0.302047
-0.265309 0.32294 0.295118
-0.262619 0.323718 0.289919
-0.260154 0.325964 0.279984
-0.256616 0.326417 0.276092
-0.253224 0.327299 0.273466
-0.249234 0.32759 0.271975
-0.246013 0.327891 0.270194
-0.242639 0.328819 0.263811
-0.239499 0.329708 0.25888
-0.176456 0.380626 -0.00773883
-0.172122 0.379588 -0.00551867
-0.166431 0.377618 0.00732183
-0.161504 0.376579 0.0110703
-0.156781 0.376587 0.0121692
-0.151942 0.37568 0.0164188
-0.147082 0.375653 0.0177586
-0.142453 0.375174 0.0204121
-0.138048 0.373288 0.0281216
-0.133368 0.37219 0.0324841
-0.128281 0.37253 0.034138
-0.124041 0.371351 0.0381869
-0.119304 0.371105 0.0413141
-0.114729 0.370265 0.0468832
-0.109756 0.369039 0.0516635
-0.105378 0.369194 0.0523326
-0.100873 0.368262 0.0559223
-0.0959115 0.367277 0.0608665
-0.0916899 0.366559 0.0657012
-0.0847906 0.357278 0.115913
-0.0804416 0.356059 0.12206
-0.076524 0.355417 0.123275
-0.0719534 0.355928 0.122024
-0.0672411 0.353821 0.134441
-0.062846 0.352691 0.139738
-0.0589033 0.351552 0.142228
-0.0544064 0.351846 0.142926
-0.0504919 0.351323 0.144345
-0.0458186 0.351339 0.145142
-0.0416733 0.351184 0.144673
-0.0378698 0.351474 0.145332
-0.0333175 0.351323 0.145332
-0.0291031 0.351502 0.144889
-0.0246415 0.348061 0.162974
-0.0208678 0.347287 0.166979
-0.0161847 0.346704 0.170778
-0.0123352 0.346216 0.173236
-0.00786726 0.345618 0.176823
-0.00425264 0.343253 0.188324
-0.000142321 0.342136 0.193839
0.00388958 0.341681 0.195145
0.00840367 0.342677 0.194055
0.012217 0.342175 0.193735
0.0163963 0.342456 0.192752
0.0205753 0.342192 0.194067
0.0243498 0.341474 0.197533
0.0282298 0.340835 0.199909
0.032567 0.34008 0.202272
0.0365305 0.34047 0.202487
0.040611 0.340146 0.203396
0.0442286 0.340421 0.203815
0.0489686 0.340548 0.202321
0.0528112 0.339993 0.203067
0.0565105 0.340581 0.202627
0.0609569 0.339819 0.203941
0.0646098 0.340449 0.203304
0.0691407 0.340371 0.203967
0.073067 0.340241 0.203751
0.0770508 0.340624 0.20241
0.0813414 0.341318 0.198985
0.0853022 0.341638 0.197911
0.0893015 0.341178 0.198726
0.0936586 0.341223 0.198313
0.0977341 0.341626 0.197673
0.101595 0.341372 0.196565
0.106057 0.341756 0.194196
0.109876 0.342208 0.191765
0.114386 0.342996 0.189698
0.118604 0.343293 0.187958
0.122643 0.343636 0.184455
0.127249 0.344652 0.179893
0.131002 0.34536 0.178842
0.135223 0.344748 0.179523
0.139584 0.345147 0.178933
0.143912 0.345112 0.17836
0.148087 0.345209 0.177408
0.152388 0.345507 0.175457
0.157158 0.345815 0.173265
0.160493 0.346729 0.170577
0.165301 0.346978 0.167551
0.16948 0.347928 0.164372
0.174515 0.348161 0.161173
0.17903 0.349155 0.156475
0.183126 0.350178 0.152169
0.188235 0.351126 0.146408
0.193711 0.354397 0.131655
0.198482 0.354689 0.129378
0.203064 0.355143 0.124782
0.208878 0.357808 0.110684
0.217484 0.365596 0.0700709
-0.4618 0.347285 0.186966
-0.453216 0.343853 0.207185
-0.446587 0.342108 0.215264
-0.440745 0.340726 0.223046
-0.434102 0.338505 0.233895
-0.428723 0.337442 0.23957
-0.423622 0.336541 0.244526
-0.418721 0.335857 0.248809
-0.414192 0.335057 0.251981
-0.409046 0.33423 0.254752
-0.405056 0.334223 0.256752
-0.400629 0.333403 0.259359
-0.396535 0.333183 0.260666
-0.392119 0.333783 0.261685
-0.387076 0.332461 0.266778
-0.382773 0.332298 0.267701
-0.378805 0.331896 0.267593
-0.375345 0.332142 0.266462
-0.37121 0.33257 0.266984
-0.366698 0.331903 0.268492
-0.363135 0.332465 0.268028
-0.359553 0.332031 0.267192
-0.355521 0.331962 0.268313
-0.351132 0.331749 0.269418
-0.347817 0.331747 0.268148
-0.343822 0.331904 0.267809
-0.339623 0.331712 0.268564
-0.335199 0.331616 0.270113
-0.330066 0.330134 0.277378
-0.326108 0.329941 0.279127
-0.321449 0.329181 0.283206
-0.317302 0.328743 0.285508
-0.31289 0.328755 0.28641
-0.308273 0.327546 0.290194
-0.303305 0.3262 0.29863
-0.298632 0.325665 0.301945
-0.295066 0.325351 0.302688
-0.291188 0.325587 0.303368
-0.286677 0.324796 0.30519
-0.282336 0.32486 0.306153
-0.279619 0.324893 0.304213
-0.275328 0.325424 0.303041
-0.272212 0.324886 0.301214
-0.269393 0.327381 0.293011
-0.267629 0.329828 0.278708
-0.264302 0.330197 0.276546
-0.26073 0.331188 0.272796
-0.257756 0.331816 0.268383
-0.254318 0.332718 0.262921
-0.251324 0.334201 0.256475
-0.248116 0.335027 0.253834
-0.180944 0.385731 -0.0107872
-0.176533 0.385056 -0.00866127
-0.172061 0.385019 -0.00687861
-0.165429 0.380595 0.0147105
-0.161203 0.380452 0.0149964
-0.156475 0.380773 0.0145551
-0.152276 0.380294 0.0158633
-0.147614 0.380505 0.0174263
-0.143103 0.379331 0.0187085
-0.137874 0.379145 0.022418
-0.133933 0.378668 0.0256461
-0.128946 0.377753 0.0287527
-0.124331 0.377366 0.030022
-0.119722 0.376962 0.0340618
-0.114722 0.375434 0.0430763
-0.10981 0.374428 0.0470996
-0.105774 0.374544 0.0466793
-0.10112 0.373967 0.050017
-0.0967045 0.372966 0.0552021
-0.0919416 0.371702 0.060909
-0.0874498 0.371533 0.064381
-0.0806313 0.360588 0.118066
-0.076194 0.360002 0.120324
-0.0719783 0.360472 0.118757
-0.0679147 0.361046 0.116525
-0.0630367 0.358144 0.131708
-0.0591344 0.357693 0.134527
-0.0547109 0.357598 0.135547
-0.050673 0.356766 0.137583
-0.0460853 0.356854 0.138342
-0.0418938 0.356726 0.139201
-0.0377376 0.356282 0.141728
-0.0333212 0.355939 0.141487
-0.0293718 0.356747 0.140325
-0.0251683 0.356805 0.139624
-0.0207652 0.352533 0.161763
-0.0165493 0.351663 0.167974
-0.0124096 0.350004 0.172119
-0.00828701 0.349543 0.176282
-0.00402293 0.348343 0.182336
0.000206937 0.347565 0.187983
0.00379477 0.346652 0.191317
0.00846184 0.346794 0.191975
0.0124469 0.347043 0.190111
0.0162467 0.347145 0.19039
0.0205297 0.346504 0.19234
0.0244588 0.345486 0.19664
0.0281766 0.345023 0.199195
0.0323835 0.345276 0.1994
0.0363496 0.345137 0.200847
0.0401993 0.345522 0.200025
0.0446517 0.344976 0.200934
0.0483844 0.344823 0.201002
0.0528367 0.345227 0.199439
0.0567797 0.345117 0.200641
0.0609309 0.344712 0.201309
0.0647421 0.344903 0.201049
0.0690855 0.344942 0.201286
0.0726111 0.344911 0.200531
0.0769711 0.345266 0.198441
0.0810892 0.345592 0.197134
0.0855476 0.345883 0.196804
0.0893524 0.345364 0.198402
0.0937293 0.345526 0.197378
0.0978548 0.345902 0.19582
0.101802 0.34565 0.19567
0.106041 0.346387 0.193241
0.109907 0.346292 0.19235
0.114107 0.346582 0.189405
0.118864 0.34726 0.187313
0.122917 0.348163 0.182503
0.127004 0.349568 0.178558
0.131738 0.349175 0.177572
0.135647 0.349983 0.176601
0.139819 0.349693 0.175541
0.144306 0.350277 0.172979
0.148259 0.350625 0.17059
0.15248 0.350928 0.168832
0.157107 0.351712 0.166163
0.16139 0.352243 0.163835
0.165938 0.352685 0.161186
0.170415 0.353205 0.158214
0.17474 0.353924 0.153894
0.179441 0.355258 0.148589
0.18472 0.356425 0.142406
0.189566 0.357997 0.132873
0.193904 0.358974 0.12792
0.198693 0.360082 0.123331
0.204815 0.361979 0.110252
0.211307 0.36633 0.0895783
-0.45977 0.350145 0.194679
-0.453421 0.347694 0.206621
-0.446594 0.346165 0.215518
-0.441585 0.344732 0.221486
-0.434096 0.342551 0.233568
-0.42929 0.342237 0.237448
-0.424084 0.340667 0.243495
-0.418595 0.339375 0.248687
-0.413977 0.339168 0.251424
-0.409601 0.338907 0.254105
-0.405079 0.338089 0.256517
-0.400546 0.338114 0.258246
-0.396592 0.337638 0.259045
-0.391927 0.337005 0.261488
-0.387376 0.336785 0.26445
-0.383122 0.336268 0.266797
-0.379633 0.336373 0.265607
-0.375236 0.336143 0.267308
-0.371506 0.336221 0.266246
-0.367537 0.336285 0.266888
-0.363142 0.336244 0.2665
-0.35953 0.336138 0.266673
-0.35528 0.335665 0.267716
-0.351406 0.335565 0.268359
-0.347907 0.335776 0.268187
-0.343961 0.336321 0.26768
-0.339925 0.335923 0.267129
-0.336279 0.335981 0.266915
-0.331485 0.335114 0.271923
-0.326458 0.334369 0.276111
-0.321973 0.333749 0.278819
-0.317748 0.333232 0.281478
-0.313811 0.33316 0.282601
-0.309779 0.332941 0.283941
-0.305002 0.332374 0.285881
-0.300202 0.330825 0.293734
-0.295307 0.330122 0.298417
-0.291521 0.329551 0.300295
-0.287287 0.329429 0.300884
-0.283779 0.329293 0.301952
-0.279385 0.32932 0.302029
-0.276194 0.329933 0.298523
-0.273492 0.33132 0.290053
-0.272509 0.334601 0.275463
-0.26863 0.334999 0.272877
-0.26524 0.335257 0.270371
-0.262831 0.337739 0.260817
-0.2599 0.338398 0.255062
-0.181738 0.389756 -0.0115528
-0.176658 0.389251 -0.0077734
-0.172148 0.389565 -0.00777578
-0.165604 0.384373 0.0181811
-0.160752 0.384443 0.0192761
-0.15606 0.384407 0.0172061
-0.151708 0.384522 0.0173061
-0.147305 0.384681 0.0170324
-0.14288 0.384394 0.0176013
-0.138355 0.38398 0.0191861
-0.134005 0.383719 0.0200431
-0.129381 0.383839 0.0213523
-0.1249 0.383625 0.0229065
-0.120209 0.38267 0.0276464
-0.115835 0.381597 0.0314873
-0.110709 0.381332 0.0347612
-0.106297 0.380931 0.0369399
-0.101868 0.379469 0.0413653
-0.0969302 0.37942 0.0454199
-0.0922257 0.378582 0.0494151
-0.0877728 0.377834 0.0533178
-0.0811745 0.366944 0.107683
-0.0766762 0.365512 0.114439
-0.0719863 0.365971 0.114302
-0.0680808 0.36613 0.11238
-0.0638909 0.365889 0.113336
-0.0593294 0.36498 0.116768
-0.0547744 0.363263 0.12805
-0.0506833 0.362814 0.129888
-0.0462407 0.362695 0.13124
-0.0417653 0.362017 0.133773
-0.0378565 0.361591 0.134591
-0.0335676 0.362481 0.131184
-0.0293362 0.362357 0.132923
-0.0254571 0.361061 0.137251
-0.0207528 0.360556 0.142003
-0.0164784 0.356783 0.161267
-0.0128406 0.354833 0.168142
-0.00830994 0.354366 0.173679
-0.00381549 0.35363 0.178542
-0.000341719 0.352384 0.182278
0.00436543 0.352008 0.185789
0.00823041 0.351179 0.189308
0.012245 0.351704 0.188072
0.016127 0.351458 0.186258
0.0206782 0.350776 0.190601
0.0244111 0.350027 0.194602
0.0284057 0.349913 0.196975
0.032487 0.349715 0.197305
0.0367751 0.349761 0.197124
0.0406644 0.349933 0.197185
0.0452119 0.349482 0.196519
0.0489474 0.349224 0.197814
0.053029 0.349323 0.197541
0.0567303 0.349287 0.198682
0.0610618 0.349421 0.198059
0.0646429 0.349442 0.198873
0.0693111 0.349704 0.197897
0.0731624 0.349457 0.1969
0.0772098 0.350185 0.193937
0.0812829 0.350124 0.19503
0.0853816 0.349603 0.195573
0.089944 0.349858 0.195245
0.0939136 0.35013 0.193988
0.0979446 0.350317 0.193971
0.101914 0.350348 0.192548
0.106189 0.350923 0.191123
0.110231 0.35086 0.189577
0.114548 0.351151 0.188393
0.118507 0.351736 0.186023
0.123379 0.353029 0.180025
0.127255 0.353204 0.178211
0.131054 0.353577 0.178656
0.13591 0.353994 0.175642
0.139687 0.354082 0.174784
0.144264 0.354558 0.171744
0.148872 0.355489 0.167767
0.152882 0.35511 0.166749
0.157495 0.356522 0.162795
0.161455 0.356789 0.160383
0.166369 0.357313 0.156356
0.171617 0.358851 0.14989
0.175549 0.359368 0.147125
0.180015 0.360264 0.143268
0.184868 0.3609 0.137868
0.189272 0.362509 0.131941
0.194471 0.363069 0.125306
0.199785 0.364987 0.116529
0.205176 0.367523 0.103892
0.211204 0.371078 0.087424
-0.460962 0.355416 0.190912
-0.453117 0.352351 0.205562
-0.447649 0.350854 0.212037
-0.441696 0.349152 0.219771
-0.434625 0.347095 0.231906
-0.429816 0.346146 0.23595
-0.424477 0.345179 0.241442
-0.419228 0.34385 0.246208
-0.41472 0.343494 0.249633
-0.409418 0.342384 0.253221
-0.405014 0.342002 0.256149
-0.401185 0.342152 0.257177
-0.396655 0.341904 0.25957
-0.392415 0.341514 0.259772
-0.388408 0.341277 0.261385
-0.383685 0.340428 0.26396
-0.379944 0.340609 0.263852
-0.37573 0.340522 0.265107
-0.371777 0.340376 0.264984
-0.367847 0.340338 0.2655
-0.363634 0.340029 0.266304
-0.359521 0.340476 0.265845
-0.356073 0.340279 0.266306
-0.351752 0.339573 0.267875
-0.347491 0.339979 0.267867
-0.343903 0.33998 0.266928
-0.340242 0.340333 0.26566
-0.337048 0.340982 0.262542
-0.333589 0.341704 0.260185
-0.327991 0.339587 0.269866
-0.323682 0.338706 0.273476
-0.31879 0.338092 0.277179
-0.314494 0.337749 0.279333
-0.310326 0.337599 0.27957
-0.306239 0.336971 0.281377
-0.302471 0.336948 0.281854
-0.297775 0.336801 0.282631
-0.292584 0.334281 0.294558
-0.288318 0.334577 0.295856
-0.284093 0.33408 0.2975
-0.280577 0.334515 0.294229
-0.280811 0.339123 0.271498
-0.277964 0.340456 0.265399
-0.274505 0.341187 0.260701
-0.270945 0.341673 0.259347
-0.267266 0.342051 0.256193
-0.180795 0.394314 -0.00984263
-0.176973 0.393882 -0.00884104
-0.172098 0.393967 -0.00899887
-0.165022 0.387942 0.0225344
-0.1612 0.388422 0.0209725
-0.156305 0.388528 0.0190951
-0.151757 0.388413 0.0199931
-0.147319 0.388599 0.0181868
-0.143051 0.38915 0.0185788
-0.138198 0.388516 0.0191159
-0.133396 0.388441 0.0194031
-0.129545 0.388926 0.0189714
-0.125118 0.388791 0.0201265
-0.120384 0.387931 0.0236616
-0.115871 0.387003 0.0275401
-0.111159 0.387158 0.0280159
-0.106846 0.386402 0.0303588
-0.101799 0.385384 0.037151
-0.0973426 0.384358 0.041201
-0.0930422 0.384022 0.0434808
-0.0877255 0.383333 0.0462306
-0.0817337 0.375565 0.0859644
-0.0769446 0.371058 0.107739
-0.0720344 0.371228 0.107966
-0.0683785 0.371466 0.107055
-0.0636912 0.370447 0.110816
-0.0595051 0.370588 0.112478
-0.0553398 0.37042 0.11304
-0.0509762 0.369987 0.113406
-0.046801 0.367687 0.125043
-0.0427539 0.368194 0.123001
-0.0378735 0.368472 0.122469
-0.03409 0.368022 0.124062
-0.0296154 0.366856 0.129673
-0.0248909 0.365009 0.137361
-0.0207721 0.364541 0.142615
-0.0167695 0.363927 0.145328
-0.0124866 0.361693 0.158332
-0.00790189 0.359674 0.167683
-0.00410189 0.358359 0.172935
-0.000148724 0.357812 0.176047
0.00373119 0.356923 0.181002
0.00826352 0.356396 0.18369
0.0122423 0.35626 0.185428
0.0162104 0.356201 0.184573
0.0206046 0.3558 0.186488
0.0244752 0.355334 0.190393
0.0281206 0.354691 0.193664
0.0328156 0.354253 0.193412
0.0365947 0.353965 0.194225
0.0405391 0.354318 0.193652
0.0451269 0.354514 0.193802
0.0488203 0.354555 0.193816
0.0530219 0.353523 0.195284
0.0569178 0.354075 0.195428
0.0610708 0.354058 0.195908
0.0646839 0.35426 0.19509
0.068881 0.354594 0.193637
0.073369 0.354481 0.192454
0.0772598 0.354813 0.19245
0.0819446 0.354796 0.192568
0.0855856 0.354434 0.193701
0.089685 0.354574 0.193494
0.094044 0.354368 0.191609
0.0982841 0.354839 0.190915
0.10208 0.355088 0.188882
0.106131 0.355279 0.189304
0.110338 0.356033 0.187178
0.114848 0.356198 0.185829
0.118915 0.356675 0.180976
0.123028 0.357996 0.177019
0.127595 0.357665 0.176259
0.131843 0.35752 0.177257
0.136095 0.358161 0.174816
0.140147 0.358559 0.173207
0.144459 0.3588 0.171102
0.148302 0.359159 0.169973
0.152912 0.359531 0.165831
0.157218 0.360206 0.163338
0.162112 0.361369 0.159313
0.167081 0.362436 0.153148
0.171406 0.363465 0.14705
0.176121 0.363759 0.145127
0.180171 0.364614 0.142882
0.184739 0.36506 0.13764
0.189995 0.367009 0.130472
0.194236 0.367918 0.123768
0.199801 0.369846 0.114812
0.20658 0.373807 0.0972695
-0.454943 0.358085 0.198475
-0.448567 0.355567 0.208725
-0.442435 0.35449 0.215451
-0.436858 0.353211 0.222178
-0.429861 0.350271 0.23468
-0.424826 0.349619 0.238917
-0.419581 0.348358 0.244279
-0.414867 0.347759 0.247506
-0.410619 0.347213 0.250182
-0.405045 0.346162 0.255644
-0.400503 0.345948 0.258278
-0.396485 0.345206 0.259722
-0.392471 0.345724 0.259449
-0.388656 0.345277 0.260543
-0.384426 0.34514 0.261021
-0.379865 0.345107 0.261625
-0.376094 0.344744 0.263021
-0.371738 0.344407 0.264583
-0.368201 0.344143 0.26491
-0.363934 0.344191 0.265036
-0.360506 0.344592 0.264383
-0.355925 0.344464 0.264524
-0.351965 0.344069 0.264751
-0.34811 0.344406 0.26511
-0.344391 0.34435 0.263661
-0.341231 0.345158 0.260323
-0.338383 0.346111 0.255753
-0.335106 0.346633 0.252077
-0.334126 0.350001 0.237288
-0.326382 0.346463 0.255457
-0.321416 0.344584 0.261859
-0.316363 0.343775 0.268409
-0.311989 0.343141 0.272574
-0.307478 0.342242 0.274511
-0.303673 0.342614 0.274587
-0.299983 0.342617 0.274772
-0.295304 0.341658 0.276217
-0.292379 0.343113 0.271775
-0.288813 0.343388 0.269613
-0.286098 0.344647 0.262935
-0.28288 0.345832 0.257785
-0.185839 0.399176 -0.0118392
-0.181298 0.398421 -0.00910735
-0.176714 0.398717 -0.00907326
-0.172053 0.398398 -0.00818157
-0.164887 0.391655 0.0272611
-0.160018 0.392452 0.0247746
-0.156298 0.392237 0.0236057
-0.151903 0.392286 0.0224053
-0.147104 0.392476 0.0219591
-0.142719 0.393253 0.0209044
-0.138117 0.392988 0.0202235
-0.133868 0.392711 0.0200051
-0.129761 0.392884 0.0186219
-0.124945 0.393449 0.0183548
-0.120198 0.392608 0.020691
-0.11642 0.392618 0.0225952
-0.111202 0.392509 0.0228419
-0.106748 0.391983 0.0261577
-0.102135 0.390323 0.0328907
-0.0972744 0.389404 0.0383565
-0.0931291 0.389152 0.0399833
-0.0882892 0.388959 0.0414827
-0.0822802 0.380022 0.0845305
-0.0773217 0.37902 0.0909376
-0.0730984 0.378191 0.0954764
-0.0686438 0.377349 0.0993015
-0.0641017 0.375845 0.105199
-0.0593618 0.375067 0.109825
-0.0554129 0.374919 0.110497
-0.050891 0.375266 0.109701
-0.0468619 0.375696 0.107902
-0.042781 0.375234 0.109581
-0.0385399 0.37347 0.116866
-0.0341092 0.373091 0.121026
-0.0295347 0.372094 0.126375
-0.0253701 0.370679 0.133883
-0.0206836 0.369344 0.139219
-0.0169386 0.368798 0.143596
-0.0125791 0.367571 0.147001
-0.00850619 0.367234 0.14936
-0.00423725 0.364224 0.16506
9.9591e-05 0.36248 0.171926
0.00409225 0.362457 0.1749
0.00830092 0.361402 0.177619
0.0122559 0.360893 0.180477
0.0161748 0.361457 0.179988
0.0206052 0.361294 0.179849
0.0246166 0.359825 0.186789
0.0287316 0.359435 0.189739
0.0323011 0.358988 0.191033
0.0366575 0.359046 0.190879
0.0409723 0.359108 0.190496
0.0448806 0.35856 0.192189
0.0487289 0.358813 0.191941
0.0528089 0.359154 0.191599
0.0568508 0.358528 0.192844
0.0611441 0.358834 0.192528
0.0650938 0.359308 0.190479
0.0695851 0.359257 0.188649
0.0735835 0.359466 0.188707
0.0775419 0.359251 0.190907
0.0817013 0.358602 0.191844
0.0856995 0.359555 0.190327
0.0895253 0.359641 0.189738
0.0940636 0.359275 0.189887
0.0979304 0.359963 0.187543
0.102128 0.35974 0.186843
0.10645 0.359989 0.18581
0.110533 0.360038 0.185144
0.114877 0.361064 0.181288
0.119215 0.362063 0.1757
0.123271 0.361983 0.176346
0.127155 0.362008 0.175776
0.131553 0.362139 0.1751
0.136109 0.362315 0.174411
0.140421 0.363221 0.170668
0.144394 0.363528 0.169347
0.148815 0.363869 0.166442
0.153108 0.364279 0.163648
0.157649 0.365035 0.16072
0.16188 0.365875 0.157935
0.167003 0.367189 0.151086
0.171353 0.367778 0.146369
0.175661 0.368123 0.145055
0.180169 0.36899 0.141249
0.184964 0.370293 0.13541
0.189664 0.371358 0.129523
0.195331 0.372725 0.12036
0.200694 0.376295 0.106027
-0.450588 0.361083 0.200091
-0.444158 0.359407 0.209634
-0.438789 0.358341 0.214623
-0.430648 0.355076 0.232344
-0.425791 0.354031 0.235118
-0.420123 0.353022 0.242072
-0.415798 0.35166 0.246083
-0.41083 0.351765 0.247826
-0.405222 0.350107 0.254696
-0.400177 0.349537 0.258746
-0.396705 0.3494 0.25902
-0.392904 0.349661 0.258724
-0.388727 0.34954 0.258788
-0.385033 0.349687 0.259429
-0.380241 0.349039 0.261273
-0.376446 0.34904 0.261904
-0.372234 0.34902 0.262585
-0.368198 0.348653 0.263865
-0.364053 0.348382 0.263806
-0.360689 0.348794 0.262222
-0.356587 0.348968 0.261171
-0.35273 0.348734 0.260981
-0.349684 0.349616 0.258265
-0.345978 0.350209 0.256255
-0.342348 0.350462 0.253996
-0.33907 0.351313 0.250202
-0.337426 0.352915 0.239666
-0.30706 0.350083 0.254849
-0.191101 0.404419 -0.0153189
-0.185889 0.403401 -0.0102558
-0.181348 0.403618 -0.00964236
-0.17687 0.403224 -0.00826478
-0.168565 0.395219 0.0314866
-0.164056 0.395499 0.0281649
-0.160644 0.395897 0.0270559
-0.15578 0.396262 0.026692
-0.151467 0.396582 0.0242271
-0.147251 0.396486 0.0239882
-0.142433 0.397121 0.0223446
-0.138216 0.396853 0.0213226
-0.133904 0.397505 0.0195137
-0.12952 0.397758 0.0189245
-0.124899 0.397478 0.0188015
-0.120539 0.397514 0.0187982
-0.115961 0.397573 0.0190325
-0.111606 0.397529 0.0191969
-0.107257 0.397325 0.0204307
-0.101961 0.396149 0.0264376
-0.0979906 0.395237 0.0306319
-0.093218 0.39487 0.0328008
-0.0887065 0.394647 0.0343343
-0.0842169 0.393003 0.0398959
-0.077695 0.383611 0.089491
-0.0731333 0.382749 0.0918097
-0.0692134 0.383119 0.0925717
-0.0642404 0.382215 0.0955215
-0.0596967 0.380393 0.105398
-0.0553353 0.380167 0.106963
-0.0513843 0.379491 0.107321
-0.0467716 0.379787 0.106719
-0.0426664 0.379954 0.106797
-0.0384613 0.379398 0.110517
-0.0343378 0.377631 0.118854
-0.0296543 0.377169 0.121886
-0.0254241 0.376372 0.126818
-0.0207561 0.374353 0.13402
-0.0166102 0.373219 0.140671
-0.0126515 0.37222 0.144926
-0.00822151 0.371764 0.147891
-0.00402797 0.371642 0.149457
7.65766e-06 0.368361 0.164655
0.00410435 0.367261 0.168726
0.00801466 0.366629 0.172651
0.0123577 0.367078 0.173226
0.0164257 0.366116 0.176094
0.0207207 0.365941 0.175236
0.0245688 0.365888 0.177669
0.0287029 0.364636 0.183399
0.0328571 0.363917 0.185843
0.0366783 0.36383 0.186599
0.0409149 0.363544 0.188232
0.0450022 0.363538 0.188751
0.0492904 0.363615 0.18867
0.0529988 0.363362 0.189185
0.0572244 0.363536 0.188808
0.0614931 0.363527 0.187614
0.0652173 0.364321 0.185862
0.0694499 0.363756 0.186456
0.0734635 0.363753 0.187684
0.0774037 0.363556 0.188608
0.081734 0.363595 0.187845
0.0856583 0.363752 0.18795
0.0897528 0.363596 0.186856
0.0940015 0.364019 0.185053
0.0982696 0.364489 0.183873
0.102599 0.36453 0.183665
0.10667 0.36489 0.18297
0.110705 0.365426 0.179613
0.11545 0.367254 0.172652
0.119439 0.367133 0.172497
0.123685 0.366429 0.174541
0.127686 0.366989 0.172776
0.131973 0.366993 0.171769
0.136283 0.367309 0.169717
0.140325 0.367989 0.167907
0.144582 0.367897 0.166381
0.149176 0.368364 0.163453
0.153625 0.369614 0.159968
0.157896 0.369743 0.158793
0.162366 0.370246 0.155455
0.167271 0.372001 0.14603
0.17156 0.371894 0.145392
0.176135 0.372868 0.142303
0.180258 0.373259 0.138874
0.185493 0.375603 0.130273
0.190437 0.376762 0.122676
0.196543 0.379561 0.108148
0.202632 0.383989 0.0855098
-0.426736 0.358337 0.231837
-0.422901 0.359051 0.231407
-0.415951 0.356591 0.242933
-0.411721 0.355908 0.244807
-0.407608 0.355885 0.245815
-0.401971 0.354503 0.253833
-0.396922 0.353763 0.256168
-0.393185 0.354156 0.255895
-0.389752 0.353974 0.256835
-0.384908 0.353289 0.258704
-0.38041 0.353185 0.260331
-0.377031 0.353963 0.259461
-0.372418 0.352823 0.261341
-0.368596 0.353173 0.260991
-0.364885 0.352818 0.261265
-0.361285 0.353421 0.259508
-0.357298 0.353257 0.260036
-0.353853 0.353733 0.256873
-0.350199 0.354682 0.254116
-0.346677 0.354768 0.252954
-0.343839 0.355492 0.248608
-0.341698 0.357503 0.238096
-0.33943 0.359249 0.230485
-0.190321 0.407949 -0.0108492
-0.185926 0.407861 -0.00938249
-0.181674 0.407588 -0.00786257
-0.176936 0.407562 -0.00722694
-0.168763 0.399146 0.0337645
-0.164524 0.399505 0.0316824
-0.159911 0.40024 0.0290126
-0.155955 0.400219 0.0279113
-0.151427 0.400739 0.0278301
-0.146942 0.400463 0.0271676
-0.142855 0.401252 0.0246203
-0.138051 0.401341 0.0231407
-0.133718 0.401518 0.0209061
-0.129328 0.401605 0.0200365
