ply
format ascii 1.0
element vertex 1676
property float x
property float y
property float z
end_header
-0.0584007 0.062249 0.155516
-0.0538635 0.0627991 0.155175
-0.0501436 0.0626916 0.154891
-0.0459629 0.0624901 0.153799
-0.041224 0.0623326 0.15229
-0.0376383 0.0624479 0.151653
-0.0337418 0.0623609 0.150059
-0.0294345 0.063059 0.147928
-0.025026 0.0633021 0.142532
-0.0211109 0.0627734 0.138471
-0.0168149 0.0630199 0.131941
-0.0127152 0.0634185 0.124904
-0.00860855 0.0635089 0.121635
-0.00447431 0.0633003 0.11901
0.000110456 0.0635909 0.116727
0.00425295 0.0638976 0.113961
0.00857078 0.0637554 0.111307
0.0127345 0.0639393 0.107189
0.0173456 0.0643844 0.10283
0.0214743 0.0646679 0.0985913
0.0253628 0.0648571 0.094292
0.0299581 0.0646513 0.0873398
0.0346618 0.0646631 0.0796506
0.0392602 0.0647625 0.0715867
0.0438526 0.0653955 0.0645666
0.0483298 0.0659522 0.0505464
0.0528342 0.0660921 0.0423605
0.0578897 0.0663471 0.0330664
0.0624005 0.0670168 0.0184993
-0.209151 0.0695536 0.0679998
-0.204508 0.0697016 0.0697137
-0.199571 0.0694061 0.071785
-0.19258 0.0682079 0.104383
-0.187778 0.0680227 0.111106
-0.182956 0.0679823 0.114164
-0.178162 0.0679022 0.116597
-0.173792 0.0676892 0.120442
-0.168613 0.0673806 0.128714
-0.164323 0.0672083 0.134123
-0.15962 0.0674045 0.136435
-0.155176 0.0667415 0.139688
-0.151059 0.0669185 0.141314
-0.146759 0.0669534 0.143038
-0.142226 0.0669026 0.146284
-0.138093 0.0670791 0.14727
-0.133609 0.066633 0.148691
-0.129222 0.0668448 0.149768
-0.125138 0.0668749 0.15009
-0.120492 0.0666555 0.150817
-0.116456 0.0668851 0.152597
-0.112499 0.0663014 0.152777
-0.108465 0.0666536 0.153624
-0.104318 0.0664203 0.154828
-0.0998226 0.0665473 0.156411
-0.0957175 0.0664667 0.157206
-0.0912479 0.0663691 0.15766
-0.086978 0.0668002 0.158955
-0.083151 0.0662922 0.159605
-0.0787701 0.0662572 0.159345
-0.0746623 0.0664292 0.158782
-0.0704904 0.0663203 0.158369
-0.0664347 0.066357 0.157941
-0.0623807 0.0662684 0.15735
-0.0578708 0.0664528 0.156055
-0.0544118 0.0667329 0.154571
-0.0497647 0.0664204 0.153533
-0.0458974 0.0666289 0.153344
-0.0419628 0.0667493 0.151821
-0.0376416 0.0668055 0.150655
-0.0333174 0.0666279 0.150163
-0.0289094 0.0667293 0.146704
-0.0249575 0.0673087 0.141416
-0.0210399 0.0672088 0.137149
-0.0167536 0.0671877 0.132197
-0.0128417 0.0673955 0.127184
-0.00859382 0.0674002 0.12358
-0.00421805 0.0680197 0.120194
-6.62084e-05 0.0679112 0.117301
0.00420253 0.0681524 0.115601
0.00864413 0.068108 0.112792
0.0128343 0.0681423 0.109069
0.0172302 0.0683124 0.105196
0.0216168 0.068477 0.101408
0.0254515 0.0685904 0.0961046
0.0299946 0.0687063 0.091498
0.0347772 0.0689758 0.0851537
0.038707 0.0698355 0.0803018
0.0434225 0.0695868 0.0715744
0.0477856 0.0696313 0.0661309
0.052384 0.0703333 0.0584425
0.0578924 0.0709895 0.0317006
0.0625758 0.0718227 0.0168658
-0.20907 0.0741577 0.0666572
-0.204794 0.0741416 0.0690948
-0.200159 0.0740548 0.0704141
-0.192226 0.0723356 0.10576
-0.187276 0.072394 0.113437
-0.182642 0.0724706 0.116623
-0.178079 0.0719204 0.118719
-0.173095 0.0718788 0.122353
-0.168634 0.0720734 0.1282
-0.164144 0.071835 0.13246
-0.160139 0.0714666 0.13586
-0.155478 0.0711202 0.137897
-0.150858 0.0714629 0.141216
-0.146559 0.071441 0.143617
-0.142115 0.0712538 0.145162
-0.137808 0.0713125 0.147617
-0.133471 0.0714851 0.148836
-0.128901 0.0709586 0.151055
-0.124687 0.0709238 0.151111
-0.120882 0.070981 0.152737
-0.116224 0.0703536 0.154737
-0.112475 0.070738 0.156126
-0.108202 0.0710018 0.156503
-0.103534 0.070484 0.157405
-0.0998939 0.070616 0.157533
-0.0954591 0.0709904 0.159732
-0.0912333 0.0706749 0.159739
-0.0868517 0.0702167 0.159869
-0.0829681 0.0702644 0.15971
-0.0787652 0.0706018 0.160105
-0.0747297 0.0707977 0.158017
-0.0705778 0.0706915 0.157721
-0.0661144 0.0705664 0.156953
-0.0623344 0.0710704 0.155155
-0.0583341 0.0704599 0.155523
-0.0539864 0.0709676 0.154139
-0.0499746 0.0708221 0.154301
-0.0454532 0.0711248 0.15383
-0.0418466 0.0712348 0.152128
-0.0375272 0.0707 0.150034
-0.0334527 0.0707956 0.149288
-0.0293524 0.0711707 0.145223
-0.0253639 0.0711523 0.141667
-0.0211802 0.0712987 0.137257
-0.0168181 0.071616 0.133484
-0.0126077 0.0717228 0.13239
-0.00855106 0.0718965 0.127261
-0.00436373 0.0720247 0.121924
0.000173591 0.0718203 0.118626
0.00457433 0.0722452 0.116607
0.00819097 0.0726378 0.11493
0.0129012 0.0724428 0.110825
0.0168909 0.0723035 0.108667
0.0213238 0.0727724 0.104611
0.0256292 0.0729209 0.101452
0.0300057 0.0732158 0.0953276
0.0345269 0.0731124 0.0901105
0.0390645 0.073605 0.0845972
0.0433255 0.0736172 0.0784966
0.0477254 0.0739584 0.0756569
0.0520477 0.0739539 0.073283
0.0565536 0.0739572 0.0700146
0.0613074 0.0740987 0.0671339
0.0658746 0.074364 0.0587152
-0.214801 0.0792985 0.0567539
-0.209181 0.078353 0.0665381
-0.205434 0.078776 0.067571
-0.20095 0.0782431 0.0692116
-0.194888 0.0781179 0.0785903
-0.186743 0.0762755 0.115842
-0.182003 0.0766979 0.120276
-0.177855 0.0760189 0.122251
-0.173234 0.0756605 0.125325
-0.168731 0.0759793 0.129663
-0.16428 0.0754385 0.133454
-0.159693 0.0751341 0.137801
-0.155294 0.0758827 0.139682
-0.150553 0.0751049 0.142263
-0.146464 0.0753997 0.145813
-0.141802 0.0754421 0.147919
-0.137776 0.0753769 0.148822
-0.133707 0.0751833 0.1507
-0.129221 0.0749247 0.152669
-0.12481 0.0752799 0.154223
-0.120506 0.0747522 0.155647
-0.116562 0.0747468 0.156133
-0.111921 0.0746833 0.157661
-0.107889 0.0748234 0.157928
-0.103941 0.0749688 0.159419
-0.0993879 0.0744621 0.160171
-0.095535 0.0743833 0.158911
-0.0910724 0.0749108 0.159497
-0.0872413 0.0750052 0.159387
-0.0831596 0.0746741 0.158739
-0.0789665 0.0745843 0.1585
-0.0746265 0.0751826 0.158322
-0.0707611 0.0749222 0.156248
-0.0664269 0.0746048 0.156421
-0.0623818 0.0750424 0.155782
-0.0581785 0.0751108 0.15623
-0.0542851 0.0752529 0.153703
-0.0499477 0.0754013 0.15374
-0.0457648 0.0751429 0.152003
-0.0413631 0.0749461 0.150658
-0.0375434 0.0755053 0.148356
-0.0333684 0.0751574 0.14667
-0.0291158 0.0748052 0.14405
-0.0250431 0.0755555 0.139795
-0.0208674 0.0756139 0.136294
-0.0163153 0.0754463 0.133685
-0.0128284 0.0759716 0.133023
-0.00855198 0.075976 0.131937
-0.00364185 0.0762509 0.127141
6.17731e-05 0.0762819 0.122499
0.00395598 0.0763185 0.1179
0.00865253 0.0764216 0.114736
0.0125823 0.07623 0.112378
0.0171592 0.0765897 0.109804
0.0219095 0.0766071 0.105876
0.0256759 0.0771414 0.102605
0.0300213 0.0771686 0.0981828
0.0345728 0.0772237 0.0944064
0.0382733 0.0773481 0.0899767
0.0430934 0.0780174 0.0853915
0.0475802 0.0778657 0.0825164
0.0517769 0.0783106 0.081833
0.0565984 0.0774766 0.0773231
0.0604382 0.0775047 0.0750988
0.0656029 0.0782963 0.0713706
0.069573 0.0786492 0.0671432
0.0747834 0.0790564 0.0558558
-0.214182 0.0829761 0.0606761
-0.209607 0.0825555 0.0641328
-0.205201 0.0829213 0.0664889
-0.199853 0.0831735 0.0706588
-0.195084 0.0825763 0.0798322
-0.186285 0.0807757 0.119358
-0.182469 0.080774 0.12256
-0.177331 0.0805678 0.127066
-0.172852 0.0799247 0.130749
-0.168671 0.0800387 0.133977
-0.163533 0.0797374 0.137805
-0.159141 0.0796894 0.141338
-0.154639 0.0792881 0.144046
-0.150414 0.0795979 0.146068
-0.145979 0.0791962 0.148432
-0.141721 0.0791436 0.150163
-0.137709 0.0786602 0.150915
-0.133274 0.079466 0.153238
-0.128938 0.07902 0.154601
-0.124817 0.0788217 0.155343
-0.120305 0.0789038 0.157324
-0.11632 0.079076 0.156888
-0.112236 0.0789525 0.15834
-0.107668 0.0788672 0.158717
-0.103852 0.0787339 0.158784
-0.0995377 0.0787124 0.159314
-0.0952882 0.0791383 0.160308
-0.0913694 0.0788625 0.158999
-0.087355 0.0790166 0.159409
-0.0828758 0.0788089 0.159283
-0.0790489 0.0790224 0.158707
-0.0748963 0.079085 0.157938
-0.070823 0.0793529 0.157101
-0.0665045 0.0788338 0.156859
-0.0624248 0.0789011 0.155637
-0.0582389 0.079207 0.155096
-0.0544345 0.078794 0.153653
-0.049984 0.0789823 0.152661
-0.0460398 0.0791685 0.151302
-0.0418469 0.0793508 0.149662
-0.037752 0.0792386 0.148604
-0.0334474 0.0795532 0.145596
-0.0296828 0.0798059 0.143183
-0.0251436 0.0798962 0.139607
-0.0206275 0.079976 0.137398
-0.0171157 0.0803629 0.134787
-0.0127339 0.0800787 0.132725
-0.00847441 0.0798199 0.131217
-0.0041107 0.0800588 0.130596
-1.4718e-05 0.0802197 0.129342
0.00403226 0.0801737 0.12749
0.00852801 0.0806985 0.11915
0.0126836 0.0808912 0.113248
0.0167563 0.0808047 0.110448
0.0213095 0.081052 0.108189
0.0255701 0.0811148 0.104691
0.02998 0.081637 0.100542
0.0341253 0.0816042 0.0986111
0.0384374 0.0817217 0.0945511
0.0426763 0.0818108 0.0914378
0.0479164 0.0820308 0.0891914
0.0517135 0.0825391 0.0880179
0.0565096 0.082219 0.0835772
0.0605006 0.0820564 0.0812043
0.0650975 0.082338 0.0775036
0.0694183 0.0824482 0.0733473
0.0738925 0.0826515 0.0682529
0.0787922 0.0830317 0.0582697
-0.214425 0.0870799 0.0602084
-0.209675 0.0875984 0.0620934
-0.20498 0.0873906 0.0645781
-0.199721 0.0869757 0.0718422
-0.194608 0.0867952 0.0808563
-0.186705 0.0848005 0.121137
-0.18169 0.0840304 0.126426
-0.17688 0.0844453 0.130819
-0.172383 0.0842783 0.134004
-0.168011 0.0836324 0.13691
-0.163571 0.0840942 0.140195
-0.159215 0.0837293 0.144171
-0.154538 0.0836326 0.146406
-0.150145 0.0835695 0.148719
-0.146124 0.0833304 0.149192
-0.141609 0.0835605 0.151102
-0.13787 0.0833763 0.151994
-0.133002 0.0831977 0.154645
-0.128922 0.083313 0.155093
-0.125026 0.0829175 0.1562
-0.120658 0.083151 0.15639
-0.116353 0.0832515 0.156913
-0.112248 0.0829722 0.157359
-0.107519 0.0834366 0.157783
-0.103509 0.0829596 0.158588
-0.100019 0.0829763 0.157994
-0.0955383 0.0831714 0.16009
-0.0911954 0.0830298 0.159631
-0.086647 0.0828614 0.158839
-0.0833017 0.0832229 0.15897
-0.0790356 0.0831163 0.158491
-0.0749981 0.0829817 0.158565
-0.0704197 0.082869 0.158134
-0.0669213 0.0832373 0.156751
-0.062636 0.0830848 0.156745
-0.0583327 0.0831126 0.156017
-0.0542133 0.0831873 0.152595
-0.0497647 0.0833901 0.151995
-0.0454089 0.0836397 0.151315
-0.0415513 0.0836204 0.149829
-0.0374304 0.0835983 0.146935
-0.033534 0.0839439 0.145514
-0.0295543 0.0842317 0.142801
-0.0249662 0.0840245 0.139936
-0.0208409 0.0843026 0.137811
-0.0171595 0.0840667 0.135362
-0.0123564 0.0839983 0.133582
-0.00877333 0.0840334 0.132792
-0.0045411 0.0843193 0.131296
-2.45246e-05 0.0845276 0.129752
0.00416402 0.0841292 0.129767
0.00851577 0.0847102 0.129373
0.0126534 0.0842437 0.127902
0.016852 0.0848743 0.12526
0.0212645 0.0853054 0.109506
0.0252416 0.0852521 0.106509
0.0300664 0.0854918 0.102558
0.0343322 0.0853 0.100594
0.0386052 0.0859413 0.0982463
0.0431662 0.0860842 0.0961398
0.046853 0.086073 0.0954077
0.0514546 0.0862923 0.092594
0.0562372 0.0861586 0.0904363
0.0604253 0.0862 0.0867395
0.065018 0.0863254 0.082971
0.0688152 0.0865142 0.0796785
0.0739098 0.08694 0.0730979
0.0783174 0.0867602 0.0665591
0.0831015 0.0878265 0.0570474
-0.21445 0.0920849 0.0590384
-0.209564 0.0920162 0.0611575
-0.205446 0.0915655 0.0635288
-0.200093 0.0913321 0.0710851
-0.194893 0.0908379 0.0818521
-0.18584 0.0888968 0.123836
-0.181795 0.0884337 0.12751
-0.176718 0.0886974 0.132006
-0.172569 0.088389 0.135866
-0.167668 0.0881279 0.138562
-0.163579 0.088052 0.141358
-0.159125 0.0882608 0.144253
-0.154671 0.0880094 0.145877
-0.150129 0.0876218 0.148383
-0.146073 0.0875511 0.149332
-0.141917 0.0875815 0.150451
-0.137635 0.0875514 0.15097
-0.133242 0.0876023 0.153289
-0.12889 0.0871373 0.154745
-0.124718 0.0874586 0.154228
-0.120384 0.0871292 0.155606
-0.116573 0.0876483 0.154746
-0.112242 0.0873319 0.155434
-0.10794 0.0869352 0.155514
-0.104034 0.0869688 0.157411
-0.0995741 0.0871357 0.157862
-0.0953663 0.0869371 0.159283
-0.0915108 0.0867314 0.159884
-0.0868711 0.0872141 0.160428
-0.0828872 0.0869875 0.159654
-0.0784969 0.0873082 0.159489
-0.074576 0.0873054 0.159534
-0.0706626 0.0873367 0.158717
-0.0664129 0.0870576 0.157936
-0.0623281 0.0875053 0.156637
-0.0581337 0.0875122 0.155524
-0.0541714 0.0873909 0.153249
-0.0503076 0.0875849 0.15277
-0.0456377 0.0879269 0.150199
-0.0420312 0.0879288 0.149178
-0.0377347 0.0877333 0.14655
-0.0336751 0.0876515 0.145145
-0.029091 0.0881867 0.142781
-0.024978 0.0881426 0.141951
-0.0210416 0.0881261 0.141453
-0.0170595 0.0882342 0.139314
-0.0124332 0.0884187 0.137185
-0.00854417 0.0883437 0.135002
-0.00422609 0.0883818 0.1316
-9.42838e-05 0.0886148 0.130236
0.00416914 0.0886568 0.129472
0.00865009 0.0883342 0.128633
0.0126212 0.0887227 0.127747
0.017037 0.0887417 0.127501
0.0216986 0.0890441 0.127141
0.0254328 0.0888505 0.124134
0.0296901 0.0891584 0.12135
0.0341882 0.0899241 0.104197
0.0384655 0.0902085 0.10147
0.0427131 0.0901879 0.10085
0.0469676 0.0898484 0.0998858
0.0514393 0.0901973 0.0986806
0.0562499 0.0898894 0.0958644
0.0606175 0.0906129 0.0918442
0.0647854 0.0904475 0.0883486
0.0690614 0.0907673 0.083501
0.0736492 0.0910261 0.0794196
0.0781546 0.0910848 0.0735981
0.0827606 0.0915636 0.0648726
0.0874598 0.0923385 0.0549573
-0.214411 0.0961859 0.0584623
-0.210298 0.0959177 0.0602541
-0.205851 0.096016 0.0623034
-0.200112 0.0951697 0.0733713
-0.194488 0.0949614 0.0837613
-0.18602 0.0931497 0.1242
-0.180975 0.0929002 0.129197
-0.176987 0.0928572 0.131669
-0.172874 0.0924259 0.134539
-0.168488 0.0923571 0.137058
-0.163514 0.0920186 0.14068
-0.159086 0.0925226 0.141819
-0.154545 0.0920353 0.144569
-0.150322 0.09213 0.146083
-0.146195 0.0916128 0.146854
-0.141968 0.0914531 0.149083
-0.13786 0.0917775 0.149265
-0.133338 0.0919803 0.150443
-0.129178 0.0920294 0.150623
-0.125129 0.0917061 0.152085
-0.120712 0.0916563 0.153573
-0.116769 0.0915488 0.152841
-0.112277 0.0916954 0.154028
-0.108393 0.091525 0.154872
-0.103932 0.0915168 0.155856
-0.0994376 0.0911723 0.158646
-0.095848 0.0912154 0.15897
-0.091393 0.0913974 0.158727
-0.087535 0.0912633 0.159209
-0.0828744 0.0913939 0.160061
-0.0789747 0.0912711 0.159588
-0.0745418 0.0912237 0.159675
-0.0707627 0.0912981 0.158557
-0.066672 0.0915683 0.158587
-0.0623351 0.0913204 0.156223
-0.0582705 0.0914843 0.154863
-0.053869 0.09155 0.153421
-0.0497941 0.0920393 0.152124
-0.0457783 0.0917005 0.150906
-0.0416674 0.091808 0.149167
-0.03774 0.0920983 0.147568
-0.0334138 0.0919281 0.146135
-0.0295745 0.0920394 0.144087
-0.0248233 0.0920136 0.143977
-0.0211628 0.0921705 0.143032
-0.0170712 0.0919605 0.141007
-0.0128555 0.0923004 0.140047
-0.00833045 0.0920795 0.138049
-0.00434279 0.0923318 0.13686
0.000169682 0.0921952 0.132031
0.00392695 0.0930103 0.130122
0.00854242 0.0930043 0.127101
0.0123538 0.092501 0.126863
0.0166371 0.0932421 0.127191
0.0213782 0.0930902 0.126913
0.02549 0.0929055 0.127428
0.0298648 0.0933326 0.125997
0.033667 0.0930866 0.122636
0.0385752 0.0935593 0.109695
0.0426411 0.0941475 0.10678
0.0467412 0.0940823 0.104556
0.0511654 0.0940724 0.102594
0.0556243 0.094431 0.100369
0.0600178 0.0944299 0.096172
0.0649851 0.0944955 0.0913266
0.0690647 0.0950482 0.0881588
0.0734696 0.0951946 0.0829238
0.0778498 0.0952104 0.0786617
0.0825404 0.0958355 0.0715001
0.0868554 0.0960887 0.0639379
0.0922133 0.0964498 0.0511857
-0.214976 0.100784 0.05549
-0.209989 0.100779 0.05773
-0.205219 0.100004 0.0629476
-0.20008 0.0997511 0.0749556
-0.194652 0.0992208 0.0856687
-0.186351 0.097362 0.122258
-0.181954 0.0973171 0.125493
-0.177636 0.0969463 0.12879
-0.172731 0.0970232 0.133367
-0.168081 0.0970497 0.135469
-0.163968 0.0965364 0.136401
-0.159719 0.0964734 0.138493
-0.155361 0.0962509 0.140549
-0.150719 0.0965072 0.141824
-0.146206 0.0960481 0.144402
-0.142064 0.0961035 0.145532
-0.13792 0.0961404 0.146873
-0.133935 0.0961402 0.147014
-0.128995 0.0959949 0.148636
-0.125194 0.0959042 0.149591
-0.12084 0.0956951 0.151068
-0.116436 0.0958148 0.153735
-0.11256 0.095686 0.153872
-0.108332 0.0954202 0.155455
-0.103808 0.0955551 0.15633
-0.0995865 0.0954135 0.157328
-0.0955761 0.0955574 0.158551
-0.0914442 0.0956755 0.15926
-0.0866356 0.0958227 0.159949
-0.0825828 0.0953798 0.159844
-0.0786402 0.0955063 0.160315
-0.0746878 0.0953082 0.159349
-0.0707968 0.0956836 0.157576
-0.0664108 0.0953318 0.1563
-0.0624322 0.0956905 0.156157
-0.0579773 0.0956246 0.154561
-0.0541217 0.0959781 0.153465
-0.0500129 0.0956011 0.152681
-0.0455973 0.0958891 0.152397
-0.0415747 0.0954678 0.150522
-0.0376388 0.0962646 0.149492
-0.0337836 0.0959324 0.147269
-0.0293459 0.0960271 0.148044
-0.0248042 0.0959457 0.146146
-0.0208475 0.0958621 0.145754
-0.0170091 0.0963085 0.143919
-0.0123525 0.0960611 0.142443
-0.00854421 0.0965008 0.140123
-0.00403841 0.0963642 0.139156
-4.57591e-05 0.0968352 0.136624
0.00388415 0.0969238 0.133228
0.00873309 0.0973612 0.130923
0.0129003 0.0971074 0.129184
0.0170347 0.0969033 0.12775
0.0206946 0.0969578 0.127745
0.0256197 0.0973994 0.127653
0.0298969 0.0967871 0.126868
0.0338335 0.0972221 0.124784
0.0378603 0.097697 0.121527
0.042717 0.0979791 0.110142
0.0469242 0.0984774 0.107529
0.0516588 0.0985911 0.105178
0.0557197 0.0980284 0.102364
0.0601996 0.0982628 0.0989218
0.0640716 0.0990646 0.0962788
0.0685401 0.0989728 0.092288
0.0734815 0.0992533 0.0864512
0.0780857 0.0998233 0.0810877
0.0819643 0.0996187 0.0775231
0.0868205 0.100181 0.0696718
0.0923099 0.100763 0.0589335
0.0967413 0.101313 0.0461897
-0.215306 0.105227 0.0512514
-0.210333 0.105123 0.0563023
-0.205674 0.105031 0.0607989
-0.199483 0.104291 0.076093
-0.194175 0.103765 0.0864408
-0.189464 0.103429 0.0934207
-0.181951 0.101414 0.123121
-0.177838 0.101591 0.125565
-0.172923 0.101102 0.129518
-0.168402 0.101115 0.13134
-0.163986 0.100899 0.132846
-0.160114 0.100747 0.134112
-0.155827 0.101014 0.135249
-0.151378 0.101161 0.136596
-0.147094 0.100812 0.138584
-0.142715 0.100411 0.141273
-0.13803 0.100274 0.143531
-0.133938 0.10018 0.144783
-0.129005 0.100394 0.14621
-0.124948 0.0999628 0.148634
-0.12041 0.0997658 0.151397
-0.116761 0.0998758 0.152512
-0.11248 0.0997415 0.154455
-0.108237 0.0995444 0.155418
-0.104079 0.0997305 0.156042
-0.0995273 0.0996131 0.157778
-0.0953122 0.0994555 0.158574
-0.0914501 0.0994029 0.158682
-0.0872075 0.099787 0.159379
-0.0829709 0.0997376 0.161175
-0.0792758 0.0997067 0.159691
-0.0749714 0.10006 0.159221
-0.0705729 0.0999042 0.158097
-0.0664043 0.0999614 0.157341
-0.0622479 0.0996199 0.156734
-0.0581347 0.0999645 0.156692
-0.053791 0.0998505 0.155295
-0.0497644 0.0999186 0.155577
-0.0459763 0.099619 0.153965
-0.041723 0.100173 0.15361
-0.0376198 0.100093 0.151502
-0.0333903 0.100031 0.149925
-0.0292775 0.100082 0.15019
-0.0251488 0.100069 0.150241
-0.0210488 0.100558 0.146379
-0.0167144 0.0998437 0.145956
-0.0126662 0.1006 0.144592
-0.00832907 0.100454 0.143355
-0.00454927 0.100613 0.140434
-0.000137731 0.100396 0.139493
0.00427217 0.100883 0.137633
0.0082491 0.100921 0.134761
0.0125568 0.100926 0.132371
0.0165113 0.101127 0.129143
0.0212926 0.101248 0.12668
0.0254981 0.101757 0.1253
0.0293914 0.101267 0.127013
0.034163 0.101709 0.126387
0.037576 0.101492 0.124528
0.042564 0.102152 0.112551
0.0469097 0.101974 0.109413
0.0511111 0.102475 0.10614
0.0557646 0.102453 0.105125
0.0598409 0.102685 0.10227
0.0643292 0.103111 0.097703
0.0687915 0.10331 0.0939091
0.0731894 0.103414 0.0896295
0.0777892 0.103646 0.0854076
0.0822717 0.103769 0.0801526
0.0864161 0.103985 0.0752503
0.0916175 0.104427 0.0658805
0.0968045 0.105208 0.0556425
-0.210935 0.109772 0.0536731
-0.204854 0.109364 0.0661713
-0.199474 0.108287 0.076394
-0.193871 0.107922 0.0868375
-0.188733 0.107432 0.0946621
-0.184277 0.106902 0.10059
-0.179517 0.106879 0.107627
-0.174174 0.106514 0.115393
-0.168545 0.105472 0.127693
-0.164653 0.105464 0.129662
-0.160025 0.10529 0.131105
-0.155955 0.105347 0.131805
-0.151548 0.105297 0.134439
-0.147257 0.105167 0.136077
-0.142612 0.104697 0.140254
-0.138099 0.104265 0.142865
-0.134463 0.104263 0.143779
-0.129885 0.10446 0.145288
-0.125265 0.104361 0.147986
-0.120753 0.104259 0.149723
-0.116738 0.103959 0.151768
-0.11228 0.103992 0.154678
-0.108416 0.104247 0.155843
-0.103982 0.103929 0.15614
-0.0999549 0.104095 0.157834
-0.0958811 0.103865 0.158418
-0.0912966 0.103397 0.159647
-0.0872344 0.103938 0.159833
-0.0830202 0.103996 0.16027
-0.079147 0.103737 0.159218
-0.074564 0.103761 0.160047
-0.0704006 0.10378 0.160051
-0.0665101 0.103981 0.159672
-0.062246 0.103766 0.159681
-0.057898 0.104051 0.158979
-0.053868 0.103898 0.157919
-0.0501689 0.103905 0.156862
-0.0456516 0.103869 0.15683
-0.0414854 0.104063 0.15485
-0.0376886 0.10417 0.154432
-0.033432 0.103851 0.153624
-0.0291746 0.104028 0.152881
-0.0246614 0.104324 0.151965
-0.0210145 0.104136 0.149712
-0.0166777 0.104402 0.14802
-0.0125934 0.104675 0.146676
-0.00853438 0.104642 0.145248
-0.00421179 0.104643 0.1435
0.000195875 0.105144 0.141268
0.00466836 0.104514 0.139088
0.00837142 0.105141 0.139155
0.0123777 0.104933 0.13671
0.0167168 0.105472 0.134632
0.0214853 0.105405 0.130864
0.0251716 0.105399 0.12829
0.0296728 0.105433 0.127542
0.0337833 0.105766 0.126994
0.0385027 0.105793 0.125457
0.0423723 0.106169 0.117109
0.0468016 0.10664 0.113324
0.0513667 0.107045 0.110193
0.055552 0.106875 0.107044
0.0598814 0.106855 0.103094
0.0642862 0.106884 0.0997894
0.0687133 0.107076 0.0975468
0.073302 0.107219 0.0920076
0.0774913 0.107745 0.0890672
0.0822986 0.108183 0.084607
0.0868308 0.10853 0.0790207
0.0912516 0.108846 0.0729163
0.0962134 0.109118 0.0629891
0.100988 0.109807 0.0513936
-0.210009 0.113798 0.0583963
-0.204615 0.113254 0.0705523
-0.199644 0.1124 0.0787903
-0.194174 0.112349 0.0876487
-0.188836 0.111548 0.097124
-0.184232 0.111465 0.101951
-0.179561 0.111104 0.107496
-0.17462 0.110195 0.113602
-0.17003 0.110196 0.118567
-0.164761 0.10956 0.126
-0.160165 0.109499 0.130293
-0.155906 0.109521 0.132803
-0.151612 0.109568 0.134707
-0.147116 0.109513 0.137299
-0.142369 0.109138 0.140669
-0.137968 0.109009 0.141955
-0.133736 0.108904 0.142946
-0.129826 0.108669 0.145344
-0.125344 0.108508 0.147881
-0.120762 0.108211 0.149535
-0.11657 0.108199 0.152225
-0.112445 0.108195 0.154216
-0.1081 0.107932 0.156359
-0.103877 0.108203 0.157139
-0.0995878 0.108343 0.158046
-0.0954599 0.107942 0.160034
-0.0911481 0.107768 0.160891
-0.0869379 0.108086 0.161484
-0.0830223 0.107678 0.161143
-0.0788458 0.107668 0.161294
-0.074565 0.10766 0.161716
-0.0705124 0.107879 0.160791
-0.066065 0.107879 0.160422
-0.0623421 0.108286 0.16148
-0.0582013 0.107862 0.161419
-0.0541002 0.107922 0.160595
-0.0497668 0.108089 0.159309
-0.0455525 0.10796 0.158307
-0.0415336 0.107683 0.157287
-0.0374282 0.108174 0.155839
-0.0334192 0.108014 0.156433
-0.0293656 0.107971 0.155352
-0.0248918 0.108151 0.15404
-0.0207426 0.107848 0.151852
-0.0164906 0.108252 0.150694
-0.0123689 0.108669 0.14877
-0.00815588 0.109058 0.148304
-0.00408175 0.108771 0.145469
9.13882e-05 0.108604 0.143777
0.00448672 0.109272 0.142833
0.00837434 0.109113 0.140773
0.0124322 0.109396 0.139263
0.0166715 0.109404 0.137658
0.0210679 0.109451 0.135661
0.0253773 0.108976 0.133447
0.0295416 0.109714 0.131475
0.0337314 0.10987 0.127773
0.0381722 0.11018 0.125584
0.0424253 0.110339 0.121293
0.0468005 0.110247 0.118586
0.0511739 0.11055 0.114731
0.0555562 0.110627 0.113422
0.0599117 0.110612 0.109439
0.0639537 0.111265 0.107105
0.0684288 0.11123 0.1029
0.0722401 0.111443 0.100036
0.077408 0.111688 0.0944539
0.0813155 0.111827 0.0914174
0.0864126 0.112444 0.0855509
0.0910334 0.112822 0.0788257
0.0958972 0.113203 0.0691454
0.100759 0.113939 0.0583311
-0.209466 0.117996 0.064007
-0.204108 0.11732 0.0749543
-0.198696 0.116432 0.0831753
-0.193512 0.11619 0.0927119
-0.188556 0.115471 0.100492
-0.184007 0.115179 0.104026
-0.178836 0.115329 0.110246
-0.174485 0.114929 0.113982
-0.170105 0.114596 0.11941
-0.165292 0.11389 0.123792
-0.160203 0.113712 0.134254
-0.155318 0.112986 0.136792
-0.150985 0.113284 0.13907
-0.146796 0.113276 0.140528
-0.142514 0.11315 0.143694
-0.138516 0.112895 0.143653
-0.134317 0.112964 0.144365
-0.129636 0.112881 0.146819
-0.12517 0.112907 0.148789
-0.120742 0.11247 0.150848
-0.11706 0.112592 0.152393
-0.112196 0.112558 0.155506
-0.108509 0.112454 0.157141
-0.103821 0.112233 0.158465
-0.0998419 0.111897 0.158912
-0.0956384 0.112491 0.16075
-0.0912846 0.111829 0.162407
-0.0867391 0.11189 0.162895
-0.082813 0.112084 0.162464
-0.0784645 0.11216 0.1634
-0.0742777 0.111952 0.163001
-0.0702666 0.111858 0.164195
-0.065873 0.111677 0.163347
-0.0619519 0.111741 0.162982
-0.0578144 0.111645 0.1639
-0.0537195 0.111959 0.16319
-0.0498122 0.112252 0.161958
-0.0453999 0.11177 0.160548
-0.0417097 0.11208 0.15986
-0.0373149 0.112322 0.160178
-0.0330093 0.112479 0.158333
-0.0289362 0.111895 0.157909
-0.0247594 0.111898 0.157001
-0.0206483 0.112029 0.155748
-0.016841 0.112444 0.153446
-0.0125524 0.112462 0.151999
-0.00834868 0.112808 0.150191
-0.00419744 0.112746 0.147684
0.000145564 0.112806 0.147068
0.00422622 0.112855 0.145228
0.00848599 0.113203 0.143596
0.0129803 0.113041 0.141045
0.0168281 0.113074 0.139977
0.0212122 0.113422 0.138363
0.0250496 0.113233 0.137962
0.0298487 0.113674 0.134987
0.0336918 0.113449 0.13117
0.0377258 0.113819 0.127337
0.042569 0.114254 0.122383
0.0466827 0.114526 0.119419
0.0509362 0.11447 0.118106
0.055377 0.114576 0.115946
0.0598703 0.114786 0.113371
0.0638545 0.114735 0.111826
0.0677631 0.115438 0.107844
0.0726635 0.11507 0.103403
0.0768987 0.115902 0.101101
0.0814017 0.115899 0.0958037
0.0860677 0.116322 0.0920221
0.0904582 0.116571 0.0853446
0.0952131 0.117113 0.0772619
0.100272 0.118243 0.0663346
0.105509 0.118402 0.053098
-0.215931 0.123568 0.0444356
-0.208545 0.121852 0.0688958
-0.203632 0.121075 0.0772209
-0.198942 0.120537 0.0856998
-0.193222 0.120238 0.0962883
-0.18802 0.119574 0.102735
-0.183892 0.119613 0.107086
-0.178531 0.119016 0.113796
-0.173671 0.118642 0.117028
-0.169403 0.118435 0.120906
-0.16359 0.117871 0.135614
-0.159372 0.117539 0.137849
-0.154801 0.117596 0.141402
-0.151153 0.117266 0.141969
-0.146339 0.116775 0.145668
-0.142123 0.117135 0.148051
-0.137857 0.117237 0.149941
-0.133158 0.116913 0.153821
-0.129113 0.11651 0.154889
-0.124821 0.116424 0.15756
-0.120315 0.116009 0.159022
-0.116341 0.116385 0.161984
-0.11197 0.116113 0.162783
-0.107744 0.115774 0.16126
-0.103715 0.116174 0.16195
-0.099842 0.116499 0.16165
-0.0950631 0.115733 0.162776
-0.0914508 0.115739 0.164392
-0.0869515 0.11581 0.165067
-0.0829585 0.115861 0.164616
-0.0784653 0.115486 0.165004
-0.0744141 0.115443 0.165209
-0.0704075 0.116108 0.165575
-0.066258 0.116106 0.165867
-0.0619619 0.115744 0.166141
-0.0574125 0.115604 0.165262
-0.0537998 0.115986 0.164692
-0.0496798 0.115654 0.163522
-0.0454716 0.116171 0.164936
-0.0416597 0.116249 0.16301
-0.0376063 0.11569 0.162119
-0.0332253 0.116094 0.161758
-0.0287211 0.115727 0.160319
-0.0248922 0.116179 0.159799
-0.0208695 0.116507 0.158617
-0.0166332 0.116183 0.156888
-0.0124504 0.1166 0.155069
-0.00835534 0.116305 0.15364
-0.00401274 0.116518 0.150274
6.04793e-05 0.116902 0.148405
0.00383437 0.117152 0.146644
0.00852238 0.116991 0.144828
0.0123597 0.117042 0.143547
0.0168303 0.117285 0.14211
0.0207845 0.117175 0.140137
0.0255883 0.117533 0.139266
0.0290035 0.117701 0.139048
0.0335607 0.117632 0.135194
0.0380617 0.118297 0.130781
0.0422995 0.11844 0.125776
0.046412 0.118561 0.121429
0.0508949 0.119075 0.118977
0.0554872 0.11858 0.117381
0.0595854 0.118875 0.114392
0.0641077 0.119591 0.112264
0.0680044 0.119827 0.109744
0.0729466 0.119249 0.106622
0.0769215 0.11985 0.102113
0.0815297 0.12032 0.0977112
0.0860172 0.12049 0.0935407
0.0907132 0.120471 0.0882193
0.0953333 0.121327 0.0796194
0.0999815 0.12216 0.0718223
0.104898 0.1224 0.0605059
-0.22148 0.128523 0.0325795
-0.214315 0.127339 0.0567001
-0.208854 0.125956 0.0717325
-0.203515 0.125152 0.0814747
-0.198167 0.124738 0.0916134
-0.193012 0.124559 0.0984929
-0.187963 0.123439 0.106688
-0.18314 0.123585 0.110785
-0.178769 0.123068 0.113626
-0.174211 0.122845 0.118104
-0.169392 0.122761 0.122611
-0.163982 0.121921 0.138315
-0.158999 0.121615 0.143764
-0.154557 0.12076 0.146106
-0.150856 0.121064 0.147521
-0.146109 0.120951 0.149846
-0.141233 0.120633 0.153905
-0.137322 0.120762 0.159331
-0.132965 0.120169 0.160899
-0.128072 0.11983 0.165269
-0.123818 0.119582 0.168191
-0.119692 0.120033 0.170912
-0.115463 0.119747 0.172951
-0.111119 0.119604 0.171976
-0.107243 0.119696 0.171212
-0.103134 0.119613 0.170686
-0.0995286 0.119604 0.169073
-0.0948728 0.119398 0.169506
-0.0902973 0.119892 0.171107
-0.0865605 0.119706 0.17088
-0.0822466 0.119723 0.171953
-0.0785388 0.119813 0.171955
-0.0746111 0.11971 0.169798
-0.0700752 0.119663 0.170054
-0.0659781 0.119589 0.168845
-0.0622893 0.119709 0.169319
-0.0580101 0.119691 0.16701
-0.0536187 0.119739 0.166068
-0.0495005 0.119614 0.16569
-0.0455982 0.119937 0.16655
-0.0413725 0.120016 0.165627
-0.0375149 0.120146 0.165403
-0.0331433 0.119958 0.16363
-0.0290376 0.120281 0.163855
-0.0248814 0.12005 0.162914
-0.0202189 0.120314 0.161505
-0.0162783 0.120085 0.160861
-0.0124806 0.120395 0.159215
-0.00837991 0.120232 0.156369
-0.00440862 0.120733 0.154489
-0.00015991 0.120695 0.152308
0.00408736 0.121203 0.149833
0.00836862 0.121539 0.147485
0.0125055 0.121248 0.146242
0.01631 0.121329 0.144411
0.0207927 0.121207 0.142392
0.0252407 0.121595 0.142094
0.0292365 0.122082 0.140989
0.033547 0.121315 0.138323
0.0379556 0.121941 0.135708
0.0418923 0.122211 0.129808
0.046514 0.122443 0.124774
0.0508073 0.122629 0.122523
0.0552196 0.122592 0.120607
0.0597081 0.12317 0.117082
0.0633381 0.123197 0.115499
0.0679714 0.123415 0.11195
0.0723541 0.123566 0.108359
0.0771011 0.123719 0.106004
0.081656 0.12427 0.101738
0.086184 0.12438 0.0960406
0.0902359 0.124845 0.0908102
0.094898 0.125273 0.0833906
0.0993278 0.125811 0.0766191
0.104526 0.126555 0.0668784
0.109815 0.127269 0.0531344
-0.226274 0.133141 0.0324453
-0.221114 0.133001 0.0368836
-0.214178 0.130908 0.0634502
-0.208125 0.13034 0.0756947
-0.20288 0.129763 0.0865654
-0.197971 0.128888 0.094246
-0.192444 0.127957 0.102402
-0.187638 0.128321 0.108977
-0.183249 0.127776 0.112961
-0.178223 0.127214 0.115827
-0.173475 0.126999 0.123047
-0.167934 0.126067 0.139531
-0.162789 0.125233 0.1443
-0.158473 0.125191 0.147757
-0.154478 0.125134 0.150612
-0.149685 0.125091 0.154398
-0.145742 0.124343 0.156339
-0.141114 0.124965 0.16075
-0.136265 0.124027 0.164431
-0.132772 0.12422 0.166302
-0.127769 0.124265 0.171213
-0.123704 0.123695 0.173671
-0.119176 0.123209 0.175261
-0.115288 0.123302 0.17666
-0.110966 0.122982 0.179077
-0.106749 0.123336 0.180237
-0.102616 0.12297 0.182197
-0.0987598 0.122969 0.181201
-0.0941403 0.122694 0.18371
-0.0904128 0.122717 0.183861
-0.0862602 0.122502 0.183608
-0.081825 0.122822 0.184796
-0.077577 0.122914 0.186
-0.0738658 0.122744 0.183581
-0.0696311 0.123149 0.183377
-0.0655547 0.123008 0.182894
-0.0618409 0.123025 0.181132
-0.0575899 0.123419 0.179093
-0.0533515 0.123398 0.178684
-0.0495054 0.123285 0.174716
-0.0457833 0.123664 0.175338
-0.0409192 0.123787 0.173494
-0.0369238 0.123663 0.168948
-0.0329742 0.123896 0.168163
-0.02872 0.124096 0.167079
-0.0246865 0.124022 0.167011
-0.0205639 0.124069 0.163908
-0.0166566 0.124049 0.163514
-0.0125408 0.124432 0.161417
-0.00804406 0.124599 0.159192
-0.00407538 0.124604 0.15695
-0.000126652 0.124785 0.155496
0.00432981 0.125025 0.153199
0.00838395 0.12506 0.151893
0.012404 0.125682 0.149852
0.0166233 0.125848 0.146996
0.0206512 0.125384 0.145318
0.0250996 0.125633 0.144401
0.0293621 0.125889 0.142131
0.0337788 0.125678 0.139886
0.038095 0.125923 0.139074
0.0420384 0.125935 0.133547
0.0462165 0.126637 0.130416
0.0509349 0.126613 0.127908
0.0549387 0.126763 0.125971
0.0590762 0.126998 0.124543
0.063367 0.127207 0.120293
0.0677515 0.127449 0.118127
0.0724742 0.1279 0.114709
0.0766439 0.127535 0.111356
0.0813185 0.128211 0.107633
0.0852564 0.128106 0.103039
0.0901364 0.128655 0.0980203
0.0950389 0.128979 0.0894166
0.0994263 0.129633 0.0829909
0.104054 0.130741 0.0741901
0.109796 0.131159 0.0608002
-0.231065 0.137618 0.0275241
-0.225787 0.137198 0.0375811
-0.220672 0.137261 0.0417548
-0.213173 0.13502 0.0702491
-0.208366 0.13433 0.0789042
-0.202821 0.13366 0.0886089
-0.197334 0.133689 0.0988698
-0.191797 0.132269 0.106267
-0.187398 0.132075 0.111592
-0.182784 0.131841 0.114445
-0.178615 0.131318 0.118155
-0.172604 0.129756 0.138056
-0.167383 0.129445 0.144757
-0.162761 0.129418 0.150185
-0.158441 0.129075 0.153233
-0.153999 0.128919 0.155952
-0.149402 0.128359 0.160053
-0.144805 0.128484 0.163161
-0.1406 0.12865 0.166646
-0.136236 0.128084 0.168633
-0.131801 0.127756 0.171373
-0.127791 0.127539 0.174463
-0.123343 0.127375 0.175319
-0.119119 0.127255 0.177608
-0.115117 0.127421 0.17916
-0.110713 0.127395 0.181251
-0.106652 0.127308 0.182193
-0.102456 0.126927 0.182468
-0.0983118 0.126644 0.185948
-0.0941672 0.126855 0.185003
-0.0897399 0.126659 0.186767
-0.0860898 0.126588 0.187669
-0.0818489 0.126562 0.188472
-0.0775334 0.126872 0.188772
-0.0735728 0.126763 0.188817
-0.069862 0.127 0.187287
-0.0654354 0.126723 0.187561
-0.0615988 0.126682 0.187001
-0.0571968 0.126949 0.1863
-0.0532024 0.127028 0.185288
-0.0489886 0.127069 0.184314
-0.0448137 0.126475 0.183089
-0.0405656 0.127107 0.180382
-0.0369966 0.127188 0.180064
-0.0328129 0.127512 0.176832
-0.0286838 0.127456 0.175773
-0.0245022 0.128177 0.174639
-0.0207384 0.127576 0.171397
-0.0164897 0.127734 0.168528
-0.0119323 0.128198 0.167158
-0.00812289 0.12838 0.163597
-0.00440545 0.128564 0.161323
0.00042035 0.128673 0.160589
0.00413806 0.128687 0.158974
0.0084904 0.128777 0.154423
0.0124512 0.129259 0.152961
0.016983 0.129038 0.148624
0.0208983 0.129842 0.1473
0.0251859 0.129373 0.14587
0.0292087 0.129694 0.144951
0.0332381 0.13001 0.143136
0.0379425 0.130134 0.141078
0.0418061 0.130135 0.138365
0.0462258 0.130387 0.131848
0.0509214 0.130179 0.13037
0.0546916 0.131086 0.129457
0.0592759 0.130502 0.127671
0.0634376 0.131226 0.124559
0.0677219 0.131276 0.122642
0.0717204 0.131427 0.119171
0.0765628 0.131421 0.115702
0.0811435 0.13186 0.11183
0.0854215 0.132481 0.109026
0.0896569 0.13214 0.103568
0.0944595 0.133113 0.0964944
0.0989225 0.133547 0.0902342
0.103743 0.134331 0.0816971
0.109117 0.134927 0.0694901
-0.230308 0.141713 0.0381169
-0.225319 0.141585 0.0415415
-0.220639 0.141299 0.0470232
-0.213424 0.139293 0.0714891
-0.207379 0.138393 0.084421
-0.202073 0.137617 0.0923202
-0.196841 0.136906 0.101274
-0.19209 0.136917 0.108174
-0.187253 0.136109 0.111896
-0.18124 0.134957 0.131371
-0.176599 0.134557 0.138819
-0.171773 0.134141 0.144622
-0.166853 0.133361 0.150032
-0.162174 0.133245 0.153226
-0.157884 0.133034 0.157183
-0.153337 0.13276 0.160672
-0.149107 0.132479 0.163664
-0.144704 0.132311 0.166284
-0.140303 0.132174 0.16844
-0.135674 0.132134 0.171098
-0.131794 0.131636 0.173755
-0.12726 0.131416 0.175369
-0.123804 0.13155 0.176495
-0.118984 0.131721 0.17877
-0.115027 0.131397 0.180693
-0.111089 0.131502 0.181089
-0.106738 0.130926 0.181883
-0.102473 0.131179 0.183605
-0.0983294 0.130496 0.184769
-0.0943406 0.131052 0.186429
-0.0900047 0.130778 0.186876
-0.0855958 0.13063 0.188701
-0.0818163 0.130664 0.188537
-0.0775129 0.130385 0.189604
-0.0738279 0.130804 0.189211
-0.0693553 0.130904 0.187726
-0.0654257 0.130355 0.187845
-0.0612138 0.130921 0.188602
-0.0572636 0.13061 0.188278
-0.0530332 0.130774 0.187624
-0.0489755 0.130879 0.18709
-0.0452769 0.130881 0.185678
-0.0409715 0.130866 0.183953
-0.0370589 0.131225 0.183637
-0.0325097 0.131485 0.181139
-0.0286173 0.131485 0.180044
-0.024558 0.131436 0.178183
-0.0202937 0.131577 0.177267
-0.0166142 0.131838 0.175979
-0.0123834 0.132093 0.172835
-0.00796694 0.131881 0.169851
-0.00383897 0.132334 0.168065
8.35548e-05 0.132527 0.165161
0.0042663 0.133 0.163007
0.00848326 0.132796 0.160646
0.012609 0.13285 0.157661
0.0163901 0.133389 0.154517
0.0209076 0.133301 0.151693
0.0250962 0.133567 0.149971
0.0289778 0.133652 0.148334
0.033609 0.133904 0.14545
0.0375316 0.134014 0.143588
0.0419158 0.134312 0.139653
0.0463135 0.134519 0.134678
0.0508439 0.134507 0.131727
0.0553062 0.134808 0.130572
0.0591017 0.135359 0.12877
0.0631335 0.135043 0.127192
0.0675597 0.135214 0.125086
0.0722593 0.135432 0.122255
0.0760448 0.136076 0.119758
0.080198 0.135991 0.116634
0.0853818 0.135895 0.111948
0.0900404 0.137085 0.106552
0.0939672 0.136664 0.102701
0.099083 0.137423 0.0948998
0.103166 0.137798 0.0878447
0.108552 0.138889 0.0765287
0.113609 0.139501 0.0633411
-0.235013 0.145814 0.0353167
-0.229367 0.145668 0.0439963
-0.224819 0.145031 0.0447186
-0.219797 0.144424 0.0535291
-0.21306 0.143155 0.0737219
-0.207662 0.142514 0.0849451
-0.202126 0.141524 0.0942802
-0.196276 0.141139 0.104022
-0.191782 0.140379 0.109359
-0.185176 0.139253 0.131486
-0.180361 0.138452 0.13801
-0.175909 0.137961 0.142096
-0.171006 0.137758 0.148782
-0.166737 0.137518 0.151747
-0.162568 0.137342 0.155654
-0.157802 0.136859 0.159682
-0.153596 0.136775 0.162047
-0.149273 0.136661 0.163981
-0.144708 0.135981 0.167595
-0.140733 0.13622 0.168129
-0.135841 0.136112 0.171683
-0.132028 0.136146 0.172716
-0.127363 0.136093 0.174921
-0.123043 0.135872 0.175839
-0.118991 0.136107 0.177314
-0.114822 0.135555 0.179746
-0.11071 0.135294 0.180591
-0.106584 0.134968 0.181739
-0.102381 0.134815 0.183491
-0.0985074 0.135118 0.185271
-0.0936773 0.135176 0.18581
-0.0897971 0.13548 0.1853
-0.0856842 0.135239 0.186699
-0.0819982 0.134979 0.187807
-0.0777165 0.135035 0.187272
-0.0733927 0.134754 0.189051
-0.069869 0.134597 0.187576
-0.065107 0.134717 0.186561
-0.0608859 0.134891 0.187506
-0.0571412 0.134794 0.187315
-0.0529478 0.135318 0.186426
-0.048828 0.13478 0.186806
-0.04487 0.135261 0.185324
-0.0409239 0.134954 0.185423
-0.0374186 0.135148 0.183737
-0.0329971 0.135455 0.183275
-0.0288141 0.134991 0.180855
-0.0242875 0.135605 0.179642
-0.0203249 0.135891 0.177899
-0.016568 0.13549 0.176346
-0.0122492 0.135837 0.174661
-0.00793932 0.13584 0.173745
-0.00409287 0.136306 0.171613
0.000309296 0.136063 0.168976
0.00397514 0.136775 0.166802
0.00796833 0.136893 0.164556
0.0125317 0.136852 0.161719
0.016535 0.137151 0.158958
0.0207101 0.137046 0.157547
0.025112 0.137414 0.155255
0.0290169 0.137421 0.153174
0.0331895 0.137851 0.149804
0.0371938 0.137597 0.146331
0.0420745 0.138422 0.143774
0.0462307 0.138788 0.137823
0.0504843 0.138832 0.13459
0.0548321 0.139061 0.132925
0.0595327 0.139048 0.131016
0.0633972 0.139195 0.129784
0.0675589 0.139412 0.127946
0.0718291 0.139975 0.125234
0.0761691 0.139738 0.121607
0.080623 0.140366 0.118553
0.0850254 0.139971 0.114067
0.0898085 0.140635 0.110742
0.0938748 0.141066 0.105838
0.0981357 0.141177 0.0992434
0.103057 0.142276 0.092772
0.108097 0.142529 0.0822891
0.112949 0.143538 0.0709767
-0.233167 0.149705 0.04556
-0.228894 0.149344 0.0481895
-0.224613 0.149672 0.0479532
-0.21937 0.148751 0.0588316
-0.212496 0.147583 0.0755413
-0.207147 0.146528 0.0861045
-0.202019 0.146172 0.0961564
-0.196499 0.145398 0.104859
-0.18944 0.143191 0.129973
-0.184981 0.142743 0.136069
-0.181191 0.142779 0.138884
-0.176181 0.142117 0.143637
-0.17103 0.142116 0.148742
-0.166799 0.141394 0.151717
-0.161879 0.141731 0.155852
-0.157762 0.141271 0.157585
-0.153424 0.140578 0.161032
-0.148836 0.140961 0.164345
-0.144597 0.140221 0.167277
-0.140571 0.140209 0.168118
-0.136198 0.140353 0.169821
-0.132065 0.140313 0.17195
-0.127824 0.140104 0.172975
-0.123454 0.14001 0.175345
-0.119677 0.13974 0.175936
-0.114811 0.139419 0.178002
-0.110982 0.1395 0.179344
-0.106288 0.139362 0.18139
-0.10252 0.139289 0.181863
-0.098288 0.139352 0.183378
-0.0941459 0.138933 0.183636
-0.0901923 0.138951 0.184387
-0.0857362 0.139211 0.184851
-0.0817463 0.138844 0.18501
-0.077446 0.13933 0.185959
-0.0736232 0.139239 0.186485
-0.069273 0.138874 0.186938
-0.065517 0.139027 0.186295
-0.0614456 0.139335 0.185972
-0.0572792 0.139131 0.184923
-0.052866 0.139236 0.185963
-0.048866 0.138942 0.185666
-0.045255 0.139079 0.184476
-0.0410758 0.139006 0.184366
-0.0370362 0.139596 0.183443
-0.0329156 0.139256 0.183127
-0.0286123 0.139139 0.181619
-0.0242472 0.13962 0.179632
-0.0206029 0.139543 0.178996
-0.016673 0.139612 0.177771
-0.0125883 0.139879 0.175785
-0.00804671 0.139682 0.17388
-0.00424173 0.139462 0.17415
9.61525e-05 0.14012 0.171007
0.00396758 0.140287 0.170387
0.00811915 0.140534 0.167504
0.012369 0.141037 0.164859
0.0166257 0.140604 0.162978
0.020694 0.141064 0.160362
0.0243461 0.141249 0.15976
0.0288145 0.14129 0.158062
0.0333049 0.141394 0.154507
0.0376695 0.141955 0.152501
0.0416978 0.142242 0.14872
0.0461526 0.142577 0.144739
0.050514 0.143089 0.138533
0.0545481 0.142773 0.135579
0.0587773 0.142811 0.133899
0.0632624 0.143441 0.132416
0.0677924 0.143129 0.129207
0.0718344 0.143756 0.125923
0.076443 0.144064 0.122781
0.0806629 0.144427 0.120654
0.0848534 0.144259 0.116601
0.0893492 0.145068 0.113434
0.0938863 0.144638 0.108213
0.0984543 0.145446 0.102783
0.103195 0.145972 0.096348
0.107685 0.146429 0.0862905
0.112583 0.147574 0.0756401
-0.238515 0.154517 0.0414613
-0.233131 0.154003 0.0496348
-0.228733 0.154328 0.0519379
-0.223743 0.153682 0.0524979
-0.21849 0.153165 0.0616599
-0.212956 0.15167 0.0754714
-0.207562 0.15172 0.0856586
-0.201672 0.150061 0.0975769
-0.193975 0.1478 0.127965
-0.189164 0.146933 0.13378
-0.184518 0.147051 0.136906
-0.180223 0.14709 0.140853
-0.175507 0.146414 0.145641
-0.171378 0.145968 0.149942
-0.166884 0.145683 0.153638
-0.162125 0.145508 0.156176
-0.157456 0.145217 0.158982
-0.153199 0.145283 0.161631
-0.148852 0.144901 0.164112
-0.144678 0.144581 0.166237
-0.140566 0.144907 0.167921
-0.136421 0.144191 0.170246
-0.131513 0.14442 0.170696
-0.1278 0.144234 0.17213
-0.123648 0.144449 0.173351
-0.119276 0.143889 0.175242
-0.115373 0.144169 0.177629
-0.110918 0.143555 0.179409
-0.106518 0.143343 0.180965
-0.102308 0.143234 0.182005
-0.0979204 0.143395 0.18369
-0.0941283 0.143424 0.184372
-0.090027 0.143527 0.18446
-0.0858389 0.143685 0.185398
-0.0816011 0.143457 0.18396
-0.0776476 0.143157 0.185624
-0.073957 0.143338 0.186035
-0.0695235 0.143229 0.18584
-0.0653998 0.143203 0.185966
-0.061512 0.143446 0.185233
-0.0573772 0.143065 0.18397
-0.0533073 0.143289 0.184241
-0.0491242 0.143349 0.182877
-0.0449336 0.143522 0.183764
-0.0410844 0.143439 0.184504
-0.0365826 0.143123 0.183459
-0.0325436 0.143407 0.182561
-0.0284371 0.143494 0.181234
-0.0243783 0.143378 0.18085
-0.021052 0.143712 0.179171
-0.0163712 0.144185 0.177127
-0.0123762 0.144095 0.17657
-0.00845841 0.143928 0.176357
-0.00384636 0.144027 0.175746
2.15721e-05 0.144211 0.172121
0.00412689 0.144505 0.171602
0.00823899 0.144284 0.169562
0.0122654 0.144949 0.168213
0.0165741 0.144905 0.16704
0.0204848 0.144968 0.165839
0.0247673 0.144825 0.163192
0.0287172 0.144898 0.162284
0.0327903 0.145584 0.159918
0.0372171 0.145285 0.156209
0.0416368 0.14548 0.153616
0.0458465 0.145872 0.150725
0.0498741 0.146445 0.147195
0.0545928 0.14662 0.142431
0.0588284 0.147099 0.136957
0.063127 0.147225 0.133417
0.0670237 0.147715 0.13119
0.0710738 0.148305 0.129841
0.0760645 0.148231 0.125034
0.080316 0.147847 0.122687
0.0850453 0.148869 0.118358
0.0891374 0.148647 0.114637
0.0938911 0.149056 0.110377
0.0983772 0.149783 0.10467
0.102992 0.149933 0.0975131
0.107728 0.1511 0.0910952
0.112437 0.151142 0.0803747
-0.237551 0.158169 0.0500021
-0.232601 0.158229 0.0544845
-0.227759 0.157917 0.0546956
-0.223161 0.157513 0.0557572
-0.218009 0.156755 0.0658509
-0.212896 0.156046 0.0766712
-0.206962 0.155276 0.0888633
-0.198796 0.152411 0.125874
-0.193567 0.151586 0.131598
-0.188943 0.151591 0.135789
-0.185012 0.151115 0.137252
-0.180433 0.150801 0.140757
-0.175209 0.150031 0.148731
-0.170782 0.149813 0.153256
-0.166405 0.149625 0.156199
-0.161856 0.149386 0.159711
-0.157818 0.14949 0.161819
-0.152712 0.148976 0.164055
-0.14966 0.149078 0.165274
-0.14436 0.148776 0.167613
-0.140014 0.148456 0.169934
-0.135996 0.148264 0.170427
-0.131888 0.148462 0.172359
-0.128107 0.148643 0.172355
-0.123483 0.147994 0.173926
-0.1188 0.148315 0.177406
-0.114716 0.14781 0.179118
-0.110639 0.147443 0.181549
-0.106188 0.147415 0.183644
-0.10224 0.147402 0.185595
-0.0980393 0.14767 0.187131
-0.0940586 0.147058 0.186839
-0.0903119 0.146904 0.187086
-0.0856838 0.147304 0.187187
-0.0818513 0.147656 0.185283
-0.077681 0.147167 0.186405
-0.0736456 0.147337 0.18821
-0.0695157 0.146784 0.18882
-0.0654463 0.147354 0.188682
-0.0614721 0.146868 0.187238
-0.0573148 0.147089 0.185755
-0.0530433 0.147658 0.183625
-0.0491093 0.147536 0.183332
-0.0450532 0.147677 0.182855
-0.0413183 0.147789 0.183614
-0.03704 0.147535 0.183619
-0.033188 0.147185 0.182617
-0.0286344 0.147739 0.181134
-0.0243264 0.147865 0.180643
-0.0208513 0.147669 0.179729
-0.0165427 0.148163 0.17813
-0.0121358 0.148231 0.177373
-0.00812003 0.148423 0.176968
-0.00398224 0.148214 0.17596
-0.000309327 0.148036 0.173944
0.00397196 0.14833 0.173491
0.00822922 0.148506 0.173764
0.0124651 0.148699 0.171499
0.0165509 0.148342 0.169779
0.0209328 0.148514 0.169031
0.0245777 0.148543 0.168164
0.0289847 0.149254 0.165456
0.032753 0.149101 0.164354
0.0373998 0.14923 0.161167
0.0414487 0.14946 0.158757
0.0458729 0.149431 0.15651
0.049651 0.149765 0.153523
0.0543185 0.150121 0.149836
0.0587169 0.150383 0.145954
0.0630602 0.15131 0.13972
0.0676978 0.151399 0.13267
0.0715195 0.151987 0.129135
0.076274 0.152044 0.126294
0.0800743 0.152244 0.123971
0.0849059 0.15239 0.119814
0.0890699 0.153372 0.116274
0.093975 0.153253 0.111209
0.0980241 0.153378 0.106301
0.102845 0.154157 0.100479
0.107437 0.154879 0.0939461
0.112183 0.155734 0.0858357
0.117361 0.157054 0.0665587
-0.237176 0.162135 0.0544513
-0.231826 0.162276 0.0580574
-0.226944 0.162168 0.0579143
-0.223394 0.162081 0.0578662
-0.218143 0.161442 0.0668257
-0.212732 0.160336 0.0769486
-0.202695 0.156505 0.125171
-0.197555 0.155662 0.132013
-0.193557 0.155681 0.13463
-0.188862 0.155568 0.137
-0.185159 0.155219 0.13845
-0.180261 0.154796 0.142931
-0.174722 0.154157 0.15273
-0.170362 0.153939 0.156378
-0.166404 0.153941 0.158351
-0.161764 0.153778 0.161249
-0.157756 0.153346 0.164169
-0.153269 0.152753 0.166455
-0.148676 0.152907 0.168592
-0.144281 0.152465 0.170353
-0.140552 0.152606 0.171259
-0.136341 0.152391 0.174296
-0.131446 0.152199 0.174824
-0.127635 0.152514 0.173424
-0.123757 0.15242 0.175872
-0.119067 0.151589 0.179048
-0.114378 0.15168 0.182349
-0.110408 0.151527 0.184931
-0.106291 0.150961 0.187249
-0.10214 0.151279 0.188277
-0.0981862 0.151202 0.188515
-0.0940625 0.151408 0.189742
-0.0898438 0.150767 0.189073
-0.085857 0.151294 0.187859
-0.0818681 0.151298 0.187452
-0.0770228 0.151152 0.188639
-0.0737309 0.151326 0.189436
-0.0692783 0.150915 0.190984
-0.0652604 0.150992 0.191755
-0.0617433 0.150966 0.189937
-0.0578723 0.151111 0.188687
-0.0532369 0.151431 0.187183
-0.0490419 0.151708 0.184415
-0.0448786 0.151865 0.183486
-0.0404049 0.151435 0.184268
-0.0364776 0.151727 0.183956
-0.0328297 0.151526 0.182579
-0.0286844 0.151447 0.181306
-0.0246932 0.152178 0.180336
-0.020498 0.152278 0.179597
-0.0162156 0.152463 0.178718
-0.0121844 0.152046 0.178298
-0.00828816 0.152039 0.177942
-0.00441747 0.152147 0.177792
6.67335e-05 0.152035 0.176544
0.00398633 0.1522 0.17588
0.00828815 0.152379 0.176415
0.0120644 0.152655 0.175002
0.0164311 0.152366 0.174332
0.0207526 0.15236 0.173847
0.0248937 0.152421 0.172736
0.0288201 0.152409 0.171569
0.0329586 0.15288 0.170189
0.0370506 0.152546 0.16711
0.0417472 0.152866 0.16621
0.0460349 0.153445 0.164737
0.0497501 0.153405 0.162001
0.0543602 0.153699 0.1581
0.0581588 0.153821 0.15523
0.0630068 0.154215 0.148853
0.0671788 0.154826 0.142418
0.071556 0.156023 0.132485
0.0757029 0.156064 0.128404
0.080438 0.156746 0.123489
0.0850173 0.156817 0.119994
0.0888914 0.157015 0.117304
0.0939665 0.157673 0.112798
0.0983951 0.157884 0.107958
0.102818 0.158508 0.102823
0.107739 0.159002 0.096199
0.112125 0.159455 0.0880492
0.117621 0.161455 0.0700302
-0.236072 0.166784 0.0611352
-0.231658 0.166337 0.0608637
-0.227525 0.166057 0.0606683
-0.223249 0.166236 0.0611823
-0.218289 0.165727 0.0673579
-0.20701 0.161306 0.121627
-0.202699 0.160371 0.128448
-0.198205 0.159938 0.132444
-0.193973 0.160143 0.13415
-0.189233 0.159724 0.136725
-0.184621 0.159707 0.139879
-0.179637 0.158908 0.147292
-0.17458 0.158422 0.153574
-0.170382 0.157989 0.156389
-0.165877 0.157774 0.159799
-0.161544 0.157462 0.162899
-0.156746 0.156995 0.165786
-0.153042 0.156867 0.167805
-0.148848 0.15685 0.169724
-0.144357 0.156385 0.172286
-0.140024 0.156413 0.174494
-0.135804 0.156175 0.175199
-0.131385 0.156175 0.177199
-0.127716 0.156374 0.177105
-0.123494 0.155959 0.17858
