ply
format ascii 1.0
element vertex 1624
property float x
property float y
property float z
end_header
0.311723 -0.47888 0.10457
0.315201 -0.477365 0.11053
0.319005 -0.476194 0.114922
0.32288 -0.475509 0.117496
0.326331 -0.474737 0.121054
0.330401 -0.473926 0.12291
0.333669 -0.473087 0.126568
0.337702 -0.472879 0.128179
0.203556 -0.480841 0.0795803
0.206535 -0.477283 0.093763
0.209878 -0.475414 0.10103
0.213543 -0.4745 0.104989
0.216747 -0.472403 0.114278
0.219788 -0.469327 0.125243
0.223195 -0.467665 0.131744
0.226671 -0.466415 0.13854
0.230769 -0.465569 0.140167
0.235071 -0.465754 0.138789
0.240596 -0.4682 0.130438
0.246248 -0.471423 0.116599
0.250965 -0.472162 0.112806
0.256036 -0.473122 0.110226
0.259602 -0.472492 0.111716
0.262899 -0.471013 0.117501
0.266797 -0.469545 0.122945
0.27015 -0.468499 0.128286
0.273345 -0.466754 0.135226
0.276685 -0.465351 0.140552
0.280376 -0.464795 0.142977
0.284322 -0.463893 0.146777
0.287912 -0.463467 0.149257
0.292577 -0.463484 0.149334
0.303699 -0.474477 0.103014
0.308207 -0.474619 0.102066
0.311687 -0.474057 0.106282
0.315364 -0.472938 0.111097
0.318828 -0.472311 0.114159
0.322814 -0.47138 0.116708
0.326599 -0.470848 0.119668
0.330251 -0.470132 0.122294
0.334455 -0.46949 0.124247
0.338978 -0.470099 0.121528
0.203457 -0.486256 0.0414557
0.203765 -0.476943 0.0780152
0.206415 -0.472997 0.0921761
0.209814 -0.471261 0.10137
0.213874 -0.470009 0.103872
0.217279 -0.468757 0.110645
0.22049 -0.466513 0.119109
0.223711 -0.464765 0.127067
0.227409 -0.46358 0.131323
0.23126 -0.463037 0.133668
0.236516 -0.464109 0.129557
0.241607 -0.466647 0.119751
0.247044 -0.468387 0.111431
0.252185 -0.469615 0.107574
0.256027 -0.469747 0.106351
0.260084 -0.468701 0.110299
0.263655 -0.467925 0.114917
0.266762 -0.465902 0.121531
0.270463 -0.464525 0.1275
0.273365 -0.46277 0.131958
0.27721 -0.461664 0.138469
0.281053 -0.460856 0.141454
0.284662 -0.460461 0.14344
0.288613 -0.460726 0.144038
0.293672 -0.461417 0.139911
0.303964 -0.470979 0.101101
0.30813 -0.471224 0.101052
0.311932 -0.469965 0.104895
0.31518 -0.469596 0.10867
0.319151 -0.468488 0.111999
0.32314 -0.467836 0.113701
0.327024 -0.46715 0.11807
0.330637 -0.466373 0.119973
0.335281 -0.466857 0.119155
0.201698 -0.488598 0.0109985
0.203364 -0.481665 0.0404084
0.205086 -0.475376 0.0667938
0.206662 -0.469171 0.0912259
0.209778 -0.46699 0.101308
0.213707 -0.466101 0.103689
0.217574 -0.465222 0.106812
0.221082 -0.463889 0.11356
0.224723 -0.462002 0.121638
0.228611 -0.46115 0.123717
0.232732 -0.461158 0.123036
0.23723 -0.462941 0.118509
0.242918 -0.464477 0.110954
0.248129 -0.465211 0.104773
0.252422 -0.465919 0.103308
0.256833 -0.465813 0.104938
0.260285 -0.464737 0.107585
0.264012 -0.464382 0.111037
0.267564 -0.462547 0.118388
0.270562 -0.461178 0.124657
0.274182 -0.459717 0.129831
0.277675 -0.458785 0.133855
0.281586 -0.457821 0.137358
0.285683 -0.457822 0.13817
0.289755 -0.458176 0.136704
0.299941 -0.466964 0.0996364
0.304195 -0.467631 0.0989714
0.308436 -0.467089 0.100082
0.3129 -0.466555 0.102839
0.316179 -0.465729 0.106027
0.319777 -0.464872 0.109228
0.323702 -0.463977 0.112769
0.327599 -0.463489 0.114539
0.331899 -0.464007 0.114527
0.198567 -0.486718 0.00268817
0.200511 -0.4813 0.0234005
0.203295 -0.477136 0.0410352
0.204833 -0.470971 0.0674253
0.206784 -0.466013 0.0862272
0.210057 -0.462703 0.100602
0.213889 -0.461855 0.103325
0.217759 -0.46147 0.106027
0.221892 -0.460545 0.108925
0.225208 -0.459844 0.113224
0.229059 -0.458605 0.117089
0.234148 -0.459264 0.114512
0.238711 -0.460432 0.110149
0.243688 -0.461178 0.106591
0.248529 -0.462227 0.102288
0.25239 -0.46202 0.102358
0.256356 -0.461861 0.104139
0.260727 -0.461406 0.105602
0.264434 -0.460673 0.108876
0.267989 -0.458892 0.114804
0.27129 -0.457471 0.121916
0.27505 -0.456371 0.12693
0.278583 -0.45528 0.130063
0.282295 -0.455141 0.13167
0.286829 -0.4551 0.130881
0.291545 -0.456399 0.126274
0.300458 -0.463634 0.0965606
0.304854 -0.463325 0.0962287
0.309002 -0.463255 0.0970803
0.313257 -0.462989 0.0989642
0.31635 -0.462108 0.102087
0.320719 -0.461403 0.105975
0.323954 -0.460991 0.108143
0.328683 -0.461257 0.106563
-0.183348 -0.491555 -0.0372808
0.195018 -0.485095 -0.0111012
0.197774 -0.480494 0.00774825
0.199954 -0.476202 0.0266454
0.203263 -0.472952 0.0415471
0.205107 -0.466408 0.0663718
0.207379 -0.461956 0.0848358
0.210118 -0.459713 0.0962938
0.214006 -0.458164 0.102279
0.217806 -0.457456 0.10502
0.222077 -0.457083 0.105839
0.226185 -0.456453 0.108243
0.229655 -0.455968 0.111163
0.234749 -0.45652 0.107961
0.23928 -0.456908 0.10601
0.243494 -0.457491 0.103557
0.24851 -0.458434 0.101652
0.252619 -0.457859 0.102401
0.257041 -0.457877 0.102707
0.261199 -0.457681 0.103386
0.264347 -0.456725 0.106861
0.268182 -0.4555 0.111735
0.271561 -0.454515 0.117903
0.275467 -0.453073 0.122077
0.279128 -0.452736 0.124551
0.282967 -0.452156 0.125081
0.288073 -0.45296 0.122465
0.297062 -0.460095 0.092638
0.301362 -0.460741 0.0904746
0.30564 -0.460455 0.0912538
0.309822 -0.460249 0.0933713
0.313518 -0.459934 0.0953481
0.317383 -0.458949 0.0986173
0.3216 -0.458386 0.0996357
0.326717 -0.459828 0.094584
-0.229466 -0.496228 -0.0768251
-0.224426 -0.496177 -0.0749738
-0.22018 -0.496714 -0.0765846
-0.215672 -0.497598 -0.0806911
-0.188213 -0.486635 -0.0355473
-0.183152 -0.485884 -0.0340505
-0.17924 -0.486241 -0.035675
-0.174706 -0.487787 -0.0409503
0.192045 -0.485061 -0.0289409
0.194847 -0.47996 -0.00779414
0.197572 -0.475997 0.00909853
0.200243 -0.471927 0.026444
0.203409 -0.469099 0.0377507
0.206879 -0.466234 0.0502901
0.207786 -0.459266 0.0804939
0.210675 -0.456321 0.0916373
0.214534 -0.454789 0.0985534
0.218548 -0.453633 0.102231
0.222425 -0.45323 0.104021
0.226679 -0.452903 0.105439
0.230516 -0.452667 0.106642
0.234775 -0.452796 0.106199
0.239268 -0.453497 0.103638
0.243771 -0.454009 0.101117
0.248462 -0.454403 0.0993854
0.252654 -0.45421 0.0993987
0.257183 -0.454202 0.100061
0.261195 -0.45371 0.102087
0.26533 -0.45331 0.103587
0.26916 -0.452545 0.107502
0.272716 -0.451233 0.112511
0.27628 -0.450205 0.116434
0.280299 -0.449995 0.118665
0.284536 -0.450691 0.115603
0.292366 -0.456307 0.0922892
0.297655 -0.457215 0.0870118
0.301831 -0.457478 0.086567
0.306082 -0.457077 0.0871158
0.310389 -0.456808 0.0891165
0.314407 -0.45651 0.0895733
0.318783 -0.456611 0.0885402
0.326094 -0.459953 0.0760967
-0.229363 -0.491577 -0.0763474
-0.224663 -0.490892 -0.0740278
-0.219957 -0.490938 -0.0751109
-0.21557 -0.491718 -0.0757172
-0.210805 -0.492104 -0.077353
-0.206493 -0.492056 -0.0784163
-0.202027 -0.493987 -0.0846784
-0.197918 -0.49543 -0.0899885
-0.188078 -0.481975 -0.0358469
-0.18394 -0.481897 -0.0363653
-0.179264 -0.482434 -0.0366862
-0.17489 -0.482707 -0.0395267
-0.170605 -0.483693 -0.0411167
-0.166056 -0.484146 -0.0457983
-0.162023 -0.485586 -0.0506506
-0.135744 -0.492185 -0.0776439
-0.131335 -0.492138 -0.07848
-0.126829 -0.492608 -0.0805051
-0.12173 -0.492106 -0.0795722
-0.117111 -0.492767 -0.0798037
-0.112245 -0.493131 -0.0818169
-0.108084 -0.493936 -0.0857415
0.188939 -0.482881 -0.0387998
0.192086 -0.479712 -0.0258076
0.194817 -0.475068 -0.00822783
0.197453 -0.471592 0.00911438
0.200486 -0.467242 0.0264173
0.2035 -0.465285 0.0349506
0.206782 -0.462043 0.0486473
0.208707 -0.456173 0.0739285
0.211549 -0.452362 0.0894637
0.215127 -0.451551 0.0932981
0.218931 -0.449837 0.0972911
0.222642 -0.449797 0.100073
0.226735 -0.449315 0.102818
0.230794 -0.449182 0.102848
0.235013 -0.449185 0.102849
0.240187 -0.450342 0.0993363
0.244947 -0.451221 0.094744
0.24949 -0.45129 0.0936519
0.252946 -0.450675 0.0957949
0.257007 -0.449693 0.0996202
0.261341 -0.450189 0.10036
0.265804 -0.449827 0.100649
0.269437 -0.449456 0.103388
0.273456 -0.448935 0.105011
0.278037 -0.448819 0.103264
0.282907 -0.449853 0.0997055
0.28843 -0.451737 0.0914674
0.293733 -0.453588 0.0853002
0.298285 -0.454183 0.0825623
0.302669 -0.453971 0.0833898
0.306935 -0.453839 0.0842595
0.310906 -0.454114 0.0846136
0.31553 -0.453989 0.0822458
0.320509 -0.454848 0.0788559
0.325641 -0.456079 0.0739322
-0.229829 -0.488016 -0.079607
-0.224666 -0.486651 -0.0766098
-0.220256 -0.486811 -0.0748205
-0.215243 -0.486787 -0.0754585
-0.210766 -0.487444 -0.0760152
-0.206401 -0.487598 -0.0774136
-0.201978 -0.4885 -0.0791197
-0.196784 -0.487648 -0.0808818
-0.192683 -0.488904 -0.0840051
-0.183847 -0.47758 -0.0357227
-0.179469 -0.477651 -0.0382395
-0.17466 -0.478886 -0.040514
-0.170417 -0.479196 -0.0416422
-0.166354 -0.479697 -0.0450659
-0.161482 -0.480226 -0.0469873
-0.157504 -0.480594 -0.048681
-0.152528 -0.48177 -0.0530822
-0.148709 -0.482268 -0.0568984
-0.143773 -0.483163 -0.0598309
-0.139896 -0.4836 -0.0629721
-0.135259 -0.484831 -0.0674205
-0.131261 -0.486014 -0.0729342
-0.126582 -0.486987 -0.0757198
-0.121878 -0.487231 -0.076808
-0.116505 -0.487323 -0.0769618
-0.112474 -0.487686 -0.078054
-0.107814 -0.488027 -0.0807738
-0.103075 -0.489299 -0.085778
-0.0993131 -0.490526 -0.091558
-0.0946795 -0.492187 -0.0990372
0.188664 -0.478753 -0.0391395
0.191371 -0.474537 -0.0240636
0.194782 -0.471474 -0.00929523
0.197236 -0.466459 0.0118209
0.200598 -0.463614 0.0247645
0.203768 -0.460807 0.0358433
0.207146 -0.457284 0.0488886
0.20922 -0.452597 0.0697163
0.211566 -0.448731 0.0867521
0.215449 -0.447865 0.0902896
0.218811 -0.447644 0.0923823
0.223769 -0.44712 0.0936781
0.227602 -0.446996 0.0957072
0.23171 -0.446232 0.0959033
0.236806 -0.446871 0.0945381
0.240825 -0.447596 0.0925136
0.245484 -0.448166 0.090289
0.249793 -0.448127 0.0891496
0.254044 -0.447352 0.0908587
0.25782 -0.446519 0.0962397
0.261872 -0.446129 0.097311
0.265556 -0.445815 0.098756
0.269847 -0.446009 0.0989869
0.274648 -0.446083 0.0988731
0.278894 -0.446234 0.0973358
0.283845 -0.447595 0.0918823
0.289636 -0.449171 0.0834683
0.294177 -0.450089 0.0811733
0.298781 -0.450281 0.0798485
0.302709 -0.450103 0.0810713
0.307357 -0.449842 0.0810808
0.311784 -0.450246 0.0801965
0.316065 -0.450519 0.0800807
0.321683 -0.451806 0.0752667
-0.225078 -0.482712 -0.0798099
-0.219884 -0.482631 -0.0761871
-0.215472 -0.482474 -0.0767868
-0.210711 -0.482262 -0.0765591
-0.2062 -0.482589 -0.0773141
-0.201731 -0.482785 -0.0785859
-0.196784 -0.483062 -0.0796561
-0.192467 -0.482899 -0.0807376
-0.188033 -0.483894 -0.0827427
-0.179536 -0.474058 -0.0394766
-0.174816 -0.474228 -0.0420146
-0.170751 -0.474734 -0.0425828
-0.166251 -0.475037 -0.0449681
-0.161447 -0.475932 -0.0472162
-0.15711 -0.476457 -0.0501733
-0.153119 -0.476826 -0.0525713
-0.148387 -0.477673 -0.0558462
-0.14356 -0.478456 -0.0593064
-0.139214 -0.478518 -0.0618856
-0.135181 -0.480138 -0.0679321
-0.130845 -0.480996 -0.0708144
-0.126528 -0.481714 -0.074033
-0.121576 -0.482007 -0.0747125
-0.116788 -0.481585 -0.0747352
-0.112475 -0.482907 -0.0771468
-0.107797 -0.483398 -0.081043
-0.103171 -0.484547 -0.085499
-0.0990323 -0.485202 -0.0911396
-0.0942693 -0.487281 -0.0964086
-0.0900937 -0.48816 -0.101618
-0.0861397 -0.489994 -0.109075
-0.0809998 -0.491375 -0.115903
-0.0768014 -0.492938 -0.122569
0.188744 -0.473645 -0.0392456
0.191466 -0.469749 -0.0220253
0.194627 -0.466959 -0.00878692
0.197145 -0.462012 0.013471
0.200295 -0.458378 0.0268321
0.203808 -0.456304 0.0378679
0.207221 -0.453269 0.0469619
0.210561 -0.451453 0.0556439
0.213069 -0.448046 0.0713348
0.216183 -0.444997 0.0833523
0.220325 -0.444428 0.0865184
0.224196 -0.443456 0.0890296
0.227964 -0.442997 0.092828
0.232177 -0.443426 0.0929226
0.236907 -0.443023 0.0921862
0.241531 -0.443801 0.0894121
0.24583 -0.444647 0.0873307
0.250457 -0.444246 0.0863388
0.25447 -0.443778 0.0888861
0.258111 -0.443298 0.0908802
0.262148 -0.442521 0.0949918
0.266421 -0.44242 0.0951138
0.270778 -0.442546 0.0944009
0.27522 -0.443048 0.0933714
0.280141 -0.443684 0.0897977
0.284748 -0.445146 0.0845133
0.290319 -0.445841 0.0795853
0.294581 -0.446557 0.0774992
0.299262 -0.44666 0.0784268
0.302962 -0.445968 0.079489
0.307678 -0.446152 0.0792379
0.31215 -0.446716 0.0778859
0.317326 -0.447315 0.0747572
0.321751 -0.448928 0.0680758
-0.231002 -0.491588 -0.138405
-0.220653 -0.478896 -0.0799103
-0.215774 -0.478415 -0.0787215
-0.210619 -0.478067 -0.0782514
-0.206348 -0.478198 -0.0788798
-0.20162 -0.478434 -0.0793014
-0.197426 -0.478313 -0.0806091
-0.192612 -0.478893 -0.0799406
-0.187874 -0.479073 -0.0821719
-0.183485 -0.479573 -0.0849528
-0.175213 -0.470944 -0.0472579
-0.170374 -0.470421 -0.0458641
-0.16627 -0.470754 -0.0474775
-0.161429 -0.471154 -0.048624
-0.157605 -0.471558 -0.0505302
-0.153332 -0.47252 -0.0545359
-0.14798 -0.472932 -0.0561042
-0.143583 -0.473557 -0.058322
-0.139432 -0.474058 -0.0619755
-0.135324 -0.47565 -0.0661166
-0.130887 -0.475702 -0.0702426
-0.12585 -0.477055 -0.0733614
-0.122052 -0.47702 -0.074086
-0.117194 -0.477188 -0.0745449
-0.112189 -0.477818 -0.0763195
-0.107856 -0.478362 -0.0799949
-0.103496 -0.479262 -0.0844264
-0.0988887 -0.48012 -0.089576
-0.094505 -0.482088 -0.0952466
-0.0899851 -0.483512 -0.100844
-0.0856827 -0.484663 -0.107455
-0.0806856 -0.486154 -0.113882
-0.0764791 -0.48778 -0.119218
-0.0720437 -0.488176 -0.12269
-0.0672719 -0.489621 -0.129106
-0.0621989 -0.490349 -0.133491
-0.0577565 -0.492145 -0.140436
0.18864 -0.469603 -0.042264
0.191627 -0.46468 -0.0203395
0.194155 -0.460509 -0.00284839
0.196909 -0.456274 0.0167714
0.200532 -0.453339 0.0282557
0.203588 -0.451642 0.0368873
0.207404 -0.449946 0.043622
0.210685 -0.447893 0.0529541
0.214278 -0.446078 0.0609574
0.217337 -0.444225 0.0684183
0.221015 -0.442556 0.0761193
0.224963 -0.441205 0.0817026
0.228661 -0.439996 0.0869652
0.232493 -0.439599 0.0891445
0.237282 -0.440152 0.0871632
0.242197 -0.440809 0.0840782
0.246551 -0.441088 0.0818189
0.250689 -0.440349 0.0844398
0.254493 -0.440252 0.086447
0.2585 -0.439604 0.0885887
0.262792 -0.439477 0.0897772
0.267211 -0.439164 0.0888815
0.271313 -0.43921 0.0899107
0.276151 -0.440495 0.0856787
0.280576 -0.440642 0.0830495
0.285961 -0.441894 0.0795499
0.290637 -0.442705 0.0748093
0.295124 -0.442815 0.0758799
0.299052 -0.442251 0.0772582
0.304021 -0.442446 0.0752305
0.308763 -0.443148 0.074603
0.313046 -0.443772 0.0704575
-0.221119 -0.475276 -0.0857205
-0.215402 -0.474381 -0.0823197
-0.211161 -0.474248 -0.0817056
-0.206761 -0.474109 -0.0801823
-0.201938 -0.473919 -0.0810215
-0.19733 -0.474064 -0.0815129
-0.192353 -0.474366 -0.0835133
-0.187785 -0.474427 -0.0839734
-0.18296 -0.4751 -0.0864856
-0.179254 -0.475514 -0.0873787
-0.171001 -0.46738 -0.0537357
-0.166795 -0.466801 -0.0499396
-0.162006 -0.467038 -0.0506678
-0.157233 -0.467854 -0.05371
-0.152896 -0.46756 -0.0556295
-0.148444 -0.468664 -0.0582545
-0.14401 -0.469539 -0.0607765
-0.139875 -0.470089 -0.0640974
-0.134747 -0.471015 -0.0667477
-0.130588 -0.471793 -0.0708652
-0.126348 -0.472501 -0.0732324
-0.121832 -0.472566 -0.0746303
-0.116889 -0.472626 -0.0752873
-0.112197 -0.472867 -0.0763109
-0.107624 -0.474175 -0.0802865
-0.103802 -0.474539 -0.0838282
-0.098931 -0.475984 -0.0889127
-0.0941902 -0.477236 -0.0957317
-0.090036 -0.478667 -0.101073
-0.0856969 -0.479571 -0.106712
-0.0813513 -0.481531 -0.113814
-0.0764195 -0.482683 -0.119611
-0.0720916 -0.483826 -0.123853
-0.0667652 -0.484857 -0.12959
-0.0628706 -0.485828 -0.131371
-0.0574817 -0.486588 -0.13605
-0.0533341 -0.487504 -0.140643
-0.0482324 -0.488836 -0.145442
-0.0437951 -0.49001 -0.150356
-0.0385605 -0.49035 -0.154006
-0.0340366 -0.491629 -0.159152
0.188942 -0.465468 -0.0435631
0.191428 -0.461022 -0.023756
0.193543 -0.454422 0.00494432
0.196447 -0.452135 0.0163832
0.2003 -0.449699 0.0265495
0.203888 -0.447802 0.0344903
0.207892 -0.446032 0.04298
0.211223 -0.443572 0.0510708
0.21479 -0.442304 0.0575048
0.218832 -0.441361 0.0618165
0.222381 -0.440141 0.0675231
0.226654 -0.43906 0.0712833
0.230082 -0.438754 0.0743152
0.234764 -0.438119 0.07635
0.238299 -0.437952 0.079807
0.243083 -0.437855 0.0769172
0.247356 -0.438592 0.0755409
0.251135 -0.437325 0.079803
0.254731 -0.436363 0.0848716
0.259005 -0.435983 0.0852174
0.263602 -0.43617 0.085777
0.267759 -0.435878 0.0855361
0.272357 -0.435902 0.0848923
0.27667 -0.437141 0.0815231
0.282684 -0.438636 0.0730901
0.286985 -0.43906 0.0712769
0.2908 -0.43902 0.0721917
0.295373 -0.438509 0.0739034
0.300002 -0.438598 0.0742267
0.304775 -0.439479 0.0710994
-0.226716 -0.482022 -0.138507
-0.221961 -0.482079 -0.137013
-0.21161 -0.470456 -0.0848923
-0.206964 -0.470172 -0.0836537
-0.202281 -0.47017 -0.0844691
-0.197562 -0.470098 -0.0854318
-0.192596 -0.469865 -0.0846705
-0.188523 -0.470348 -0.0855742
-0.183398 -0.470132 -0.0863895
-0.178929 -0.47099 -0.0886772
-0.17451 -0.471463 -0.0903728
-0.167197 -0.46496 -0.0605013
-0.162416 -0.463667 -0.0577743
-0.157433 -0.464108 -0.0576313
-0.153083 -0.464371 -0.0589926
-0.148805 -0.465199 -0.0606484
-0.1443 -0.465303 -0.0628135
-0.140164 -0.465455 -0.0655453
-0.134939 -0.466479 -0.0689878
-0.13077 -0.466945 -0.0729599
-0.126213 -0.467585 -0.0744567
-0.121785 -0.467811 -0.0749717
-0.116819 -0.468049 -0.0746698
-0.11221 -0.468636 -0.0771401
-0.1082 -0.468728 -0.0785477
-0.103768 -0.469636 -0.0828443
-0.0991597 -0.47097 -0.0889151
-0.0948318 -0.472654 -0.0936327
-0.0907239 -0.473441 -0.100211
-0.085573 -0.475031 -0.105925
-0.0809664 -0.476243 -0.111612
-0.0763888 -0.477912 -0.118978
-0.0717708 -0.47902 -0.124744
-0.0671957 -0.480276 -0.127546
-0.0624113 -0.480911 -0.132987
-0.0577722 -0.482052 -0.135944
-0.0529599 -0.483007 -0.140095
-0.0483963 -0.483529 -0.143731
-0.0436989 -0.484616 -0.148651
-0.0382493 -0.484743 -0.151622
-0.0340707 -0.486549 -0.156521
-0.0295752 -0.48767 -0.160481
-0.0248511 -0.488281 -0.165143
-0.0195231 -0.489617 -0.171113
0.191288 -0.455705 -0.021359
0.193068 -0.44883 0.0096128
0.196731 -0.446807 0.0185949
0.200569 -0.445549 0.0258524
0.203729 -0.443077 0.0336735
0.207954 -0.441857 0.040868
0.211317 -0.440544 0.0487568
0.215058 -0.439232 0.0533891
0.21929 -0.43834 0.0562141
0.222903 -0.437363 0.0602371
0.226882 -0.436742 0.0639036
0.231133 -0.436108 0.0664847
0.235335 -0.435625 0.0695477
0.239616 -0.435398 0.0700126
0.243531 -0.435165 0.0696294
0.248512 -0.43523 0.0709753
0.251972 -0.4343 0.0722444
0.255972 -0.433551 0.0778857
0.260327 -0.433748 0.076933
0.264353 -0.433511 0.0779521
0.268947 -0.433651 0.0776371
0.273549 -0.43464 0.074976
0.27915 -0.435348 0.0692232
0.28361 -0.436065 0.0673971
0.288095 -0.43635 0.0655001
0.292153 -0.436108 0.0661925
0.296584 -0.436025 0.0663968
0.301911 -0.437624 0.0606704
-0.222373 -0.477632 -0.140123
-0.216942 -0.477529 -0.137981
-0.206983 -0.466187 -0.0883813
-0.202706 -0.466523 -0.0887156
-0.197315 -0.466177 -0.0869279
-0.193558 -0.465933 -0.0868888
-0.188565 -0.466483 -0.0881495
-0.18415 -0.466266 -0.0895712
-0.178775 -0.466941 -0.0907052
-0.17443 -0.467285 -0.0927343
-0.170456 -0.467402 -0.0939538
-0.165287 -0.468415 -0.0972514
-0.158654 -0.460611 -0.0647044
-0.153204 -0.460599 -0.0622935
-0.148648 -0.460922 -0.0632389
-0.144912 -0.460637 -0.0653625
-0.140219 -0.462042 -0.0684769
-0.134993 -0.462646 -0.0720177
-0.131308 -0.46306 -0.0733643
-0.126273 -0.46344 -0.0754006
-0.121295 -0.463498 -0.0757968
-0.117143 -0.46335 -0.0762877
-0.112175 -0.464729 -0.0774074
-0.107574 -0.464055 -0.0785258
-0.103574 -0.464919 -0.0829902
-0.0991966 -0.467123 -0.090359
-0.094681 -0.468121 -0.0962949
-0.0900835 -0.469045 -0.101876
-0.0856332 -0.470445 -0.107296
-0.0809238 -0.471341 -0.112116
-0.0768557 -0.472934 -0.118749
-0.0713701 -0.474544 -0.125053
-0.0673304 -0.475597 -0.128886
-0.0626255 -0.475997 -0.132263
-0.0578463 -0.477372 -0.137212
-0.0530143 -0.478051 -0.14019
-0.0478678 -0.479007 -0.144084
-0.0433706 -0.479442 -0.147564
-0.0392131 -0.480857 -0.150784
-0.0340228 -0.48054 -0.154252
-0.0292305 -0.482292 -0.159256
-0.0246938 -0.483461 -0.164832
-0.0199304 -0.484822 -0.169338
-0.0145105 -0.486152 -0.176658
-0.00980051 -0.487997 -0.186622
0.189726 -0.446874 -0.00184274
0.193055 -0.444926 0.0090723
0.196752 -0.442277 0.0196513
0.200453 -0.440919 0.0246838
0.204028 -0.439199 0.0327835
0.208193 -0.437877 0.037895
0.211729 -0.436351 0.044391
0.215585 -0.43579 0.0485725
0.219676 -0.43478 0.0498606
0.224212 -0.43467 0.0540386
0.227754 -0.43408 0.0581279
0.23158 -0.433039 0.061851
0.235818 -0.432739 0.0619209
0.240359 -0.432348 0.0629169
0.244808 -0.432084 0.0631827
0.248404 -0.431881 0.0671872
0.252943 -0.431166 0.0684491
0.256801 -0.431038 0.0678147
0.261465 -0.431294 0.0685322
0.265888 -0.431282 0.0670607
0.270268 -0.431458 0.0656091
0.275275 -0.432276 0.0646526
0.27969 -0.432538 0.0626574
0.283923 -0.432595 0.0610011
0.289066 -0.432892 0.0600102
0.294445 -0.434532 0.0527835
-0.217728 -0.473818 -0.142491
-0.212303 -0.472773 -0.141416
-0.203009 -0.462881 -0.0933948
-0.198339 -0.46223 -0.0918365
-0.193308 -0.461947 -0.0907338
-0.188216 -0.462255 -0.0909359
-0.184202 -0.462027 -0.0915458
-0.17945 -0.46217 -0.0934095
-0.174756 -0.463223 -0.0950451
-0.170489 -0.463307 -0.0961792
-0.165579 -0.463509 -0.0986884
-0.160997 -0.4642 -0.0989332
-0.156552 -0.46424 -0.099788
-0.149755 -0.457568 -0.0721877
-0.14486 -0.457879 -0.0709984
-0.140216 -0.458389 -0.0729976
-0.13555 -0.458788 -0.0747521
-0.131436 -0.458931 -0.0767686
-0.126538 -0.458933 -0.0775959
-0.122016 -0.458591 -0.0764213
-0.116906 -0.458795 -0.0777102
-0.112287 -0.459484 -0.0790834
-0.107651 -0.459781 -0.0804238
-0.103638 -0.460872 -0.085943
-0.0991184 -0.462437 -0.0923266
-0.0948765 -0.463673 -0.0981472
-0.0903779 -0.465169 -0.104444
-0.0855869 -0.465985 -0.109746
-0.0807318 -0.467048 -0.113866
-0.076691 -0.468536 -0.12074
-0.0717272 -0.469855 -0.126029
-0.0671455 -0.470183 -0.128912
-0.062336 -0.472036 -0.133789
-0.0578499 -0.472259 -0.136509
-0.0530052 -0.473054 -0.140481
-0.0482041 -0.473287 -0.142751
-0.0435562 -0.474021 -0.146532
-0.0385406 -0.475544 -0.151472
-0.0339158 -0.475993 -0.153183
-0.0294408 -0.477163 -0.15869
-0.024157 -0.478372 -0.164398
-0.0194729 -0.480098 -0.169242
-0.0149623 -0.480203 -0.173492
-0.00961719 -0.482963 -0.184416
-0.00492052 -0.487266 -0.203519
0.1899 -0.44249 -0.00193882
0.193511 -0.440238 0.00705934
0.196995 -0.438942 0.0158453
0.200561 -0.43736 0.0213392
0.205004 -0.435424 0.0286032
0.208739 -0.434405 0.0329757
0.212724 -0.433847 0.0367161
0.216366 -0.432463 0.0421007
0.220477 -0.431415 0.0476872
0.224343 -0.431046 0.0505033
0.228097 -0.430218 0.0536308
0.232328 -0.429449 0.0559459
0.237065 -0.429515 0.0565326
0.240866 -0.429155 0.057938
0.24506 -0.428873 0.059347
0.249411 -0.428612 0.0598871
0.253319 -0.428792 0.0616804
0.258245 -0.429006 0.0596585
0.262451 -0.429509 0.0594299
0.267353 -0.428867 0.0578951
0.271864 -0.429432 0.0573294
0.276125 -0.429178 0.0555516
0.280495 -0.429977 0.0555043
0.285034 -0.430142 0.0555621
0.290764 -0.431932 0.0463718
-0.212774 -0.469508 -0.144997
-0.207806 -0.468913 -0.143473
-0.199389 -0.459682 -0.100427
-0.19356 -0.458644 -0.0958266
-0.188905 -0.458426 -0.0952752
-0.184541 -0.458691 -0.0958414
-0.179619 -0.458616 -0.0962515
-0.175307 -0.458895 -0.0983491
-0.17025 -0.458905 -0.0979333
-0.165671 -0.458875 -0.0991471
-0.161115 -0.459886 -0.100887
-0.156778 -0.460008 -0.103045
-0.152015 -0.459685 -0.100573
-0.146924 -0.45865 -0.096076
-0.140841 -0.455881 -0.0837693
-0.13636 -0.455494 -0.0824664
-0.131633 -0.455781 -0.0826292
-0.127092 -0.454821 -0.0798936
-0.121812 -0.454581 -0.078166
-0.117248 -0.454899 -0.0793002
-0.112366 -0.455355 -0.0810113
-0.107666 -0.455314 -0.0827634
-0.103556 -0.457521 -0.0905938
-0.0990616 -0.458645 -0.0962081
-0.0950216 -0.459432 -0.0990644
-0.0902421 -0.460561 -0.108051
-0.0858144 -0.46158 -0.110837
-0.0810272 -0.462734 -0.116103
-0.0764846 -0.46368 -0.121172
-0.0717291 -0.465412 -0.126565
-0.0673552 -0.466614 -0.130571
-0.0626989 -0.466825 -0.134121
-0.0579414 -0.467579 -0.137291
-0.0527241 -0.468317 -0.141011
-0.0485116 -0.468966 -0.142628
-0.0435916 -0.469391 -0.14549
-0.0384687 -0.470143 -0.150308
-0.0335716 -0.47086 -0.15432
-0.0289291 -0.472441 -0.158476
-0.0242504 -0.473882 -0.164667
-0.0194881 -0.474425 -0.168112
-0.0144472 -0.47626 -0.174427
-0.00989133 -0.477304 -0.183079
-0.00518931 -0.48072 -0.195988
0.190221 -0.439163 -0.00810814
0.194226 -0.437064 0.00306726
0.197744 -0.435346 0.00973463
0.201029 -0.433726 0.0164186
0.205005 -0.432447 0.0233018
0.208663 -0.430918 0.029304
0.212981 -0.430443 0.0325481
0.216866 -0.42931 0.0376391
0.221076 -0.428411 0.0418276
0.22425 -0.427492 0.0470437
0.228886 -0.426892 0.0490875
0.233147 -0.426534 0.05112
0.237504 -0.426417 0.0518028
0.241337 -0.426163 0.0532001
0.246207 -0.426408 0.0530657
0.250172 -0.42564 0.0531071
0.254881 -0.426151 0.0540485
0.259281 -0.426106 0.052142
0.263976 -0.426164 0.0514483
0.2682 -0.425929 0.0514402
0.272626 -0.426522 0.0505489
0.277194 -0.426945 0.0483394
0.281863 -0.427359 0.0464901
0.286292 -0.428011 0.0440391
-0.208342 -0.46544 -0.148689
-0.203743 -0.465392 -0.14903
-0.198618 -0.465408 -0.148067
-0.189626 -0.455037 -0.102664
-0.184714 -0.454708 -0.0994177
-0.180169 -0.454576 -0.100339
-0.175126 -0.454617 -0.101546
-0.170573 -0.455559 -0.102575
-0.166095 -0.455305 -0.103684
-0.161411 -0.455443 -0.105695
-0.156651 -0.456158 -0.106354
-0.152023 -0.455952 -0.105267
-0.146589 -0.455232 -0.102129
-0.141654 -0.453547 -0.0950644
-0.136613 -0.452465 -0.0893521
-0.131713 -0.451491 -0.084779
-0.127107 -0.450826 -0.0828605
-0.12199 -0.450506 -0.081744
-0.117174 -0.450879 -0.0810888
-0.112658 -0.451077 -0.082921
-0.108368 -0.451854 -0.0885491
-0.104387 -0.45344 -0.0928698
-0.0992524 -0.454318 -0.0988886
-0.0947845 -0.455995 -0.103677
-0.090705 -0.456979 -0.110707
-0.0859852 -0.458008 -0.11385
-0.0815224 -0.458762 -0.117388
-0.0764188 -0.459736 -0.123377
-0.0719574 -0.460046 -0.125866
-0.0670422 -0.46074 -0.130066
-0.062473 -0.461904 -0.13282
-0.0577787 -0.462945 -0.136314
-0.0532647 -0.463661 -0.140369
-0.048415 -0.463676 -0.142986
-0.0434916 -0.464926 -0.147446
-0.0389595 -0.465603 -0.15084
-0.0343633 -0.466792 -0.154539
-0.0295325 -0.467479 -0.157681
-0.0244918 -0.468904 -0.164274
-0.0193398 -0.469597 -0.16957
-0.0146488 -0.470827 -0.174614
-0.00988207 -0.472034 -0.181897
-0.00471418 -0.475068 -0.196845
0.190729 -0.436388 -0.0161703
0.194041 -0.433884 -0.00339985
0.197579 -0.431416 0.0082643
0.201254 -0.430086 0.0152309
0.205265 -0.427904 0.0226225
0.209201 -0.427378 0.0277953
0.213185 -0.426046 0.0316591
0.217371 -0.425646 0.0345671
0.221005 -0.424912 0.0386325
0.225529 -0.423722 0.0420347
0.229174 -0.423186 0.04535
0.233437 -0.422824 0.046755
0.23753 -0.422551 0.0477839
0.242044 -0.42254 0.0478468
0.246699 -0.422774 0.048053
0.251011 -0.42257 0.0476813
0.255417 -0.422684 0.0470301
0.25985 -0.422865 0.0465969
0.264527 -0.423023 0.0463815
0.268981 -0.42315 0.0467354
0.273336 -0.42331 0.0437226
0.278762 -0.424041 0.0400463
0.28306 -0.424279 0.0385863
0.287849 -0.425202 0.0364219
-0.194066 -0.461225 -0.154965
-0.189506 -0.461051 -0.152866
-0.180135 -0.451322 -0.106033
-0.175545 -0.451513 -0.105481
-0.17136 -0.451608 -0.107159
-0.166562 -0.451427 -0.108659
-0.161564 -0.452135 -0.109771
-0.157302 -0.452396 -0.110307
-0.1524 -0.452334 -0.109699
-0.14759 -0.451603 -0.108085
-0.142297 -0.450582 -0.103574
-0.136526 -0.448279 -0.0921404
-0.131993 -0.44783 -0.0889149
-0.126996 -0.447023 -0.0871871
-0.12228 -0.446628 -0.0857623
-0.11731 -0.446399 -0.0837064
-0.112971 -0.446336 -0.0838892
-0.108742 -0.448319 -0.0926406
-0.104179 -0.449751 -0.0991387
-0.0998387 -0.450441 -0.101561
-0.0949193 -0.451691 -0.108734
-0.0903778 -0.452162 -0.111652
-0.0857323 -0.453221 -0.115151
-0.081217 -0.454242 -0.120123
-0.0768077 -0.454803 -0.123854
-0.0717178 -0.455199 -0.126636
-0.0677386 -0.456538 -0.130335
-0.062565 -0.457117 -0.133564
-0.058263 -0.457674 -0.135844
-0.0529335 -0.458467 -0.140984
-0.0479072 -0.459367 -0.14371
-0.0434683 -0.460242 -0.148507
-0.0389499 -0.461132 -0.151937
-0.0340264 -0.461326 -0.154626
-0.0288788 -0.462935 -0.160081
-0.0241448 -0.463993 -0.165919
-0.0200121 -0.464948 -0.169528
-0.0143373 -0.466828 -0.177814
-0.00942282 -0.46836 -0.186081
-0.0046329 -0.47089 -0.197918
0.191932 -0.433988 -0.024682
0.194164 -0.428608 -0.00112867
0.197335 -0.426503 0.0093962
0.200938 -0.424513 0.0180839
0.205099 -0.422991 0.0245088
0.208883 -0.422725 0.02833
0.213108 -0.421477 0.0318365
0.217228 -0.421208 0.0340326
0.221285 -0.420484 0.0363548
0.225462 -0.420019 0.0394847
0.229773 -0.419714 0.0409091
0.233732 -0.419173 0.0432562
0.23838 -0.419178 0.0437621
0.242629 -0.418873 0.0438597
0.247554 -0.419291 0.0427849
0.251831 -0.419752 0.0426208
0.255666 -0.420036 0.0422651
0.261007 -0.419569 0.0411394
0.265355 -0.419398 0.0395796
0.269948 -0.420284 0.0393034
0.274411 -0.42045 0.0369729
0.279966 -0.42137 0.0335444
-0.184878 -0.457212 -0.156886
-0.178966 -0.456565 -0.152164
-0.174128 -0.455717 -0.149947
-0.167013 -0.448968 -0.11708
-0.16184 -0.448802 -0.115678
-0.157425 -0.448317 -0.114915
-0.152806 -0.447862 -0.112794
-0.147689 -0.447768 -0.111911
-0.142593 -0.447002 -0.109616
-0.137273 -0.445104 -0.0998659
-0.132064 -0.443909 -0.0944903
-0.127669 -0.443766 -0.0912921
-0.122632 -0.44297 -0.0894172
-0.117676 -0.442414 -0.0884128
-0.113105 -0.443487 -0.0916367
-0.109076 -0.444991 -0.0995831
-0.10424 -0.445719 -0.102397
-0.0995878 -0.446765 -0.105493
-0.0953529 -0.447435 -0.110591
-0.0906926 -0.44828 -0.114382
-0.0857481 -0.448879 -0.117508
-0.0809516 -0.449532 -0.12101
-0.0766051 -0.450787 -0.125639
-0.0719511 -0.450997 -0.128093
-0.0672709 -0.451573 -0.132124
-0.0625384 -0.452197 -0.133682
-0.0577084 -0.453188 -0.137259
-0.0530621 -0.454006 -0.141284
-0.0485768 -0.454581 -0.144944
-0.043432 -0.455976 -0.148359
-0.0386265 -0.456529 -0.152942
-0.0341348 -0.456913 -0.156216
-0.0289154 -0.457987 -0.160697
-0.0246591 -0.459392 -0.165394
-0.01978 -0.460727 -0.171931
-0.0145856 -0.461755 -0.179117
-0.00974159 -0.464089 -0.188201
-0.00469384 -0.467353 -0.205006
0.19107 -0.42723 -0.0130203
0.193314 -0.423826 0.00157917
0.197122 -0.421622 0.0120635
0.20101 -0.419479 0.0216751
0.205226 -0.418603 0.0257635
0.209124 -0.417773 0.0281355
0.212911 -0.416918 0.0327685
0.217252 -0.416848 0.0343081
0.221541 -0.416164 0.0368973
0.225487 -0.415801 0.0386298
0.229432 -0.415574 0.0406655
0.234125 -0.415271 0.0420685
0.238404 -0.414945 0.0421277
0.242774 -0.414666 0.0425512
0.24738 -0.415335 0.0414284
0.251665 -0.415116 0.0408518
0.256797 -0.415975 0.0387634
0.261002 -0.416229 0.0382336
0.265736 -0.416078 0.0372263
0.270348 -0.416356 0.035154
0.275492 -0.417241 0.0309538
0.280566 -0.418385 0.0275218
-0.179953 -0.453141 -0.159125
-0.175321 -0.452414 -0.15638
-0.169734 -0.451368 -0.152786
-0.163055 -0.445266 -0.123323
-0.157687 -0.444578 -0.12006
-0.152986 -0.443858 -0.117923
-0.147743 -0.44335 -0.115943
-0.142743 -0.443229 -0.113478
-0.137658 -0.442471 -0.112632
-0.132079 -0.440227 -0.0985513
-0.127247 -0.439832 -0.0953906
-0.122473 -0.439283 -0.0933969
-0.118146 -0.439006 -0.0959725
-0.113627 -0.439793 -0.0980926
-0.109135 -0.440953 -0.101917
-0.104809 -0.441264 -0.103883
-0.0998328 -0.442376 -0.108341
-0.0948895 -0.443265 -0.114286
-0.0905506 -0.443794 -0.117004
-0.0859881 -0.444484 -0.118417
-0.081005 -0.445442 -0.123497
-0.0769557 -0.445665 -0.126637
-0.0716474 -0.446845 -0.13028
-0.0670422 -0.447177 -0.133143
-0.0627681 -0.447965 -0.134848
-0.0573746 -0.448214 -0.137866
-0.0533856 -0.449243 -0.141256
-0.0484781 -0.450122 -0.145596
-0.0432246 -0.450925 -0.148846
-0.0389347 -0.451659 -0.153171
-0.0341115 -0.452558 -0.157359
-0.0296919 -0.453376 -0.161196
-0.0241911 -0.454577 -0.167661
-0.0197632 -0.455641 -0.173208
-0.0143888 -0.457704 -0.181459
-0.0101232 -0.459447 -0.189268
-0.00474827 -0.463749 -0.210155
0.190265 -0.421757 -0.0097599
0.193484 -0.418052 0.00792289
0.197326 -0.416203 0.0172402
0.200449 -0.414116 0.0257572
0.204165 -0.413436 0.0287565
0.208413 -0.413091 0.0316514
0.212824 -0.412336 0.0337476
0.21696 -0.411454 0.0369729
0.221486 -0.411624 0.0383986
0.225463 -0.411101 0.03921
0.229965 -0.411019 0.0412015
0.234247 -0.410395 0.0427302
0.238978 -0.41091 0.042063
0.243233 -0.410852 0.0412512
0.247648 -0.410515 0.0410755
0.251878 -0.411424 0.039855
0.256778 -0.411447 0.0378243
0.261053 -0.411566 0.0374355
0.26567 -0.412016 0.0353086
0.270853 -0.412437 0.0325811
0.276146 -0.413486 0.0296096
0.280446 -0.414117 0.025655
-0.175591 -0.44848 -0.161395
-0.170442 -0.447684 -0.157914
-0.163458 -0.443258 -0.135215
-0.158458 -0.44117 -0.127584
-0.153223 -0.440804 -0.122761
-0.147847 -0.439848 -0.118511
-0.143688 -0.439409 -0.11872
-0.138901 -0.439437 -0.118504
-0.133625 -0.438776 -0.114783
-0.128417 -0.436974 -0.107859
-0.123588 -0.437207 -0.106769
-0.118779 -0.43704 -0.107218
-0.114237 -0.436961 -0.107033
-0.109241 -0.437279 -0.105928
-0.104842 -0.437248 -0.106964
-0.100023 -0.438179 -0.112412
-0.095452 -0.439613 -0.118543
-0.0912977 -0.439914 -0.120222
-0.0862408 -0.440175 -0.122304
-0.0814971 -0.440795 -0.125524
-0.0769407 -0.442017 -0.128264
-0.0720533 -0.441865 -0.12923
-0.0671651 -0.442609 -0.133826
-0.0628626 -0.443174 -0.136159
-0.0577807 -0.443626 -0.137869
-0.0532534 -0.444434 -0.142019
-0.0480042 -0.445259 -0.145019
-0.0433693 -0.445914 -0.149405
-0.0390192 -0.447162 -0.154932
-0.0341911 -0.447919 -0.158944
-0.0293273 -0.449056 -0.162601
-0.0242043 -0.450185 -0.168842
-0.0198857 -0.451028 -0.173945
-0.0148227 -0.453072 -0.184841
-0.0102685 -0.455349 -0.194277
0.189029 -0.414066 0.00518835
0.192322 -0.411101 0.0179855
0.19612 -0.409728 0.0267696
0.199636 -0.408547 0.0301015
0.203973 -0.408073 0.0333685
0.207548 -0.407405 0.036495
0.212733 -0.406865 0.0387239
0.21689 -0.406828 0.0396854
0.220718 -0.40591 0.0420047
0.22476 -0.406119 0.0428492
0.229268 -0.405469 0.0447772
0.233957 -0.405048 0.0465747
0.238266 -0.405262 0.0453211
0.242395 -0.40527 0.0455259
0.247361 -0.405702 0.043927
0.251685 -0.406422 0.0414628
0.256452 -0.406502 0.0397972
0.26142 -0.407279 0.0368001
0.265722 -0.408072 0.0354438
0.27073 -0.408049 0.0317845
0.275583 -0.409473 0.0273485
0.281164 -0.410342 0.0207647
-0.160099 -0.44289 -0.156268
-0.154215 -0.437609 -0.13433
-0.149044 -0.436986 -0.130033
-0.143623 -0.436236 -0.122435
-0.138803 -0.435034 -0.120948
-0.133578 -0.435138 -0.119538
-0.129009 -0.435215 -0.120525
-0.1242 -0.434942 -0.11836
-0.119249 -0.434457 -0.116574
-0.114591 -0.434267 -0.118075
-0.109895 -0.433955 -0.11391
-0.105069 -0.433923 -0.113471
-0.100496 -0.43497 -0.120263
-0.0959795 -0.435092 -0.121886
-0.090984 -0.435737 -0.122847
-0.0861138 -0.435827 -0.123834
-0.0813892 -0.436779 -0.127227
-0.0770717 -0.437293 -0.129912
-0.0720414 -0.437332 -0.131486
-0.0674319 -0.43814 -0.135355
-0.0627671 -0.438719 -0.137943
-0.0575713 -0.439465 -0.139814
-0.0532506 -0.439596 -0.142706
-0.0485283 -0.440434 -0.146552
-0.0439617 -0.441098 -0.15052
-0.0391259 -0.442424 -0.155021
-0.0340179 -0.442477 -0.15901
-0.0289585 -0.444145 -0.164594
-0.0242934 -0.445497 -0.170799
-0.0197747 -0.447033 -0.177013
-0.0151586 -0.448938 -0.187723
-0.0101072 -0.45284 -0.206802
0.184586 -0.409422 0.0032351
0.188359 -0.407801 0.013782
0.19146 -0.405206 0.0260109
0.195373 -0.404392 0.0297047
0.199721 -0.403659 0.0330607
0.203531 -0.40241 0.0381409
0.208083 -0.402411 0.0383312
0.212697 -0.402114 0.041048
0.216604 -0.401809 0.0419971
0.220728 -0.401893 0.043146
0.224907 -0.401111 0.0450087
0.229028 -0.400629 0.0475293
0.233211 -0.40046 0.0499328
0.237123 -0.400195 0.0510985
0.242346 -0.400804 0.0472608
0.246798 -0.400755 0.0463389
0.251466 -0.401338 0.0446697
0.255709 -0.401812 0.0426042
0.260538 -0.401704 0.0412889
0.265912 -0.403139 0.0363978
0.271144 -0.40434 0.0305845
0.276078 -0.405026 0.025232
-0.155739 -0.438545 -0.159494
-0.151218 -0.438376 -0.160704
-0.145993 -0.437563 -0.1575
-0.139693 -0.433138 -0.132687
-0.134405 -0.433021 -0.133357
-0.129493 -0.432935 -0.132372
-0.124665 -0.432533 -0.129591
-0.119704 -0.431749 -0.12546
-0.114727 -0.431283 -0.12315
-0.110061 -0.430445 -0.121466
-0.10513 -0.430887 -0.122741
-0.100648 -0.431011 -0.123723
-0.0960825 -0.431023 -0.123456
-0.0908579 -0.431238 -0.124182
-0.0861409 -0.432035 -0.126627
-0.0816875 -0.433342 -0.131828
-0.0768657 -0.433251 -0.133306
-0.0718766 -0.433703 -0.135935
-0.0673286 -0.433897 -0.138057
-0.0627973 -0.434532 -0.140414
-0.058362 -0.434961 -0.142263
-0.0529955 -0.435588 -0.146072
-0.0485367 -0.436196 -0.149234
-0.0436993 -0.436523 -0.152825
-0.038879 -0.437913 -0.15746
-0.0341553 -0.439101 -0.163424
-0.029318 -0.44 -0.166985
-0.0245499 -0.440576 -0.173715
-0.0197512 -0.443024 -0.181703
-0.0150045 -0.444754 -0.190474
0.180551 -0.40652 -0.00248671
0.183933 -0.404182 0.0105133
0.187285 -0.40149 0.0216645
0.19125 -0.399943 0.0290203
0.195483 -0.399156 0.0324551
0.199446 -0.398538 0.0351195
0.203718 -0.39799 0.0384532
0.207526 -0.39788 0.0401654
0.212127 -0.397609 0.0415233
0.215858 -0.396904 0.0436935
0.220072 -0.396772 0.0457176
0.224779 -0.396698 0.0466628
0.228209 -0.395685 0.0502387
0.232575 -0.394748 0.0553116
0.236891 -0.39472 0.0544007
0.241796 -0.395487 0.051459
0.246629 -0.396431 0.0482447
0.251075 -0.396328 0.0479641
0.25547 -0.396822 0.0454713
0.260192 -0.397024 0.044444
0.265058 -0.397413 0.0417652
0.270484 -0.39904 0.0335976
0.275549 -0.400109 0.0274723
-0.136157 -0.433013 -0.156896
-0.131439 -0.431359 -0.149271
-0.125888 -0.429501 -0.140373
-0.120653 -0.429206 -0.139238
-0.115189 -0.4285 -0.133479
-0.110398 -0.427008 -0.130219
-0.10585 -0.42765 -0.127564
-0.10076 -0.427197 -0.128752
-0.095658 -0.427214 -0.126749
-0.091102 -0.42739 -0.127855
-0.0870816 -0.427805 -0.132791
-0.0817282 -0.428967 -0.135814
-0.0773667 -0.429047 -0.138812
-0.0720816 -0.429869 -0.140315
-0.0676967 -0.430103 -0.141776
-0.0628388 -0.430467 -0.143361
-0.058151 -0.430583 -0.145701
-0.0535583 -0.431398 -0.149005
-0.0487584 -0.431471 -0.15185
-0.0436332 -0.432682 -0.156076
-0.0386946 -0.434491 -0.162271
-0.0347796 -0.43466 -0.165879
-0.0293006 -0.436164 -0.173103
-0.0246583 -0.437452 -0.180203
-0.019827 -0.439162 -0.187628
0.180321 -0.400017 0.00724232
0.183259 -0.397993 0.016856
0.187251 -0.396117 0.0258604
0.190636 -0.395236 0.0305882
0.195562 -0.394543 0.0336506
0.198946 -0.39365 0.0379629
0.203287 -0.392978 0.0421451
0.207294 -0.392872 0.0433824
0.211621 -0.392471 0.045223
0.215918 -0.392243 0.0463256
0.220183 -0.391628 0.0468589
0.224486 -0.39169 0.0479001
0.228112 -0.390699 0.0517424
0.232861 -0.390489 0.0546548
0.237081 -0.390747 0.053471
0.241881 -0.391141 0.052138
0.24665 -0.39175 0.0487823
0.251149 -0.392125 0.0484846
0.25543 -0.392071 0.0468695
0.260011 -0.392641 0.045068
0.26433 -0.392625 0.0433366
0.270072 -0.394181 0.0371801
0.275158 -0.395129 0.0318251
-0.131644 -0.430219 -0.166727
-0.126609 -0.427834 -0.157444
-0.121447 -0.4264 -0.149169
-0.115692 -0.425083 -0.139915
-0.111086 -0.423821 -0.13656
-0.106381 -0.424135 -0.135956
-0.10048 -0.423526 -0.134661
-0.09612 -0.423021 -0.133278
-0.0917289 -0.42416 -0.135806
-0.087115 -0.424962 -0.140069
-0.0820461 -0.424415 -0.140468
-0.0772482 -0.425183 -0.14126
-0.0721865 -0.425205 -0.141731
-0.067371 -0.425564 -0.143483
-0.0630008 -0.425774 -0.145355
-0.0575386 -0.426021 -0.148785
-0.0529453 -0.42679 -0.150141
-0.048366 -0.427801 -0.154732
-0.0441025 -0.428214 -0.158036
-0.0388637 -0.429578 -0.165145
-0.0342376 -0.431325 -0.172135
-0.0295042 -0.43268 -0.178786
-0.0243185 -0.434489 -0.187954
-0.0202067 -0.436237 -0.198522
0.17642 -0.39856 -0.00795364
0.17939 -0.394814 0.0112743
0.183096 -0.392782 0.0201267
0.186898 -0.391611 0.0265239
0.190535 -0.390141 0.0327181
0.194855 -0.389369 0.0380889
0.19884 -0.388143 0.0428784
0.202895 -0.388019 0.0442183
0.207094 -0.38754 0.04708
0.211435 -0.387165 0.0488472
0.21499 -0.386685 0.0501022
0.220328 -0.387316 0.0498496
0.223873 -0.387105 0.0499318
0.228571 -0.386374 0.0518837
0.232523 -0.386425 0.0527756
0.237198 -0.386058 0.0532532
0.241741 -0.386057 0.0528613
0.24575 -0.386805 0.0516238
0.250729 -0.387087 0.0499773
0.255066 -0.386813 0.0485151
0.260083 -0.388151 0.0461746
0.264699 -0.388175 0.04334
0.269935 -0.389578 0.0376291
0.275123 -0.390403 0.0328836
0.280127 -0.391408 0.0284054
-0.121914 -0.423032 -0.157239
-0.116096 -0.421542 -0.149524
-0.111079 -0.420691 -0.143427
-0.106705 -0.420351 -0.141814
-0.100857 -0.420098 -0.142014
-0.0967761 -0.420197 -0.141392
-0.0915684 -0.420158 -0.141503
-0.0867236 -0.420342 -0.142355
-0.0820267 -0.420082 -0.142241
-0.0773555 -0.419996 -0.14233
-0.072861 -0.41994 -0.142534
-0.0679534 -0.420855 -0.144171
-0.062949 -0.421 -0.14577
-0.0579805 -0.421395 -0.148329
-0.0534261 -0.421968 -0.150738
-0.048759 -0.422794 -0.154732
-0.043697 -0.423473 -0.1591
-0.039244 -0.424793 -0.164224
-0.0341035 -0.425594 -0.170882
-0.0297269 -0.427391 -0.178412
-0.0243378 -0.43014 -0.193764
0.175485 -0.392198 0.00209665
0.178817 -0.389698 0.0142471
0.18236 -0.387467 0.0236295
0.186271 -0.386314 0.0307858
0.190284 -0.385036 0.0386471
0.194429 -0.384297 0.0416499
0.19811 -0.382984 0.0455741
0.202345 -0.383077 0.0479935
0.206764 -0.382731 0.0493394
0.210841 -0.382229 0.0518091
0.215594 -0.382241 0.0512904
0.219935 -0.382449 0.050667
0.224222 -0.382218 0.0506883
0.228481 -0.382071 0.0520622
0.232591 -0.382252 0.052572
0.237219 -0.382106 0.0527844
0.241256 -0.38164 0.055266
0.245778 -0.381768 0.0546044
0.250797 -0.382403 0.0516027
0.255004 -0.382604 0.049883
0.259425 -0.382941 0.0489323
0.264739 -0.383918 0.0434642
0.269823 -0.384759 0.0388941
0.274483 -0.38581 0.0338662
0.280667 -0.387283 0.0273651
-0.121981 -0.419539 -0.163005
-0.1168 -0.417957 -0.15454
-0.112071 -0.417158 -0.150607
-0.10656 -0.416599 -0.146951
-0.101291 -0.416425 -0.145705
-0.0966049 -0.415871 -0.144714
-0.0919271 -0.415784 -0.14329
-0.0866438 -0.415046 -0.141943
-0.0822195 -0.415164 -0.141436
-0.0771897 -0.415219 -0.142696
-0.0721668 -0.415514 -0.142584
-0.0675223 -0.415686 -0.143916
-0.0631042 -0.415759 -0.144479
-0.0576685 -0.416317 -0.147576
-0.0533 -0.417395 -0.151038
-0.0484709 -0.417384 -0.154177
-0.044037 -0.419111 -0.158774
-0.0393615 -0.419535 -0.163268
-0.0340634 -0.421203 -0.171011
-0.0295923 -0.42328 -0.180149
-0.0250535 -0.424692 -0.190916
0.172283 -0.389344 -0.00742984
0.17524 -0.386853 0.00547326
0.178337 -0.383628 0.0217482
0.182406 -0.382285 0.0284299
0.185886 -0.38029 0.0376524
0.189631 -0.379744 0.041827
0.19407 -0.379372 0.044978
0.198093 -0.378884 0.0485033
0.202293 -0.378511 0.0490918
0.206557 -0.378201 0.05018
0.211033 -0.378152 0.0510263
0.215047 -0.378181 0.0515822
0.219782 -0.377944 0.0517458
0.223688 -0.377245 0.0535073
0.228437 -0.377599 0.0535158
0.232725 -0.377123 0.054342
0.236664 -0.377003 0.056295
0.240274 -0.376399 0.0582978
0.24547 -0.376528 0.0582566
0.250107 -0.376809 0.0556546
0.25512 -0.378069 0.0509899
0.259893 -0.378684 0.0493025
0.264242 -0.378886 0.0458863
0.269572 -0.379826 0.041484
0.275558 -0.381507 0.030998
0.282212 -0.385269 0.0160496
-0.122079 -0.414462 -0.163279
-0.116742 -0.41293 -0.154317
-0.111227 -0.412077 -0.148602
-0.106809 -0.411263 -0.146177
-0.101812 -0.411114 -0.144928
-0.0966951 -0.411039 -0.143734
-0.0921825 -0.410684 -0.143293
-0.0867203 -0.41065 -0.14206
-0.0821661 -0.410991 -0.140842
-0.0771234 -0.410451 -0.139382
-0.072013 -0.409943 -0.139103
-0.0675545 -0.409884 -0.140012
-0.0630975 -0.410346 -0.141643
-0.0579263 -0.410516 -0.143454
-0.0533662 -0.411815 -0.147842
-0.048368 -0.412271 -0.152581
-0.0440144 -0.413681 -0.157474
-0.0387764 -0.414244 -0.163066
-0.0341592 -0.416586 -0.170427
-0.028981 -0.417934 -0.179659
-0.0245164 -0.419875 -0.191349
0.171483 -0.383437 0.000771642
0.174385 -0.380658 0.0157294
0.178157 -0.37818 0.0265049
0.181954 -0.376834 0.0337546
0.185624 -0.375617 0.040169
0.189429 -0.375007 0.0450761
0.193794 -0.374172 0.0487854
0.197856 -0.373888 0.050992
0.202103 -0.373544 0.0520772
0.206057 -0.373369 0.0531216
0.210544 -0.373222 0.0528753
0.214965 -0.373198 0.0530647
0.219183 -0.373104 0.0538008
0.223566 -0.37333 0.0540314
0.22827 -0.372691 0.0552917
0.232552 -0.372108 0.0560501
0.2367 -0.372292 0.0578022
0.240511 -0.372405 0.0594523
0.245552 -0.372194 0.0590683
0.249795 -0.372486 0.0570098
0.254854 -0.373193 0.0523462
0.259656 -0.373866 0.0497971
0.264278 -0.374291 0.0467062
0.269474 -0.375741 0.0423435
0.274337 -0.376129 0.0383608
0.281496 -0.380182 0.0171776
-0.121384 -0.40797 -0.155072
-0.116675 -0.40717 -0.149793
-0.111286 -0.406574 -0.145632
-0.106329 -0.405921 -0.144077
-0.101507 -0.406199 -0.144807
-0.0967037 -0.405997 -0.143522
-0.0921139 -0.406113 -0.141928
-0.0867993 -0.405458 -0.141306
-0.0820279 -0.404813 -0.138357
-0.0772451 -0.404849 -0.136189
-0.0720954 -0.404607 -0.135494
-0.0671743 -0.405039 -0.136383
-0.0627332 -0.404511 -0.13698
-0.0573784 -0.404703 -0.138452
-0.0526868 -0.405815 -0.141487
-0.048625 -0.406492 -0.145376
-0.043553 -0.407426 -0.15063
-0.0391122 -0.408924 -0.157737
-0.0340308 -0.410142 -0.165812
-0.029477 -0.412802 -0.177196
-0.0248418 -0.415234 -0.192799
0.17047 -0.377044 0.0118155
0.174011 -0.374895 0.0223767
0.17766 -0.373166 0.031665
0.181512 -0.37136 0.0369167
0.185525 -0.370733 0.0422349
0.189538 -0.370196 0.0464926
0.193126 -0.369713 0.0498643
0.19793 -0.369018 0.0524445
0.20157 -0.368418 0.0538384
0.206222 -0.368407 0.0564438
0.210518 -0.367957 0.0569046
0.214934 -0.368438 0.054693
0.219301 -0.368115 0.0547682
0.223766 -0.368569 0.0552905
0.228041 -0.368447 0.0559303
0.232123 -0.367974 0.0557047
0.236692 -0.368097 0.0574126
0.24073 -0.367736 0.0598451
0.244871 -0.367679 0.0591006
0.24976 -0.367924 0.0568379
0.254632 -0.368865 0.0534463
0.259302 -0.369302 0.0518724
0.264012 -0.368946 0.0499605
0.268668 -0.370248 0.0454341
0.274316 -0.371652 0.037791
0.281569 -0.375345 0.0189769
-0.127183 -0.405129 -0.164385
-0.121511 -0.403379 -0.152644
-0.115847 -0.401464 -0.145145
-0.11085 -0.400544 -0.142651
-0.106461 -0.401373 -0.143471
-0.101667 -0.401176 -0.142893
-0.0966851 -0.400263 -0.138864
-0.0915809 -0.399621 -0.135661
-0.0870377 -0.399957 -0.135962
-0.0818341 -0.399578 -0.134194
-0.076629 -0.399158 -0.131744
-0.0724475 -0.39856 -0.131433
-0.067436 -0.399312 -0.133454
-0.062787 -0.399346 -0.134108
-0.057469 -0.399597 -0.136003
-0.0529835 -0.40032 -0.138554
-0.0483525 -0.401294 -0.14213
-0.0437821 -0.401858 -0.145752
-0.0386772 -0.402766 -0.150441
-0.0339984 -0.403502 -0.157753
-0.0291675 -0.405375 -0.165895
-0.0249319 -0.410566 -0.193206
0.169794 -0.370806 0.018405
0.173353 -0.368828 0.0302471
0.177037 -0.367553 0.0352128
0.181535 -0.366823 0.0401772
0.185149 -0.36575 0.0449933
0.189316 -0.365498 0.0493535
0.193325 -0.364468 0.0521868
0.197816 -0.364288 0.0531209
0.201929 -0.364041 0.056064
0.205893 -0.3634 0.0585274
0.209835 -0.363222 0.0586506
0.214187 -0.364241 0.0567992
0.219264 -0.363844 0.0565047
0.22331 -0.363181 0.0592976
0.227197 -0.363161 0.0604407
0.231717 -0.363213 0.0597963
0.235922 -0.363223 0.0596585
0.241118 -0.363356 0.0589432
0.245141 -0.363225 0.0587672
0.250055 -0.363928 0.0563122
0.254272 -0.364257 0.0542755
0.258781 -0.364553 0.0540423
0.263583 -0.364829 0.053003
0.26844 -0.365632 0.0484048
0.275491 -0.368902 0.0293114
0.280845 -0.370455 0.0229689
0.287354 -0.373588 0.00589013
-0.131504 -0.39977 -0.162511
-0.125383 -0.397262 -0.148751
-0.121195 -0.396682 -0.144953
-0.115617 -0.396328 -0.14191
-0.111453 -0.396219 -0.140795
-0.106001 -0.396288 -0.14152
-0.101088 -0.395739 -0.138529
-0.0959024 -0.394904 -0.134553
-0.0913234 -0.394386 -0.13242
-0.0863637 -0.39452 -0.131363
-0.0813485 -0.393432 -0.127019
-0.0766497 -0.393314 -0.125829
-0.071871 -0.393254 -0.126398
-0.0670235 -0.393247 -0.128796
-0.0625118 -0.394312 -0.131428
-0.0573602 -0.3942 -0.132817
-0.053312 -0.395026 -0.135537
-0.048292 -0.395501 -0.138692
-0.0433464 -0.396622 -0.143799
-0.0382253 -0.397152 -0.147207
-0.0339602 -0.398101 -0.154074
-0.029488 -0.39961 -0.162193
-0.0244214 -0.402087 -0.174886
0.165701 -0.367704 0.0134497
0.169325 -0.365693 0.0227104
0.172866 -0.363941 0.0336812
0.177043 -0.362987 0.0388012
0.180826 -0.361403 0.0447901
0.184778 -0.360689 0.0490358
0.188755 -0.360243 0.0514241
0.193189 -0.36003 0.0551224
0.197539 -0.360099 0.0552697
0.201431 -0.359195 0.0567862
0.205873 -0.359246 0.0585073
0.209864 -0.359171 0.0585315
0.214711 -0.359197 0.0571951
0.218564 -0.358831 0.0599891
0.222922 -0.358379 0.0623579
0.22718 -0.357878 0.0643293
0.230755 -0.357981 0.0643818
0.236541 -0.358029 0.0618675
0.240333 -0.359109 0.0606072
0.244737 -0.358366 0.0608575
0.249205 -0.358697 0.0593624
0.253985 -0.359374 0.0558711
0.258567 -0.359411 0.0552442
0.26305 -0.359435 0.0549469
0.267959 -0.360194 0.0515786
0.275883 -0.364227 0.0293654
