ply
format ascii 1.0
element vertex 1668
property float x
property float y
property float z
end_header
0.233921 -0.43521 0.180913
0.240456 -0.438592 0.163451
0.143536 -0.430771 0.180733
0.146844 -0.427922 0.192769
0.150161 -0.426879 0.197754
0.154138 -0.425481 0.202615
0.157994 -0.425055 0.204546
0.161776 -0.424621 0.206709
0.165835 -0.423782 0.210673
0.169586 -0.423457 0.211401
0.173393 -0.423119 0.2135
0.177094 -0.422855 0.215548
0.181071 -0.422063 0.217017
0.185038 -0.422181 0.217118
0.188894 -0.422133 0.217565
0.192809 -0.421865 0.218468
0.196737 -0.421828 0.218879
0.200476 -0.421708 0.218933
0.205298 -0.422448 0.21551
0.210211 -0.42384 0.209668
0.214371 -0.424978 0.205959
0.219015 -0.426195 0.20057
0.223435 -0.4277 0.194809
0.228574 -0.429138 0.186411
0.234361 -0.431662 0.176773
0.241313 -0.436337 0.156792
0.147195 -0.42587 0.184102
0.150843 -0.423847 0.191628
0.154587 -0.422961 0.197228
0.158391 -0.422172 0.200275
0.162285 -0.421736 0.201226
0.166206 -0.421395 0.203907
0.169799 -0.420822 0.20548
0.173919 -0.420339 0.207923
0.177631 -0.419688 0.209427
0.181409 -0.418943 0.212187
0.185105 -0.41886 0.212156
0.189844 -0.41882 0.213121
0.193247 -0.418687 0.213181
0.196858 -0.418857 0.215157
0.201678 -0.418958 0.212824
0.20619 -0.420178 0.209893
0.210668 -0.421203 0.205158
0.21491 -0.422037 0.201609
0.219511 -0.423178 0.196269
0.224761 -0.424859 0.188947
0.230248 -0.427082 0.178313
0.235237 -0.42862 0.171106
0.24236 -0.434069 0.150325
0.149065 -0.42728 0.161361
0.151513 -0.421413 0.185825
0.155028 -0.420737 0.18895
0.158988 -0.419971 0.193584
0.162922 -0.419151 0.195992
0.166921 -0.418553 0.199166
0.170454 -0.417682 0.200918
0.174098 -0.417741 0.202482
0.178338 -0.41714 0.206338
0.182145 -0.416729 0.207367
0.185986 -0.416158 0.208242
0.189836 -0.416268 0.20787
0.193871 -0.416091 0.207624
0.197877 -0.416156 0.208535
0.202027 -0.41629 0.208299
0.206441 -0.416805 0.204619
0.210399 -0.41776 0.20216
0.215424 -0.418146 0.19904
0.219903 -0.419931 0.193634
0.225218 -0.421556 0.186277
0.230123 -0.423721 0.176136
0.236964 -0.428495 0.157534
0.14962 -0.424525 0.155085
0.15228 -0.420094 0.174641
0.155387 -0.417759 0.18337
0.159466 -0.4164 0.189589
0.162834 -0.416035 0.192962
0.166876 -0.4147 0.194354
0.17089 -0.41463 0.196755
0.174699 -0.414041 0.199016
0.178509 -0.413757 0.200945
0.182128 -0.413021 0.204649
0.186491 -0.412724 0.204595
0.190044 -0.412669 0.205245
0.194407 -0.412933 0.20505
0.198255 -0.412837 0.206921
0.202227 -0.412508 0.205424
0.206906 -0.412986 0.203672
0.210889 -0.414121 0.201379
0.215207 -0.414584 0.198047
0.219996 -0.415752 0.193211
0.225342 -0.417133 0.185366
0.23067 -0.420004 0.174389
0.239561 -0.429023 0.134778
-0.0829094 -0.492015 -0.160753
-0.0197604 -0.491089 -0.156794
-0.014815 -0.490239 -0.152286
-0.00963994 -0.489254 -0.146344
-0.00498295 -0.487753 -0.142163
2.52789e-05 -0.488412 -0.141968
0.0049586 -0.488382 -0.142674
0.0100627 -0.487683 -0.142601
0.0144715 -0.488149 -0.143627
0.0191418 -0.488958 -0.145211
0.0241848 -0.489174 -0.146072
0.0290452 -0.488867 -0.146705
0.0335863 -0.488925 -0.148165
0.0389003 -0.489517 -0.149171
0.0437662 -0.489773 -0.15021
0.14942 -0.420031 0.156658
0.152473 -0.415838 0.173414
0.155769 -0.413801 0.182702
0.159001 -0.412902 0.188031
0.163379 -0.412104 0.1915
0.166901 -0.411703 0.19307
0.170813 -0.411148 0.19594
0.17476 -0.410513 0.197684
0.178663 -0.410263 0.199946
0.182231 -0.40957 0.201483
0.18628 -0.408834 0.203402
0.190515 -0.409283 0.203532
0.194505 -0.408684 0.204937
0.198456 -0.40869 0.205243
0.202624 -0.409388 0.204873
0.206599 -0.409404 0.202312
0.21098 -0.410076 0.200023
0.215433 -0.41042 0.197425
0.220314 -0.411557 0.193011
0.224665 -0.413296 0.186485
0.230398 -0.415637 0.174634
-0.0876032 -0.486941 -0.15941
-0.0826214 -0.486877 -0.158416
-0.0780381 -0.486827 -0.157259
-0.0734056 -0.486402 -0.156212
-0.0678079 -0.486743 -0.157738
-0.0634149 -0.486481 -0.157452
-0.058518 -0.48681 -0.157686
-0.0530965 -0.486571 -0.15652
-0.0488421 -0.485631 -0.15458
-0.0436708 -0.485798 -0.153734
-0.0389222 -0.485657 -0.153686
-0.0337899 -0.48483 -0.15056
-0.0289495 -0.485059 -0.15205
-0.0245704 -0.484782 -0.151159
-0.0196375 -0.48484 -0.149837
-0.0145042 -0.484248 -0.146759
-0.00931827 -0.483213 -0.142568
-0.00493115 -0.483208 -0.140738
-0.000202421 -0.482974 -0.141278
0.00472142 -0.483061 -0.141449
0.00951023 -0.483125 -0.142601
0.0146333 -0.483275 -0.142547
0.0192643 -0.483064 -0.142793
0.0241151 -0.483502 -0.143815
0.0293279 -0.48381 -0.144827
0.034367 -0.483846 -0.146222
0.0389392 -0.484347 -0.146219
0.0433695 -0.484438 -0.147017
0.0483626 -0.484583 -0.147547
0.0537273 -0.484652 -0.147948
0.057779 -0.484306 -0.147951
0.0628811 -0.483937 -0.147024
0.0677316 -0.483797 -0.147146
0.0724858 -0.484553 -0.146881
0.076888 -0.484196 -0.147304
0.0829052 -0.484424 -0.147773
0.0872851 -0.484284 -0.147864
0.0921856 -0.48387 -0.14709
0.0966142 -0.484233 -0.147257
0.101723 -0.483787 -0.146164
0.106096 -0.484453 -0.146228
0.111251 -0.483886 -0.145971
0.116599 -0.483634 -0.145047
0.120975 -0.484282 -0.146968
0.126026 -0.484496 -0.14865
0.131226 -0.485147 -0.150895
0.135959 -0.485455 -0.153345
0.149054 -0.413941 0.16552
0.152279 -0.411361 0.176246
0.155982 -0.409999 0.183137
0.159564 -0.408799 0.188223
0.163166 -0.40771 0.192198
0.166775 -0.407577 0.193573
0.170805 -0.406846 0.196415
0.17446 -0.406131 0.197855
0.178855 -0.406069 0.199057
0.182749 -0.405678 0.200819
0.185991 -0.405451 0.201928
0.190636 -0.405385 0.202638
0.194294 -0.405026 0.203509
0.198615 -0.404979 0.203437
0.202994 -0.404977 0.202924
0.206874 -0.405665 0.20186
0.211646 -0.40638 0.198257
0.215522 -0.406851 0.195696
0.220419 -0.407792 0.190765
0.225094 -0.40984 0.184743
0.230977 -0.412113 0.173454
-0.0880387 -0.482045 -0.160122
-0.0828001 -0.481933 -0.158985
-0.0779665 -0.48186 -0.157832
-0.072771 -0.481201 -0.155938
-0.0678772 -0.481046 -0.155446
-0.0631409 -0.480842 -0.153817
-0.0581141 -0.480222 -0.15256
-0.0535174 -0.48091 -0.1524
-0.048086 -0.480161 -0.149965
-0.0435648 -0.479743 -0.149933
-0.0387736 -0.480081 -0.149701
-0.0338289 -0.479969 -0.15009
-0.0291059 -0.479904 -0.149806
-0.0240638 -0.479947 -0.149845
-0.0191915 -0.4798 -0.148829
-0.0150276 -0.479204 -0.144987
-0.00974242 -0.477954 -0.141594
-0.00469463 -0.47837 -0.140759
-0.000226958 -0.477824 -0.141578
0.0053669 -0.478307 -0.141606
0.00976078 -0.47809 -0.141926
0.0147189 -0.47824 -0.142214
0.0192194 -0.478665 -0.142573
0.0243135 -0.478576 -0.143507
0.0293645 -0.478733 -0.143656
0.0338571 -0.478458 -0.14452
0.0386121 -0.479385 -0.146425
0.0433318 -0.479352 -0.147127
0.0487561 -0.479438 -0.147106
0.0531425 -0.47996 -0.148309
0.0582048 -0.479737 -0.147923
0.0632739 -0.479239 -0.147706
0.0683214 -0.479861 -0.146956
0.0726432 -0.47954 -0.147313
0.0771622 -0.47948 -0.146513
0.0821965 -0.479197 -0.146221
0.0869978 -0.479169 -0.146412
0.0920274 -0.479306 -0.146182
0.0964761 -0.478879 -0.144245
0.101512 -0.478669 -0.144285
0.10601 -0.479049 -0.1445
0.111326 -0.478953 -0.143512
0.115887 -0.479137 -0.144269
0.12093 -0.4788 -0.144756
0.125795 -0.479022 -0.144593
0.130724 -0.479338 -0.146369
0.135947 -0.479065 -0.147299
0.140267 -0.479763 -0.1496
0.145765 -0.480696 -0.152121
0.150971 -0.481264 -0.154827
0.155565 -0.482019 -0.159522
0.146327 -0.413277 0.14863
0.148832 -0.408511 0.169986
0.151738 -0.406211 0.179717
0.15532 -0.405315 0.186678
0.159621 -0.404228 0.190279
0.163106 -0.402934 0.194479
0.166987 -0.402913 0.196079
0.170378 -0.402738 0.197215
0.174787 -0.402046 0.199793
0.178635 -0.402167 0.200414
0.182359 -0.401231 0.202754
0.186474 -0.401512 0.202297
0.190181 -0.401097 0.202703
0.194442 -0.401012 0.20208
0.198996 -0.401549 0.201737
0.202502 -0.401503 0.202106
0.207105 -0.401721 0.200466
0.211493 -0.402417 0.197216
0.216009 -0.403206 0.194372
0.220187 -0.403949 0.190085
0.225468 -0.405453 0.183043
0.230795 -0.407962 0.17318
-0.0901916 -0.489925 -0.218441
-0.0830271 -0.477955 -0.161203
-0.0778294 -0.477263 -0.15866
-0.0728275 -0.476821 -0.157149
-0.0678076 -0.476797 -0.155739
-0.0628968 -0.475941 -0.154021
-0.0575338 -0.476411 -0.153457
-0.0538072 -0.475483 -0.15146
-0.0487025 -0.475531 -0.150637
-0.0439097 -0.474861 -0.150333
-0.0388353 -0.474882 -0.149816
-0.0339236 -0.475213 -0.150195
-0.0288518 -0.475032 -0.149686
-0.0245214 -0.474801 -0.148933
-0.0195165 -0.475151 -0.148426
-0.0145392 -0.473968 -0.144381
-0.00973913 -0.472768 -0.140927
-0.00490718 -0.473796 -0.141193
0.000316595 -0.472892 -0.140038
0.00520506 -0.473574 -0.141402
0.00975435 -0.473295 -0.140849
0.0146506 -0.473096 -0.140822
0.0193032 -0.473465 -0.14257
0.0243047 -0.473861 -0.143878
0.0288565 -0.473785 -0.143979
0.0339213 -0.473982 -0.144586
0.0390707 -0.474569 -0.146355
0.0438562 -0.474584 -0.145784
0.0488847 -0.474454 -0.147844
0.0532188 -0.474721 -0.147833
0.058237 -0.474512 -0.147459
0.0625407 -0.474479 -0.147725
0.0673564 -0.474849 -0.148127
0.0724084 -0.474383 -0.146615
0.0774413 -0.474311 -0.145974
0.0820409 -0.47399 -0.144774
0.0871039 -0.474418 -0.14584
0.0909555 -0.474035 -0.145224
0.0969329 -0.473569 -0.143098
0.101684 -0.473763 -0.143545
0.106356 -0.473838 -0.143422
0.111492 -0.474164 -0.143514
0.115864 -0.473501 -0.143807
0.120467 -0.473797 -0.143931
0.125931 -0.474166 -0.144609
0.130761 -0.47401 -0.144665
0.136109 -0.474494 -0.146881
0.14052 -0.474823 -0.14881
0.145499 -0.475456 -0.150043
0.15038 -0.4758 -0.153177
0.155523 -0.476565 -0.156399
0.160865 -0.477078 -0.160917
0.142141 -0.408615 0.15075
0.144475 -0.405441 0.165789
0.148043 -0.401968 0.178528
0.151353 -0.40011 0.188049
0.154766 -0.399769 0.192309
0.158773 -0.399196 0.194734
0.162934 -0.398452 0.196758
0.166465 -0.397787 0.200039
0.170252 -0.397145 0.202499
0.174257 -0.397426 0.201841
0.177778 -0.396768 0.204394
0.182172 -0.396424 0.205589
0.186395 -0.396645 0.204831
0.190508 -0.397111 0.203023
0.194377 -0.397027 0.203587
0.198351 -0.397058 0.203655
0.202661 -0.397489 0.201645
0.207277 -0.398188 0.198201
0.211734 -0.398876 0.195701
0.216114 -0.399438 0.193057
0.220519 -0.400646 0.188473
0.225192 -0.401794 0.182525
0.230943 -0.404056 0.171507
-0.0849737 -0.48443 -0.213911
-0.0777673 -0.473085 -0.163095
-0.0730525 -0.472338 -0.158841
-0.068016 -0.471354 -0.156928
-0.0630886 -0.471867 -0.15524
-0.0581131 -0.471152 -0.153595
-0.0530471 -0.471243 -0.154348
-0.0488845 -0.470855 -0.152411
-0.0434682 -0.470563 -0.151953
-0.0389213 -0.470037 -0.150657
-0.0339263 -0.470449 -0.150414
-0.028983 -0.470237 -0.150024
-0.0244566 -0.470469 -0.149794
-0.0192762 -0.469982 -0.147702
-0.0147361 -0.469012 -0.14386
-0.00969481 -0.468762 -0.141734
-0.0052262 -0.468143 -0.140339
-0.000474052 -0.468282 -0.139124
0.00487059 -0.468273 -0.14003
0.00914004 -0.46802 -0.141264
0.014345 -0.46851 -0.141904
0.0191901 -0.468888 -0.142833
0.0242983 -0.468965 -0.144014
0.029257 -0.468854 -0.144126
0.0338154 -0.469015 -0.144907
0.0387915 -0.469245 -0.145139
0.0432321 -0.469887 -0.146444
0.0480543 -0.469796 -0.147509
0.0530475 -0.469825 -0.147794
0.0582503 -0.469585 -0.147107
0.0626736 -0.470197 -0.148603
0.0680196 -0.469705 -0.146882
0.0727726 -0.469832 -0.146767
0.07742 -0.469597 -0.145257
0.0818238 -0.469443 -0.14499
0.0865395 -0.469543 -0.145787
0.0920012 -0.469605 -0.145154
0.0964918 -0.468707 -0.142028
0.101389 -0.469141 -0.143672
0.106439 -0.46895 -0.143059
0.111398 -0.468698 -0.143469
0.115944 -0.468959 -0.143406
0.12097 -0.468885 -0.143619
0.125822 -0.469067 -0.143415
0.130186 -0.469242 -0.143556
0.135538 -0.469603 -0.146825
0.140287 -0.469714 -0.147133
0.145596 -0.469931 -0.149659
0.150342 -0.470823 -0.152536
0.155894 -0.47191 -0.155514
0.160832 -0.47173 -0.15959
0.140574 -0.400921 0.165721
0.144215 -0.399678 0.173617
0.147678 -0.397724 0.182365
0.150823 -0.394717 0.195905
0.154398 -0.394602 0.196439
0.15849 -0.394363 0.197186
0.162515 -0.394266 0.198126
0.166262 -0.393341 0.20156
0.170143 -0.393326 0.203146
0.174016 -0.392628 0.205319
0.177536 -0.3923 0.206967
0.181848 -0.392019 0.207474
0.185717 -0.392395 0.206666
0.19022 -0.392432 0.206357
0.194249 -0.392709 0.205152
0.19832 -0.392765 0.205514
0.202583 -0.392901 0.203149
0.20714 -0.394299 0.197911
0.211518 -0.394553 0.195292
0.216043 -0.395459 0.192253
0.220442 -0.396484 0.188289
0.225639 -0.398162 0.180107
0.231076 -0.400395 0.168928
-0.0848725 -0.480308 -0.219001
-0.0799254 -0.479207 -0.212457
-0.0751905 -0.477889 -0.208555
-0.0681297 -0.468316 -0.165103
-0.062879 -0.467326 -0.157646
-0.0586782 -0.466503 -0.155983
-0.0531303 -0.466479 -0.155023
-0.0488154 -0.466478 -0.153144
-0.0433825 -0.466359 -0.153864
-0.0388471 -0.466619 -0.152131
-0.0347006 -0.466597 -0.151835
-0.0286928 -0.465919 -0.151614
-0.0243936 -0.465626 -0.150494
-0.0193365 -0.46525 -0.14957
-0.0146795 -0.464307 -0.144861
-0.00946464 -0.464079 -0.142572
-0.00482073 -0.463408 -0.140207
7.03886e-05 -0.463181 -0.139358
0.00464926 -0.46353 -0.140903
0.00959576 -0.463891 -0.142023
0.014506 -0.463608 -0.142722
0.019611 -0.464534 -0.143917
0.0238364 -0.464174 -0.143366
0.0291683 -0.46492 -0.145651
0.0337518 -0.464269 -0.14509
0.038804 -0.464342 -0.144669
0.0434773 -0.46495 -0.147158
0.0481772 -0.465115 -0.14808
0.0533013 -0.464819 -0.148124
0.0580358 -0.46454 -0.14837
0.0628606 -0.465034 -0.147898
0.0680391 -0.465052 -0.147353
0.0731466 -0.464788 -0.147092
0.0776323 -0.464868 -0.147222
0.0820791 -0.464414 -0.144544
0.0873413 -0.463964 -0.143524
0.0917845 -0.463825 -0.143158
0.0971501 -0.46367 -0.142839
0.101577 -0.463569 -0.142127
0.106582 -0.464192 -0.142616
0.111025 -0.464282 -0.143081
0.115957 -0.463743 -0.143595
0.120857 -0.463896 -0.143261
0.125683 -0.464144 -0.143735
0.130643 -0.46364 -0.14429
0.135387 -0.464657 -0.145644
0.140399 -0.464842 -0.146952
0.145619 -0.465375 -0.149845
0.150587 -0.465898 -0.152579
0.155809 -0.466276 -0.155361
0.137755 -0.399741 0.153693
0.140442 -0.396382 0.16841
0.143971 -0.394939 0.177361
0.146962 -0.391148 0.192816
0.15012 -0.390743 0.195997
0.154562 -0.390328 0.197563
0.158463 -0.389385 0.198425
0.162476 -0.389831 0.200396
0.166154 -0.389031 0.203462
0.169775 -0.388838 0.203927
0.174226 -0.38859 0.205929
0.177972 -0.388038 0.207376
0.181684 -0.388098 0.208123
0.185874 -0.38783 0.206666
0.189658 -0.388302 0.207307
0.193974 -0.3882 0.207605
0.198194 -0.388601 0.206475
0.20272 -0.388782 0.205415
0.206954 -0.389525 0.200248
0.211437 -0.390348 0.197324
0.215762 -0.391045 0.195327
0.220386 -0.391935 0.190827
0.225148 -0.393549 0.182394
0.231925 -0.397302 0.165216
-0.0801906 -0.475144 -0.217288
-0.0751739 -0.47383 -0.210629
-0.0694973 -0.473075 -0.207349
-0.0653802 -0.472259 -0.204404
-0.0598904 -0.471504 -0.200802
-0.0536094 -0.462613 -0.159182
-0.0488899 -0.462114 -0.157426
-0.0434198 -0.461624 -0.155358
-0.0389706 -0.461486 -0.153706
-0.0341035 -0.460949 -0.154936
-0.029152 -0.461565 -0.15297
-0.024245 -0.461255 -0.1528
-0.0198438 -0.460757 -0.150643
-0.0149171 -0.459914 -0.146602
-0.00940679 -0.459353 -0.143241
-0.00487407 -0.458446 -0.141334
-9.23182e-05 -0.458337 -0.139285
0.00480404 -0.459031 -0.141979
0.00959315 -0.459068 -0.143379
0.0143495 -0.459274 -0.143877
0.0192342 -0.459606 -0.145074
0.0241541 -0.459822 -0.14612
0.0288754 -0.459933 -0.147037
0.0340066 -0.459695 -0.146634
0.0387731 -0.460044 -0.146372
0.0433398 -0.45982 -0.147343
0.0483494 -0.460777 -0.148835
0.053147 -0.460717 -0.148917
0.0583059 -0.459998 -0.149432
0.063313 -0.459933 -0.148076
0.0680936 -0.460494 -0.147409
0.0728827 -0.460407 -0.147032
0.0775126 -0.459716 -0.145913
0.0825451 -0.459657 -0.144689
0.0872672 -0.460118 -0.145052
0.0915695 -0.459367 -0.143285
0.0964474 -0.459699 -0.143153
0.101501 -0.459177 -0.143259
0.106222 -0.459298 -0.142835
0.110911 -0.459008 -0.143367
0.115938 -0.459182 -0.143483
0.120529 -0.459485 -0.144766
0.12599 -0.459349 -0.144562
0.130816 -0.4595 -0.145736
0.135357 -0.4601 -0.148
0.140411 -0.460357 -0.148612
0.14548 -0.461223 -0.150266
0.150272 -0.461039 -0.153246
0.155511 -0.461637 -0.155867
0.136708 -0.392705 0.165006
0.140042 -0.391678 0.172347
0.143797 -0.389955 0.179481
0.146559 -0.387204 0.192863
0.150663 -0.386546 0.195485
0.15438 -0.386242 0.197272
0.158084 -0.385984 0.198888
0.162524 -0.385506 0.202185
0.166103 -0.384737 0.204285
0.169755 -0.384415 0.206212
0.17373 -0.38393 0.207395
0.177834 -0.384046 0.207385
0.182063 -0.384165 0.207779
0.186115 -0.384156 0.207631
0.190272 -0.38421 0.205844
0.19405 -0.383847 0.207299
0.197941 -0.384136 0.207707
0.20256 -0.384086 0.205701
0.206905 -0.385191 0.202437
0.211206 -0.386131 0.198287
0.215752 -0.386765 0.196302
0.219738 -0.386821 0.193728
0.22464 -0.388277 0.188294
0.229981 -0.390629 0.176557
-0.0752405 -0.470104 -0.217346
-0.0702873 -0.469164 -0.212198
-0.0651869 -0.468381 -0.20796
-0.0599314 -0.467495 -0.203284
-0.0546222 -0.466282 -0.200397
-0.0501922 -0.466149 -0.197729
-0.0439926 -0.458365 -0.163776
-0.038856 -0.457732 -0.159712
-0.0336085 -0.457352 -0.158089
-0.0293459 -0.45695 -0.157029
-0.024557 -0.456975 -0.155568
-0.0189257 -0.456308 -0.153473
-0.0148397 -0.455518 -0.148401
-0.00945551 -0.455038 -0.144789
-0.00442065 -0.453927 -0.143038
-0.000122346 -0.454249 -0.142621
0.00488 -0.45475 -0.144054
0.00935847 -0.455344 -0.145694
0.0145103 -0.454622 -0.146191
0.0189462 -0.455076 -0.147041
0.024542 -0.455304 -0.147288
0.0292652 -0.455757 -0.14995
0.0338851 -0.455712 -0.149132
0.0385198 -0.455611 -0.149066
0.0436296 -0.455661 -0.148822
0.0484966 -0.455626 -0.148989
0.0529179 -0.45562 -0.149247
0.0586812 -0.456215 -0.149597
0.0631681 -0.455231 -0.148281
0.067798 -0.455445 -0.147483
0.0723072 -0.45541 -0.146215
0.0771349 -0.45462 -0.14596
0.0821643 -0.454584 -0.145508
0.0871742 -0.455241 -0.145141
0.0922318 -0.454859 -0.145099
0.0966282 -0.454975 -0.145107
0.101684 -0.454417 -0.143645
0.106474 -0.454275 -0.143239
0.111023 -0.454692 -0.144612
0.115876 -0.45442 -0.143929
0.120822 -0.454685 -0.144638
0.126227 -0.455138 -0.145756
0.130882 -0.454887 -0.146962
0.135576 -0.455112 -0.148074
0.140659 -0.456143 -0.150546
0.145381 -0.45635 -0.152155
0.150876 -0.457305 -0.15513
0.133513 -0.392261 0.150305
0.135945 -0.387015 0.174253
0.139929 -0.38601 0.178469
0.143406 -0.384925 0.18363
0.146871 -0.383655 0.19151
0.150537 -0.382575 0.194629
0.153874 -0.381083 0.200707
0.15825 -0.381053 0.202074
0.162259 -0.381137 0.204011
0.166524 -0.380404 0.205414
0.169667 -0.379839 0.208718
0.1734 -0.379657 0.208725
0.177557 -0.379727 0.207891
0.181664 -0.379955 0.20783
0.185831 -0.379915 0.207682
0.189939 -0.380097 0.2084
0.194273 -0.379802 0.206812
0.197832 -0.380364 0.206784
0.202678 -0.380743 0.203315
0.206746 -0.38108 0.201722
0.21134 -0.382264 0.1983
0.215803 -0.382362 0.196466
0.219713 -0.382663 0.194541
0.224321 -0.383532 0.190552
0.229177 -0.384744 0.184826
-0.0651524 -0.464387 -0.214083
-0.0602169 -0.463018 -0.20842
-0.0545529 -0.461872 -0.203276
-0.04963 -0.461729 -0.200445
-0.0445555 -0.46109 -0.199562
-0.0398188 -0.460303 -0.196995
-0.0344757 -0.4607 -0.195125
-0.0295847 -0.460278 -0.193304
-0.0245999 -0.459214 -0.191178
-0.0195706 -0.453069 -0.160535
-0.0145691 -0.451477 -0.151136
-0.00983843 -0.450552 -0.147448
-0.00495906 -0.449994 -0.144864
-0.000175158 -0.449224 -0.145009
0.00518208 -0.450938 -0.14722
0.00955054 -0.450686 -0.148566
0.0147193 -0.450541 -0.148799
0.01961 -0.450708 -0.148818
0.024079 -0.451116 -0.150218
0.0291575 -0.45121 -0.150739
0.0342041 -0.450808 -0.150393
0.038813 -0.450997 -0.150128
0.043314 -0.451118 -0.150333
0.0486762 -0.451232 -0.150371
0.0533633 -0.451281 -0.150005
0.057769 -0.450972 -0.149085
0.063051 -0.450411 -0.148033
0.0676792 -0.450372 -0.147247
0.0726753 -0.449844 -0.146682
0.0776036 -0.449918 -0.146303
0.0823384 -0.450189 -0.145411
0.0873785 -0.449584 -0.145693
0.0918642 -0.450068 -0.145382
0.0966972 -0.450194 -0.145163
0.101582 -0.449659 -0.14398
0.106561 -0.450188 -0.144886
0.111491 -0.449677 -0.145255
0.116469 -0.449698 -0.145789
0.120802 -0.449721 -0.145671
0.125689 -0.450273 -0.146502
0.130281 -0.450676 -0.147454
0.135287 -0.450997 -0.148492
0.141079 -0.450884 -0.15163
0.145772 -0.452022 -0.153566
0.150656 -0.452783 -0.15671
0.131877 -0.383794 0.169515
0.135771 -0.382073 0.178182
0.13968 -0.381347 0.181744
0.143158 -0.380412 0.186237
0.14712 -0.37965 0.190824
0.150394 -0.377941 0.198887
0.153588 -0.377298 0.204051
0.157813 -0.376576 0.205492
0.161727 -0.376168 0.205991
0.165882 -0.375953 0.206826
0.16952 -0.375937 0.209159
0.173533 -0.37563 0.209009
0.177428 -0.375397 0.209498
0.181847 -0.37589 0.208947
0.185818 -0.375106 0.211023
0.190241 -0.376245 0.20809
0.194351 -0.376554 0.205291
0.198153 -0.376414 0.204822
0.202362 -0.376795 0.203622
0.206631 -0.377081 0.200524
0.211157 -0.377334 0.199633
0.21556 -0.378205 0.197179
0.219829 -0.378566 0.196029
0.224167 -0.379463 0.191627
0.228965 -0.38025 0.187768
0.234414 -0.382676 0.176311
-0.0552264 -0.458516 -0.211219
-0.0498256 -0.457911 -0.205238
-0.044872 -0.456882 -0.202641
-0.0396821 -0.456346 -0.199144
-0.0345778 -0.456084 -0.197437
-0.0296465 -0.455793 -0.195902
-0.0245547 -0.455326 -0.193867
-0.0198755 -0.454888 -0.189404
-0.0144229 -0.447209 -0.156225
-0.00938655 -0.446149 -0.149431
-0.00484872 -0.445133 -0.14718
-0.000446602 -0.445407 -0.146916
0.00493746 -0.446295 -0.1506
0.00933432 -0.446627 -0.151508
0.0144784 -0.446368 -0.151106
0.019759 -0.446426 -0.151714
0.024196 -0.446703 -0.152557
0.0297075 -0.446593 -0.152695
0.0340852 -0.446534 -0.151676
0.0391424 -0.446009 -0.151313
0.0436019 -0.445907 -0.15079
0.0487545 -0.44639 -0.151668
0.0535853 -0.44597 -0.150037
0.0581809 -0.445696 -0.151244
0.0629934 -0.446406 -0.148906
0.0676451 -0.446094 -0.148057
0.0728034 -0.445683 -0.146543
0.0772762 -0.44517 -0.146333
0.0821121 -0.445343 -0.14625
0.0877221 -0.445782 -0.145214
0.0921935 -0.445048 -0.145808
0.0967932 -0.445562 -0.145131
0.101293 -0.444829 -0.145164
0.106393 -0.444938 -0.145058
0.111028 -0.44492 -0.145088
0.116593 -0.444959 -0.146167
0.121052 -0.445467 -0.146517
0.125771 -0.44599 -0.147182
0.130258 -0.445767 -0.148593
0.136184 -0.445925 -0.150928
0.140127 -0.446583 -0.152207
0.145475 -0.447006 -0.154377
0.128051 -0.380859 0.163325
0.131902 -0.378185 0.174741
0.135678 -0.377493 0.179423
0.13924 -0.376575 0.184925
0.142957 -0.375722 0.189805
0.146602 -0.375183 0.193251
0.149801 -0.372689 0.203371
0.153612 -0.371779 0.206827
0.157517 -0.371712 0.207133
0.161883 -0.371853 0.207127
0.165417 -0.371676 0.207759
0.169828 -0.371146 0.209927
0.173444 -0.37146 0.20952
0.177473 -0.371541 0.210108
0.18123 -0.371134 0.210833
0.185406 -0.370796 0.211763
0.189627 -0.371679 0.209555
0.194036 -0.372166 0.206577
0.19827 -0.372744 0.202537
0.202687 -0.372579 0.202785
0.206718 -0.373538 0.200722
0.211358 -0.373739 0.198199
0.215148 -0.37406 0.198295
0.219678 -0.374375 0.195532
0.224235 -0.374895 0.192363
0.228576 -0.37585 0.188645
0.233892 -0.377934 0.181147
-0.0449505 -0.453237 -0.208409
-0.0396105 -0.452257 -0.203868
-0.0347121 -0.451863 -0.202436
-0.029814 -0.451499 -0.200287
-0.0248869 -0.45133 -0.198516
-0.0199202 -0.450726 -0.195976
-0.015087 -0.44955 -0.190811
-0.00987919 -0.442966 -0.157916
-0.00499305 -0.441486 -0.151575
8.64165e-05 -0.441668 -0.15108
0.00484068 -0.441937 -0.153966
0.00986149 -0.441975 -0.154668
0.0148396 -0.441978 -0.154216
0.0194169 -0.442171 -0.154341
0.0246502 -0.442111 -0.154861
0.0291088 -0.441915 -0.154346
0.0334081 -0.441777 -0.153131
0.0389103 -0.44147 -0.152247
0.0432981 -0.44161 -0.151058
0.0485069 -0.442025 -0.152406
0.0533791 -0.441329 -0.151581
0.0579459 -0.441747 -0.150963
0.0629681 -0.441466 -0.151306
0.0680907 -0.440653 -0.148608
0.072454 -0.440468 -0.147168
0.077459 -0.440397 -0.146252
0.0822076 -0.440666 -0.146297
0.0870811 -0.440287 -0.14586
0.0918486 -0.440479 -0.146764
0.0964004 -0.440488 -0.145307
0.101115 -0.44036 -0.145976
0.10615 -0.440586 -0.145628
0.111024 -0.440316 -0.145783
0.115631 -0.440494 -0.145606
0.121277 -0.440817 -0.147596
0.126248 -0.441106 -0.148849
0.131515 -0.441121 -0.150341
0.135741 -0.441462 -0.15328
0.141144 -0.442413 -0.154506
0.124776 -0.378741 0.154436
0.12795 -0.375797 0.170046
0.131889 -0.374505 0.17651
0.135256 -0.373846 0.18037
0.139058 -0.372103 0.187812
0.142462 -0.370816 0.192746
0.146421 -0.370095 0.198131
0.149406 -0.368803 0.204876
0.153603 -0.367987 0.207263
0.15768 -0.36777 0.207598
0.161938 -0.367546 0.207888
0.165603 -0.367674 0.209401
0.169435 -0.367081 0.211048
0.173504 -0.367041 0.212045
0.17756 -0.366844 0.211856
0.181335 -0.367401 0.211213
0.185527 -0.36727 0.211743
0.189406 -0.367707 0.209298
0.194815 -0.368114 0.204911
0.198468 -0.368275 0.204216
0.202294 -0.368949 0.204116
0.206569 -0.368612 0.202627
0.21118 -0.368936 0.200588
0.215025 -0.369586 0.199212
0.219647 -0.369927 0.196029
0.223847 -0.370887 0.193465
0.228559 -0.371956 0.188106
0.23364 -0.373093 0.18241
-0.0350707 -0.44841 -0.20832
-0.0303046 -0.447909 -0.205719
-0.0249302 -0.447416 -0.204726
-0.0196611 -0.447624 -0.203315
-0.0152204 -0.446015 -0.197294
-0.00982601 -0.440043 -0.166441
-0.00473677 -0.437783 -0.156106
-0.000193832 -0.437962 -0.156474
0.00491544 -0.437796 -0.156575
0.00960123 -0.4377 -0.156847
0.0148339 -0.437447 -0.154956
0.0195906 -0.437704 -0.156466
0.0245063 -0.437658 -0.156237
0.0288965 -0.437657 -0.156347
0.0341768 -0.437843 -0.156663
0.0385009 -0.437289 -0.15504
0.0439274 -0.437393 -0.155239
0.0485526 -0.43693 -0.153998
0.0529929 -0.436801 -0.152428
0.0578327 -0.436372 -0.150872
0.0628352 -0.43664 -0.151333
0.0677046 -0.436173 -0.149184
0.0726496 -0.436015 -0.147268
0.0771794 -0.435775 -0.1473
0.0822082 -0.435938 -0.14682
0.0866175 -0.435682 -0.146097
0.0925125 -0.435977 -0.146777
0.0971036 -0.435584 -0.146658
0.101454 -0.435604 -0.14625
0.106582 -0.435774 -0.146823
0.111453 -0.435586 -0.147744
0.116431 -0.435795 -0.147544
0.121116 -0.436074 -0.148952
0.125775 -0.436377 -0.149243
0.131076 -0.437223 -0.152781
0.135882 -0.437012 -0.153859
0.141077 -0.437788 -0.156278
0.123877 -0.37169 0.168664
0.127211 -0.370674 0.174719
0.131339 -0.369945 0.17852
0.135095 -0.368925 0.182116
0.139063 -0.367957 0.187792
0.142267 -0.366994 0.192304
0.14625 -0.365539 0.19999
0.149597 -0.364145 0.205354
0.153875 -0.364197 0.207426
0.157427 -0.363554 0.208272
0.161713 -0.363653 0.20908
0.165211 -0.363007 0.212035
0.168999 -0.362556 0.214198
0.173156 -0.362406 0.214538
0.177142 -0.362278 0.214668
0.181835 -0.362734 0.212141
0.185563 -0.36361 0.210644
0.189508 -0.363747 0.208193
0.19434 -0.36443 0.204907
0.198235 -0.364615 0.204602
0.202503 -0.364117 0.205378
0.206519 -0.364514 0.203957
0.210623 -0.36506 0.201676
0.215635 -0.365721 0.198718
0.219533 -0.366379 0.196329
0.22426 -0.366803 0.194495
0.22885 -0.36794 0.188062
0.233806 -0.369166 0.181908
0.240613 -0.373958 0.158872
-0.0100272 -0.440873 -0.197001
-0.00476954 -0.435296 -0.168552
0.000328404 -0.434931 -0.165768
0.00474344 -0.434833 -0.165843
0.00964395 -0.434543 -0.163719
0.0147097 -0.433858 -0.159765
0.0196244 -0.433342 -0.158322
0.0240767 -0.433652 -0.160248
0.0294585 -0.434117 -0.162559
0.0336819 -0.433558 -0.15958
0.0386816 -0.432735 -0.157093
0.0437016 -0.433014 -0.15708
0.0484358 -0.432445 -0.156172
0.053199 -0.43246 -0.15402
0.0583988 -0.431885 -0.152138
0.0634624 -0.431974 -0.152032
0.0677694 -0.431689 -0.149961
0.0727699 -0.431636 -0.149445
0.0775478 -0.431395 -0.149371
0.0818842 -0.431204 -0.149029
0.0870948 -0.43142 -0.148424
0.0919944 -0.431672 -0.1481
0.0972413 -0.431382 -0.148517
0.101838 -0.431257 -0.149322
0.106693 -0.431418 -0.150011
0.11176 -0.431712 -0.149607
0.116621 -0.431773 -0.150697
0.12116 -0.431765 -0.151726
0.126286 -0.432375 -0.15336
0.131499 -0.432644 -0.155125
0.136136 -0.432623 -0.155573
0.120267 -0.368635 0.163713
0.123761 -0.366061 0.174238
0.127105 -0.365198 0.180425
0.131086 -0.365234 0.182069
0.135265 -0.36426 0.185071
0.13848 -0.362213 0.193427
0.142387 -0.361669 0.197844
0.146308 -0.361497 0.200555
0.149858 -0.360441 0.20402
0.153748 -0.359638 0.20692
0.157747 -0.359467 0.208508
0.161014 -0.35904 0.211183
0.165247 -0.358243 0.214534
0.16895 -0.358006 0.216603
0.173009 -0.358219 0.2169
0.177666 -0.358637 0.213271
0.181172 -0.359329 0.211885
0.185582 -0.359264 0.209761
0.189991 -0.359497 0.206592
0.194191 -0.35994 0.205253
0.198352 -0.360324 0.205517
0.20245 -0.360034 0.205078
0.206752 -0.360233 0.203649
0.210901 -0.360492 0.202086
0.21542 -0.361077 0.199974
0.21967 -0.361516 0.198354
0.224416 -0.361944 0.195678
0.228117 -0.363418 0.190645
0.233637 -0.365228 0.181503
0.240346 -0.3685 0.162235
-0.00476001 -0.435554 -0.19757
0.000265431 -0.434887 -0.189373
0.00505969 -0.433388 -0.185457
0.00960038 -0.432089 -0.179181
0.0146612 -0.430671 -0.171457
0.0198656 -0.429975 -0.167651
0.024802 -0.42976 -0.165405
0.0290732 -0.429355 -0.165142
0.0342651 -0.429347 -0.162296
0.0388313 -0.428631 -0.159509
0.0442589 -0.428267 -0.159129
0.0484297 -0.428103 -0.1589
0.0533994 -0.428516 -0.159278
0.0583109 -0.428099 -0.156127
0.0633164 -0.427985 -0.156662
0.0680319 -0.427634 -0.154161
0.0727248 -0.427418 -0.152981
0.0776538 -0.427233 -0.152688
0.0827337 -0.426965 -0.15134
0.0874193 -0.426878 -0.150472
0.0918388 -0.426732 -0.150314
0.097044 -0.426932 -0.150946
0.102112 -0.427254 -0.15178
0.106399 -0.427378 -0.152274
0.112093 -0.427433 -0.153872
0.116384 -0.427308 -0.153856
0.121383 -0.427829 -0.157223
0.126576 -0.428231 -0.158434
0.132003 -0.428435 -0.158704
0.136101 -0.428679 -0.159493
0.119768 -0.363581 0.1676
0.123451 -0.361576 0.178355
0.127465 -0.360748 0.181425
0.130598 -0.360419 0.184067
0.13393 -0.359174 0.190962
0.137928 -0.357685 0.198554
0.141877 -0.357314 0.20083
0.14586 -0.356266 0.203834
0.149547 -0.355849 0.207649
0.153596 -0.35562 0.20861
0.157191 -0.355126 0.210363
0.161613 -0.355147 0.212268
0.165397 -0.354079 0.215709
0.169049 -0.354502 0.215573
0.172476 -0.354147 0.215892
0.17713 -0.354186 0.215273
0.181452 -0.354517 0.212593
0.18569 -0.355249 0.209608
0.190164 -0.356018 0.206998
0.194396 -0.355637 0.206624
0.198317 -0.356021 0.205078
0.202086 -0.356159 0.205303
0.206359 -0.356445 0.204595
0.210805 -0.35654 0.203268
0.215359 -0.357191 0.200932
0.219082 -0.356993 0.199952
0.223208 -0.357926 0.197477
0.228851 -0.359198 0.190601
0.233487 -0.360372 0.183288
0.23922 -0.362924 0.172296
0.00446945 -0.429833 -0.191518
0.0104208 -0.429929 -0.190704
0.0148367 -0.42963 -0.188908
0.0196463 -0.427883 -0.182991
0.0245837 -0.426395 -0.171592
0.0293484 -0.425772 -0.17001
0.0340514 -0.425206 -0.165856
0.0391838 -0.423895 -0.161119
0.0434791 -0.423967 -0.161629
0.0489721 -0.424155 -0.16277
0.0531277 -0.424389 -0.161263
0.0583351 -0.423498 -0.161108
0.0633985 -0.423414 -0.158933
0.0680833 -0.422941 -0.156592
0.0730836 -0.42239 -0.155387
0.0779938 -0.422525 -0.154429
0.0824936 -0.422512 -0.152498
0.0873997 -0.422573 -0.152616
0.0925068 -0.422597 -0.152372
0.0967052 -0.422588 -0.152251
0.102233 -0.422847 -0.152924
0.106879 -0.422789 -0.154048
0.111495 -0.422773 -0.154964
0.11713 -0.423133 -0.156518
0.121547 -0.423783 -0.157688
0.12615 -0.423633 -0.158936
0.132461 -0.423756 -0.161878
0.116303 -0.360947 0.158711
0.119767 -0.358996 0.170465
0.123142 -0.357747 0.17746
0.127366 -0.356695 0.182268
0.130718 -0.356143 0.187005
0.134322 -0.353481 0.198484
0.137824 -0.352609 0.20231
0.141797 -0.352299 0.20319
0.145458 -0.351711 0.207117
0.149111 -0.351308 0.210351
0.152605 -0.350907 0.211249
0.157316 -0.350722 0.21131
0.161048 -0.350545 0.214105
0.164888 -0.349933 0.215488
0.169026 -0.349853 0.2166
0.173108 -0.350055 0.215776
0.177147 -0.350494 0.215609
0.181539 -0.350565 0.212412
0.185726 -0.351105 0.209806
0.190104 -0.351491 0.208106
0.194154 -0.352085 0.20644
0.198311 -0.352227 0.204921
0.202288 -0.351872 0.20528
0.206628 -0.351549 0.20709
0.210504 -0.352425 0.205755
0.21467 -0.352378 0.203412
0.219346 -0.353164 0.199352
0.223523 -0.353829 0.197425
0.228076 -0.354834 0.192268
0.2336 -0.355933 0.18464
0.238828 -0.358444 0.174198
0.0196792 -0.426199 -0.197766
0.0249125 -0.425677 -0.194423
0.0294469 -0.422662 -0.178655
0.0339404 -0.421714 -0.173894
0.0393525 -0.419782 -0.166252
0.043941 -0.420445 -0.166818
0.0489797 -0.420531 -0.168597
0.0534394 -0.420465 -0.166272
0.0584694 -0.419475 -0.163341
0.0638584 -0.418895 -0.159672
0.0683957 -0.418781 -0.158681
0.0729242 -0.418232 -0.155468
0.0776122 -0.418286 -0.155473
0.0832168 -0.417822 -0.154121
0.0872146 -0.417969 -0.153306
0.0922284 -0.416886 -0.151702
0.0969094 -0.417848 -0.152627
0.102127 -0.417226 -0.153169
0.106606 -0.417663 -0.153871
0.111854 -0.417765 -0.155927
0.116524 -0.418253 -0.155576
0.121407 -0.418854 -0.157583
0.126579 -0.418481 -0.15915
0.131873 -0.419951 -0.163643
0.115129 -0.355581 0.167296
0.119517 -0.354018 0.17356
0.123513 -0.353388 0.17814
0.127384 -0.351889 0.182978
0.130659 -0.350435 0.192212
0.134179 -0.349679 0.199398
0.13794 -0.348944 0.202474
0.141498 -0.348165 0.205311
0.145462 -0.347098 0.210531
0.149234 -0.347343 0.211618
0.153191 -0.346567 0.212959
0.157007 -0.346433 0.214588
0.160665 -0.345386 0.219999
0.164544 -0.345016 0.220647
0.168944 -0.345319 0.218563
0.172729 -0.346092 0.216419
0.17696 -0.346167 0.216035
0.181407 -0.346316 0.215201
0.185192 -0.346616 0.211827
0.189689 -0.347095 0.208741
0.194047 -0.347588 0.206903
0.198235 -0.347719 0.206488
0.202426 -0.347849 0.207053
0.206267 -0.347896 0.206936
0.21014 -0.347995 0.207183
0.214703 -0.347966 0.204336
0.219246 -0.349179 0.200559
0.223265 -0.34936 0.198164
0.228147 -0.350306 0.193277
0.232757 -0.35133 0.187645
0.238865 -0.354153 0.17441
0.0343679 -0.417933 -0.182147
0.03958 -0.417687 -0.177274
0.0440912 -0.416896 -0.176168
0.0488247 -0.416214 -0.172954
0.0538187 -0.415983 -0.169717
0.0582656 -0.415231 -0.165062
0.0635743 -0.414095 -0.160823
0.0682842 -0.413612 -0.158204
0.0727627 -0.413904 -0.156325
0.0776758 -0.413098 -0.15458
0.0825432 -0.413116 -0.153745
0.0873943 -0.412808 -0.152729
0.0918219 -0.412562 -0.152623
0.097462 -0.412442 -0.152487
0.101892 -0.412126 -0.151811
0.107344 -0.412808 -0.153668
0.111903 -0.41294 -0.154405
0.116487 -0.413184 -0.155174
0.121854 -0.413629 -0.158212
0.126276 -0.414084 -0.159987
0.112166 -0.353762 0.155754
0.115282 -0.350469 0.17138
0.119001 -0.34913 0.180035
0.123041 -0.348368 0.182497
0.12695 -0.34798 0.184317
0.130499 -0.34603 0.193258
0.133737 -0.344964 0.200961
0.137449 -0.343907 0.205552
0.14139 -0.343372 0.211072
0.14543 -0.342423 0.212551
0.148951 -0.342634 0.212864
0.152965 -0.342049 0.215464
0.15639 -0.341187 0.222391
0.160056 -0.340332 0.224939
0.164205 -0.340311 0.223931
0.168378 -0.340956 0.221517
0.172375 -0.341599 0.218612
0.176595 -0.341855 0.216523
0.181346 -0.341489 0.216467
0.185908 -0.342315 0.212412
0.189623 -0.343432 0.209479
0.193818 -0.343078 0.207557
0.197954 -0.343535 0.208679
0.202123 -0.34362 0.208004
0.206277 -0.34385 0.207187
0.210501 -0.343611 0.206454
0.214962 -0.344543 0.204785
0.218955 -0.34453 0.202486
0.223473 -0.345174 0.199141
0.227589 -0.346081 0.194841
0.232984 -0.347958 0.186622
0.239131 -0.350096 0.173897
0.038971 -0.41469 -0.189078
0.0440744 -0.413312 -0.182299
0.0490912 -0.411646 -0.174431
0.0543082 -0.41066 -0.168989
0.0586598 -0.409996 -0.164179
0.0633341 -0.408787 -0.159544
0.0680709 -0.408655 -0.157356
0.0730448 -0.408552 -0.155259
0.0777815 -0.407821 -0.152591
0.0823745 -0.408044 -0.151894
0.0876893 -0.407207 -0.152273
0.0919142 -0.407093 -0.151403
0.0970468 -0.408042 -0.151116
0.101529 -0.407709 -0.151047
0.10663 -0.407472 -0.152497
0.112022 -0.407321 -0.153432
0.116588 -0.408696 -0.156122
0.121505 -0.408476 -0.156873
0.126783 -0.409276 -0.160142
0.111617 -0.347677 0.165202
0.114682 -0.344921 0.179658
0.118652 -0.343759 0.183853
0.122596 -0.343659 0.184781
0.126478 -0.343489 0.186452
0.130429 -0.342009 0.194984
0.133523 -0.340324 0.203261
0.136689 -0.33824 0.215284
0.140494 -0.337649 0.216731
0.144681 -0.338095 0.215388
0.148926 -0.337448 0.215964
0.152412 -0.33798 0.216475
0.156355 -0.336892 0.222724
0.160377 -0.336107 0.224599
0.16414 -0.336049 0.224991
0.168502 -0.336915 0.222022
0.172498 -0.337359 0.218824
0.176581 -0.337423 0.217219
0.180858 -0.338188 0.215879
0.184911 -0.338576 0.213286
0.189514 -0.338905 0.210097
0.193936 -0.339417 0.209514
0.197753 -0.339336 0.209594
0.202049 -0.339368 0.209332
0.20652 -0.339262 0.207964
0.210311 -0.339379 0.206971
0.2147 -0.340005 0.205799
0.218698 -0.340506 0.203897
0.222908 -0.340431 0.202647
0.228156 -0.341637 0.194906
0.233081 -0.343944 0.185279
0.238635 -0.345407 0.176384
0.04402 -0.409042 -0.184906
0.049248 -0.407183 -0.174647
0.0541675 -0.405861 -0.168223
0.0581104 -0.404331 -0.159266
0.0636198 -0.403122 -0.15375
0.0675996 -0.402856 -0.15097
0.0727687 -0.402212 -0.148201
0.0770806 -0.401672 -0.14578
0.0824214 -0.401217 -0.145948
0.0871931 -0.402551 -0.147466
0.0919312 -0.401455 -0.146016
0.0971582 -0.40168 -0.146682
0.102189 -0.402201 -0.148061
0.10682 -0.40122 -0.147865
0.111473 -0.403022 -0.150598
0.116002 -0.402724 -0.152585
0.121756 -0.403714 -0.156575
0.108265 -0.345594 0.152271
0.111182 -0.341374 0.176987
0.11463 -0.339898 0.182323
0.118681 -0.339743 0.18514
0.122576 -0.339359 0.186729
0.126471 -0.338493 0.19002
0.129715 -0.336558 0.201901
0.132611 -0.333911 0.214932
0.136906 -0.333573 0.218059
0.140766 -0.333419 0.21897
0.144809 -0.333503 0.217795
0.149021 -0.333798 0.217497
0.152481 -0.333673 0.218467
0.156338 -0.33282 0.223558
0.160231 -0.33255 0.224229
0.164118 -0.332533 0.224134
0.168216 -0.332551 0.223733
0.172635 -0.333458 0.21973
0.17704 -0.333795 0.21697
0.181043 -0.333949 0.215497
0.185294 -0.334698 0.213328
0.18967 -0.334804 0.211317
0.193809 -0.335142 0.210109
0.198144 -0.33494 0.209469
0.202088 -0.335185 0.209919
0.205634 -0.334956 0.210014
0.209792 -0.335151 0.208149
0.213843 -0.335408 0.207464
0.218545 -0.335902 0.204711
0.223115 -0.336476 0.201141
0.227638 -0.337567 0.196997
0.232691 -0.339107 0.189346
0.23828 -0.341211 0.177381
0.039162 -0.404632 -0.187955
0.0442465 -0.403661 -0.182702
0.0489993 -0.401789 -0.173275
0.0540215 -0.399164 -0.159247
0.0587506 -0.398126 -0.153099
0.0631011 -0.397905 -0.15049
0.0675054 -0.397112 -0.147305
0.0724426 -0.3964 -0.144998
0.0776133 -0.396133 -0.14356
0.082195 -0.39638 -0.143072
0.0870154 -0.396943 -0.14339
0.0917765 -0.396467 -0.142576
0.0971031 -0.396545 -0.143166
0.101321 -0.396387 -0.144644
0.106439 -0.396561 -0.144756
0.111569 -0.396956 -0.146291
0.116347 -0.396974 -0.148095
0.121073 -0.397886 -0.152066
0.107763 -0.339362 0.165403
0.110779 -0.337274 0.177755
0.114921 -0.336135 0.182149
0.118683 -0.336011 0.184905
0.12255 -0.334909 0.187454
0.125314 -0.332539 0.202029
0.129337 -0.331542 0.206701
0.132751 -0.330161 0.215381
0.136816 -0.329385 0.218693
0.140338 -0.329129 0.219928
0.144492 -0.329078 0.219262
0.148279 -0.329146 0.220493
0.152361 -0.328479 0.223368
0.155741 -0.327988 0.224867
0.160376 -0.328778 0.223415
0.164141 -0.328727 0.222416
0.168779 -0.328287 0.223236
0.17247 -0.328582 0.222261
0.176585 -0.329552 0.218884
0.180812 -0.330194 0.215649
0.185362 -0.330073 0.214145
0.189438 -0.330634 0.212436
0.193596 -0.330648 0.211642
0.19762 -0.330878 0.211629
0.201796 -0.330937 0.211892
0.205172 -0.33009 0.214075
0.20978 -0.3308 0.210833
0.21426 -0.331679 0.206833
0.218693 -0.331801 0.204398
0.222964 -0.332619 0.201296
0.227877 -0.333628 0.1966
0.232442 -0.334193 0.191163
0.238944 -0.337801 0.172617
0.0394047 -0.399587 -0.185587
0.0440061 -0.397944 -0.178236
0.0488585 -0.395375 -0.165026
0.0530498 -0.393158 -0.151748
0.0576577 -0.392601 -0.149579
0.0627205 -0.392554 -0.147265
0.067608 -0.391943 -0.143585
0.0723048 -0.391148 -0.14196
0.0772922 -0.390943 -0.140492
0.0817992 -0.390702 -0.13999
0.0871136 -0.391068 -0.139873
0.0917363 -0.390925 -0.139631
0.0965323 -0.391068 -0.141171
0.101415 -0.391229 -0.142918
0.106455 -0.391898 -0.144013
0.111336 -0.392024 -0.145437
0.116301 -0.39227 -0.1476
0.104634 -0.337461 0.150755
0.107136 -0.334374 0.170665
0.110693 -0.333267 0.177669
0.114993 -0.332022 0.182381
0.118671 -0.331846 0.184523
0.121578 -0.329188 0.198514
0.125691 -0.32775 0.20513
0.129002 -0.326631 0.210096
0.132879 -0.326376 0.214933
0.136556 -0.325304 0.217428
0.140316 -0.324897 0.220073
0.144612 -0.324933 0.22161
0.147987 -0.324201 0.225354
0.151841 -0.324093 0.227131
0.155731 -0.323507 0.227523
0.160083 -0.323876 0.22578
0.164287 -0.324025 0.224496
0.168124 -0.324221 0.223783
0.172287 -0.324119 0.224153
0.176791 -0.324847 0.220599
0.181097 -0.326193 0.214526
0.185577 -0.325981 0.213086
0.189348 -0.326861 0.212526
0.193681 -0.326706 0.212252
0.197215 -0.326557 0.212937
0.201449 -0.326232 0.213811
0.205379 -0.325827 0.214974
0.209723 -0.326458 0.212253
0.214056 -0.327481 0.207991
0.218766 -0.328173 0.204101
0.223252 -0.328568 0.200331
0.228218 -0.329366 0.196371
0.232584 -0.330783 0.190474
0.239938 -0.334726 0.169201
0.0338811 -0.395038 -0.188003
0.0390772 -0.39379 -0.181428
0.0440245 -0.389949 -0.163599
0.0483451 -0.387687 -0.148885
0.0535534 -0.386741 -0.145779
0.0584264 -0.386765 -0.143924
0.0628949 -0.38633 -0.14209
0.0676034 -0.386352 -0.140252
0.0719053 -0.385993 -0.138689
0.0775406 -0.385492 -0.138094
0.081682 -0.385435 -0.138985
0.0867838 -0.385677 -0.138805
0.0917209 -0.385477 -0.138666
0.0963661 -0.386013 -0.139515
0.101501 -0.386344 -0.141546
0.106314 -0.386389 -0.142895
0.11124 -0.386755 -0.144433
0.116348 -0.387169 -0.147565
0.103402 -0.331173 0.164213
0.10689 -0.329021 0.17531
0.110854 -0.328528 0.178701
0.114609 -0.327997 0.181957
0.118623 -0.326978 0.187793
0.121876 -0.32371 0.204172
0.125055 -0.323087 0.210099
0.128703 -0.321871 0.215129
0.132988 -0.321663 0.216708
0.137033 -0.321393 0.218375
0.140442 -0.32085 0.221231
0.14399 -0.320506 0.225271
0.147542 -0.319228 0.22922
0.151901 -0.319299 0.230065
0.155652 -0.31921 0.230042
0.159671 -0.319538 0.22871
0.163985 -0.32038 0.226721
0.167799 -0.320288 0.226181
0.172407 -0.320535 0.223663
0.176406 -0.321346 0.221983
0.181362 -0.321866 0.216095
0.18522 -0.322205 0.214155
0.189324 -0.322645 0.2135
0.193293 -0.322633 0.214171
0.197735 -0.322777 0.212114
0.201231 -0.322213 0.21408
0.205558 -0.322198 0.214745
0.209657 -0.322246 0.212107
0.213806 -0.323079 0.209004
0.218372 -0.323992 0.205133
0.222706 -0.324131 0.201767
0.227864 -0.325429 0.196771
0.232667 -0.326756 0.18915
0.239658 -0.330192 0.167929
0.0299131 -0.390448 -0.192037
0.0341511 -0.388674 -0.182874
0.0392995 -0.386678 -0.16831
0.0437534 -0.383384 -0.149202
0.0486419 -0.382428 -0.145003
0.0531168 -0.381913 -0.141668
0.0579435 -0.381238 -0.139382
0.0629222 -0.380723 -0.13744
0.066962 -0.380277 -0.135752
0.0723378 -0.38057 -0.136509
0.0772325 -0.380835 -0.136137
0.0820921 -0.380713 -0.136792
0.0868415 -0.380742 -0.136616
0.0916974 -0.380535 -0.137167
0.0964175 -0.380819 -0.138624
0.10153 -0.381369 -0.139349
0.106383 -0.381258 -0.141503
0.111114 -0.382306 -0.144994
0.116548 -0.382099 -0.147162
0.102731 -0.324996 0.173338
0.106809 -0.324458 0.177298
0.110502 -0.324007 0.181002
0.114513 -0.32321 0.185465
0.117988 -0.321902 0.194009
0.121433 -0.319231 0.208047
0.124652 -0.318035 0.214377
0.128366 -0.317393 0.217525
0.132509 -0.317023 0.219286
0.136596 -0.317042 0.22082
0.140091 -0.316413 0.224638
0.143478 -0.315932 0.227819
0.147105 -0.314614 0.231255
0.151307 -0.315551 0.230512
0.155712 -0.315222 0.231229
0.159844 -0.315286 0.228527
0.164137 -0.315691 0.227024
0.16826 -0.316032 0.226008
0.172281 -0.316424 0.225077
0.176567 -0.316749 0.222013
0.180968 -0.317043 0.218129
0.184985 -0.317496 0.215829
0.189117 -0.318198 0.214528
0.193271 -0.318308 0.213719
0.19768 -0.318304 0.212785
0.201514 -0.318417 0.213485
0.205563 -0.318046 0.21394
0.209737 -0.318265 0.212577
0.214232 -0.319144 0.208636
0.218106 -0.319422 0.206395
0.223078 -0.320402 0.200984
0.227614 -0.321024 0.197443
0.232946 -0.322794 0.188337
0.239419 -0.326178 0.168513
0.0288227 -0.384037 -0.185446
0.0349442 -0.382162 -0.172452
0.0390428 -0.378409 -0.151545
0.0436281 -0.37733 -0.145033
0.0485843 -0.376184 -0.140899
0.0531783 -0.376338 -0.138433
0.0578012 -0.376027 -0.136536
0.062473 -0.375842 -0.135627
0.0675642 -0.37534 -0.134354
0.0721593 -0.375019 -0.132317
0.0771061 -0.375592 -0.133907
0.0819774 -0.375744 -0.134004
0.0874637 -0.374995 -0.133695
0.0913078 -0.375952 -0.135479
0.0960576 -0.376005 -0.136036
0.100762 -0.375919 -0.137406
0.106022 -0.376012 -0.139383
0.111121 -0.377127 -0.143417
0.0996237 -0.323669 0.159023
0.102883 -0.321003 0.174368
0.106928 -0.320308 0.178486
0.110659 -0.319599 0.183177
0.114253 -0.318746 0.187364
0.117861 -0.316117 0.202068
0.120615 -0.314297 0.212622
0.124742 -0.313447 0.217477
0.128463 -0.313084 0.219975
0.132391 -0.312736 0.221672
0.136197 -0.312716 0.222425
0.140283 -0.311434 0.226794
0.143814 -0.311257 0.228665
0.147738 -0.311428 0.231384
0.151309 -0.310837 0.233204
0.155752 -0.311106 0.231353
0.159284 -0.311532 0.229526
0.163925 -0.311447 0.229705
0.16784 -0.311604 0.228119
0.172045 -0.311951 0.22529
0.176243 -0.312847 0.222156
0.180329 -0.313069 0.220646
0.184744 -0.3135 0.218548
0.189237 -0.313483 0.218261
0.193482 -0.313703 0.217384
0.197722 -0.314013 0.214487
0.201979 -0.314221 0.212439
0.205702 -0.314619 0.212351
0.209422 -0.314391 0.212176
0.214052 -0.315499 0.208751
0.21854 -0.315442 0.205755
0.223317 -0.316492 0.201769
0.228011 -0.317155 0.197374
0.233187 -0.318721 0.188354
0.239587 -0.321656 0.170239
0.0197665 -0.380288 -0.189016
0.0242008 -0.378805 -0.183382
0.0287691 -0.373875 -0.153622
0.0343156 -0.373319 -0.149427
0.0386288 -0.372711 -0.144796
0.0433935 -0.372025 -0.140526
0.0479847 -0.371258 -0.137428
0.0528923 -0.371361 -0.135622
0.0576666 -0.370288 -0.133149
0.0623854 -0.370265 -0.132633
0.067768 -0.370043 -0.131156
0.0721831 -0.369536 -0.130461
0.0768504 -0.37004 -0.131698
0.0816822 -0.3703 -0.132014
0.0864863 -0.370633 -0.132131
0.0916512 -0.370481 -0.133998
0.0964527 -0.370875 -0.135605
0.100961 -0.371236 -0.136899
0.106142 -0.371845 -0.140344
0.111303 -0.372276 -0.142349
0.0991805 -0.318024 0.16689
0.10302 -0.316686 0.176175
0.106874 -0.31557 0.180438
0.110694 -0.315555 0.18391
0.113341 -0.31262 0.200797
0.117183 -0.311148 0.208261
0.120871 -0.309835 0.216381
0.124574 -0.308989 0.219259
0.128814 -0.309041 0.221151
0.132107 -0.308707 0.222026
0.135954 -0.308414 0.223985
0.139542 -0.307624 0.226657
0.143665 -0.307528 0.229212
0.147401 -0.306836 0.231739
0.151418 -0.307141 0.231686
0.155137 -0.307241 0.232345
0.159613 -0.30724 0.230399
0.163388 -0.307204 0.230652
0.167515 -0.307243 0.230682
0.17134 -0.307381 0.228503
0.17606 -0.308387 0.224051
0.180616 -0.308959 0.222102
0.184375 -0.309119 0.221066
0.188882 -0.309107 0.219578
0.192797 -0.309537 0.219119
0.197138 -0.309686 0.216036
0.201316 -0.310246 0.213731
0.205547 -0.310298 0.212845
0.20948 -0.310579 0.212535
0.214266 -0.310816 0.208679
0.218791 -0.311107 0.205589
0.223186 -0.3123 0.201761
0.228181 -0.313011 0.195846
0.233019 -0.314574 0.189236
0.239186 -0.316994 0.172918
0.0194683 -0.373738 -0.182641
0.0247097 -0.373452 -0.179303
0.0289587 -0.368246 -0.148169
0.0342498 -0.367821 -0.145117
0.0383676 -0.366793 -0.139169
0.0430267 -0.366318 -0.136592
0.047869 -0.365386 -0.133621
0.052521 -0.36553 -0.13168
0.0576561 -0.365673 -0.131076
0.0621901 -0.365296 -0.130792
0.0669792 -0.364907 -0.129757
0.0720475 -0.36486 -0.129008
0.077254 -0.365265 -0.130198
0.0815251 -0.365219 -0.130791
0.0858874 -0.365518 -0.131119
0.0917571 -0.365384 -0.133271
0.0959837 -0.366098 -0.134584
0.100986 -0.365948 -0.135256
0.10609 -0.366658 -0.139186
0.0959637 -0.317193 0.149357
0.0992482 -0.314212 0.168786
0.102879 -0.312506 0.175099
0.106844 -0.311732 0.180682
0.109854 -0.308486 0.200268
0.113279 -0.307531 0.205046
0.117152 -0.306733 0.211147
0.120328 -0.305158 0.217471
0.12448 -0.304989 0.220433
0.128306 -0.304773 0.222528
0.132367 -0.304418 0.223387
0.136077 -0.304406 0.22407
0.140114 -0.303667 0.228602
0.143411 -0.303241 0.230355
0.147546 -0.302959 0.231312
0.151669 -0.303273 0.231113
0.155676 -0.302762 0.231326
0.159662 -0.303332 0.230494
0.163591 -0.303115 0.231374
0.167527 -0.303415 0.230891
0.17152 -0.303912 0.2284
0.176218 -0.304639 0.224354
0.180146 -0.304561 0.222891
0.184299 -0.304777 0.221326
0.188536 -0.304888 0.221107
0.193043 -0.305578 0.218756
0.197233 -0.305573 0.216485
0.20148 -0.305703 0.214737
0.205424 -0.306157 0.214666
0.209517 -0.306678 0.212137
0.214076 -0.30706 0.209903
0.218395 -0.307624 0.205987
0.222667 -0.308002 0.202371
0.227944 -0.309105 0.196266
0.232778 -0.310032 0.189118
0.238852 -0.313322 0.172761
