ply
format ascii 1.0
element vertex 1715
property float x
property float y
property float z
end_header
0.0438772 0.139672 0.231085
0.0477261 0.139998 0.229221
0.0517625 0.139515 0.228352
0.0561807 0.1402 0.225552
0.060292 0.140453 0.218859
0.0644245 0.140915 0.217172
0.0684311 0.141342 0.215017
0.0725652 0.140847 0.214203
0.0763883 0.140907 0.213846
0.0808411 0.140945 0.212272
0.0846351 0.141 0.209501
0.0887461 0.141424 0.207295
0.0930329 0.141787 0.205019
0.0974067 0.141924 0.203545
0.101629 0.142147 0.200497
0.105827 0.142135 0.197546
0.110157 0.14247 0.194286
0.114215 0.142706 0.19204
0.11831 0.143199 0.190266
0.123195 0.143518 0.185277
0.127182 0.143358 0.182033
0.131359 0.144105 0.179232
0.135493 0.143446 0.181268
0.13949 0.143577 0.181827
0.143707 0.143352 0.179399
0.147722 0.144378 0.178263
0.152662 0.144411 0.171262
0.157274 0.144773 0.165459
0.161772 0.144789 0.161545
0.166496 0.145804 0.155079
0.171891 0.146747 0.144621
0.176702 0.147086 0.133973
0.183412 0.149033 0.110481
0.188341 0.149921 0.103755
0.19374 0.150135 0.093335
0.212244 0.161473 -0.0450518
0.217401 0.162063 -0.0498891
0.223336 0.162343 -0.064018
0.228498 0.163209 -0.0686495
0.235852 0.165277 -0.0913899
0.242279 0.166916 -0.107302
0.247569 0.166808 -0.111388
0.253261 0.167067 -0.118827
-0.156263 0.156266 0.074993
-0.149994 0.154402 0.0999125
-0.144644 0.153297 0.111247
-0.139697 0.152328 0.122254
-0.134811 0.151457 0.133882
-0.129563 0.151108 0.145745
-0.124928 0.149809 0.154275
-0.120278 0.149109 0.162612
-0.115334 0.148818 0.169121
-0.110876 0.148635 0.174404
-0.106416 0.147868 0.178677
-0.102648 0.14765 0.182752
-0.0986116 0.147464 0.186808
-0.0941135 0.147285 0.189367
-0.0893926 0.146558 0.195083
-0.0851576 0.146159 0.198496
-0.0810219 0.146219 0.201156
-0.077067 0.146097 0.204377
-0.072635 0.145067 0.207195
-0.0685437 0.145484 0.210584
-0.0644685 0.144902 0.212849
-0.0604513 0.144959 0.214202
-0.0562613 0.144969 0.216907
-0.0523101 0.144219 0.219777
-0.0482682 0.144282 0.221762
-0.0442812 0.144223 0.224186
-0.0399613 0.14359 0.226756
-0.0355438 0.143562 0.22913
-0.0318458 0.143747 0.229955
-0.0281697 0.143568 0.231173
-0.0241282 0.143449 0.233547
-0.0200115 0.143408 0.235844
-0.0160102 0.143285 0.235942
-0.012352 0.142856 0.236707
-0.00791987 0.143091 0.2378
-0.00357141 0.143273 0.237803
0.00018719 0.143208 0.23764
0.00389019 0.143375 0.236994
0.00817328 0.143098 0.236698
0.0123549 0.142737 0.236814
0.0156668 0.143265 0.237639
0.0197059 0.143232 0.236504
0.023909 0.142775 0.237888
0.0280142 0.143224 0.236412
0.0321783 0.143605 0.235039
0.035977 0.143246 0.234702
0.039808 0.143439 0.234191
0.0435853 0.143209 0.233635
0.0480432 0.143407 0.23245
0.051829 0.143731 0.231204
0.0561322 0.143655 0.229555
0.0600692 0.14386 0.225596
0.0638134 0.144589 0.218333
0.0680454 0.144848 0.215633
0.0725236 0.144736 0.215358
0.0764975 0.14515 0.21338
0.0806743 0.14526 0.210952
0.0850286 0.145444 0.209794
0.0888645 0.145637 0.20786
0.0930114 0.145484 0.20644
0.0975553 0.145606 0.203326
0.101643 0.146239 0.200121
0.105362 0.146238 0.198612
0.109559 0.146549 0.195959
0.114734 0.146901 0.191221
0.118971 0.147039 0.189752
0.122621 0.147289 0.186495
0.12666 0.147383 0.184874
0.131134 0.147379 0.183461
0.134703 0.147255 0.185142
0.139202 0.147089 0.185422
0.143593 0.147428 0.183855
0.147743 0.147608 0.181831
0.152585 0.148594 0.172187
0.157028 0.148965 0.167508
0.161551 0.149226 0.163236
0.165526 0.149189 0.160622
0.171315 0.150449 0.150786
0.176294 0.15131 0.141813
0.181178 0.152018 0.130713
0.18753 0.153467 0.108519
0.19242 0.154169 0.102224
0.211055 0.165368 -0.0384014
0.216093 0.165676 -0.0410244
0.221602 0.166328 -0.0464249
0.227258 0.167264 -0.0579836
0.233128 0.167657 -0.0658035
0.240234 0.169312 -0.0862503
0.246334 0.170847 -0.102845
0.251608 0.170739 -0.105983
0.257487 0.17158 -0.114654
0.262598 0.171815 -0.116114
-0.159677 0.160259 0.0802757
-0.154259 0.158188 0.100565
-0.148907 0.157712 0.112799
-0.14417 0.1565 0.120655
-0.139193 0.155885 0.127384
-0.134677 0.155429 0.136296
-0.129806 0.154754 0.146233
-0.124746 0.154085 0.156575
-0.11991 0.153235 0.163763
-0.114986 0.152679 0.170812
-0.110924 0.152429 0.174235
-0.107049 0.152063 0.176916
-0.102612 0.151893 0.180671
-0.0983163 0.151379 0.184278
-0.0943697 0.151189 0.189304
-0.0894927 0.150692 0.193146
-0.0851461 0.150376 0.196612
-0.0808878 0.150102 0.200236
-0.0769434 0.149955 0.201996
-0.0730506 0.149835 0.20456
-0.0687074 0.14947 0.207307
-0.0647345 0.149241 0.2098
-0.0602149 0.148863 0.213821
-0.0562562 0.148863 0.215161
-0.0523612 0.149061 0.217438
-0.0485053 0.148678 0.220391
-0.0439547 0.14828 0.222272
-0.0399549 0.148206 0.224549
-0.0360949 0.147825 0.226959
-0.0318349 0.147945 0.22958
-0.0282808 0.147368 0.231134
-0.0242319 0.147284 0.233389
-0.0203431 0.14737 0.23539
-0.0161704 0.147245 0.237093
-0.0119578 0.147072 0.237379
-0.00766135 0.146786 0.239954
-0.00402581 0.146942 0.238622
-0.000344406 0.147073 0.240507
0.00389201 0.146653 0.239878
0.00813573 0.146707 0.239684
0.0120606 0.146583 0.239389
0.0159936 0.146671 0.23867
0.0199178 0.146854 0.23886
0.0239841 0.147121 0.238919
0.0278458 0.147305 0.238153
0.0321291 0.146922 0.237854
0.0358236 0.146865 0.236608
0.0394971 0.147391 0.236421
0.0434642 0.14776 0.23649
0.0477479 0.147496 0.235072
0.0517384 0.147506 0.23531
0.056022 0.147724 0.232082
0.0597713 0.147686 0.231482
0.0636551 0.148099 0.227313
0.0682766 0.148991 0.218001
0.0723967 0.148332 0.216371
0.0765669 0.149325 0.214221
0.0807232 0.149453 0.211904
0.084555 0.14926 0.210708
0.0889546 0.149355 0.208568
0.0930816 0.149818 0.205115
0.0968274 0.149788 0.203816
0.101232 0.150022 0.201698
0.105744 0.15037 0.198575
0.109938 0.15095 0.19605
0.114089 0.150662 0.193848
0.118065 0.150719 0.190517
0.122709 0.151461 0.187533
0.126967 0.151189 0.185726
0.130601 0.151564 0.187323
0.135045 0.150989 0.189126
0.138838 0.1511 0.189265
0.143026 0.151427 0.188618
0.147451 0.151498 0.183951
0.152486 0.152637 0.17211
0.157149 0.152728 0.168129
0.161351 0.153368 0.166309
0.165607 0.153387 0.163382
0.170628 0.153795 0.15506
0.175734 0.154923 0.145967
0.18059 0.155478 0.13683
0.186508 0.156336 0.122433
0.192369 0.158232 0.106075
0.198225 0.159581 0.0896678
0.2157 0.169717 -0.0352225
0.220643 0.169785 -0.0370677
0.224936 0.170196 -0.0403802
0.231552 0.171367 -0.0548983
0.237605 0.172033 -0.0615957
0.245352 0.174059 -0.0882864
0.250944 0.175483 -0.0999112
0.257139 0.176377 -0.107484
0.262367 0.176082 -0.112403
-0.230207 0.164837 0.0739129
-0.223976 0.163674 0.0881799
-0.219058 0.163053 0.0940527
-0.214474 0.162651 0.0991489
-0.209854 0.162522 0.102212
-0.205331 0.16259 0.103003
-0.201154 0.162739 0.104949
-0.196656 0.162264 0.106027
-0.191753 0.162035 0.109236
-0.18754 0.162008 0.108455
-0.183681 0.162434 0.108051
-0.180015 0.162086 0.101781
-0.175854 0.162773 0.099936
-0.171691 0.163465 0.0966659
-0.16858 0.164778 0.0803771
-0.163518 0.163686 0.091621
-0.157864 0.162114 0.105274
-0.15292 0.161641 0.115321
-0.147844 0.16074 0.122756
-0.143497 0.160486 0.127806
-0.139066 0.159928 0.132421
-0.134674 0.159411 0.138979
-0.129471 0.158311 0.148825
-0.12438 0.15783 0.158208
-0.120068 0.157293 0.164795
-0.115348 0.156715 0.169079
-0.110971 0.156218 0.172532
-0.107251 0.156194 0.17593
-0.10256 0.156066 0.179691
-0.098689 0.155783 0.183778
-0.0937389 0.155137 0.189523
-0.0897786 0.154957 0.193135
-0.0852567 0.154421 0.197119
-0.081243 0.154177 0.19951
-0.0773077 0.153838 0.202529
-0.0726326 0.153713 0.204475
-0.0685952 0.153697 0.20728
-0.0647244 0.153314 0.209771
-0.0606107 0.153466 0.213822
-0.0561929 0.152903 0.215172
-0.0521628 0.152558 0.217988
-0.0483693 0.152609 0.219061
-0.0445073 0.152772 0.220683
-0.0398764 0.152416 0.223721
-0.036589 0.151816 0.225711
-0.0322226 0.15207 0.226674
-0.0281448 0.152064 0.228664
-0.0239157 0.151674 0.231074
-0.0198964 0.151109 0.233827
-0.0158687 0.151041 0.234133
-0.0118691 0.151167 0.236789
-0.00786916 0.151262 0.237961
-0.00379414 0.150867 0.240212
0.000189921 0.150687 0.239591
0.00433385 0.150862 0.240149
0.00779898 0.150405 0.240808
0.0122515 0.1506 0.240465
0.0158309 0.150644 0.240416
0.0194263 0.150535 0.240213
0.0241033 0.150739 0.240664
0.0277455 0.150577 0.240115
0.0317673 0.150711 0.23973
0.0356047 0.150867 0.239655
0.0396995 0.150546 0.238764
0.0437488 0.150992 0.236905
0.0480144 0.151217 0.236324
0.0516171 0.151333 0.236285
0.0560821 0.151301 0.235588
0.0595879 0.151357 0.23353
0.0639711 0.151765 0.230993
0.0680984 0.152397 0.225576
0.0721288 0.152866 0.216447
0.0769118 0.152994 0.214106
0.0805667 0.153102 0.213882
0.0845249 0.153051 0.211715
0.0888544 0.153307 0.209519
0.0932795 0.153922 0.205836
0.0970746 0.15383 0.203806
0.101559 0.154137 0.201899
0.106103 0.154124 0.199732
0.110116 0.154803 0.197171
0.113915 0.154865 0.194243
0.118083 0.154891 0.191201
0.122525 0.155171 0.189854
0.12664 0.155456 0.190435
0.130762 0.155009 0.191106
0.13441 0.154546 0.192832
0.13851 0.154626 0.193288
0.14318 0.155082 0.190414
0.147533 0.155107 0.18565
0.152279 0.156822 0.174345
0.157032 0.15676 0.169515
0.161323 0.157199 0.167674
0.165777 0.157571 0.164564
0.170319 0.157819 0.156805
0.174961 0.158537 0.149784
0.179855 0.159279 0.141237
0.185809 0.160428 0.128198
0.191624 0.161952 0.110877
0.197076 0.162758 0.0997283
0.214965 0.173956 -0.0277445
0.219988 0.17427 -0.0305865
0.224697 0.174486 -0.0327702
0.230303 0.175262 -0.0384796
0.236061 0.175539 -0.050741
0.241104 0.176338 -0.0577691
0.250546 0.179673 -0.0944812
0.255503 0.179915 -0.0985215
0.261487 0.181267 -0.107759
0.266151 0.180333 -0.109588
-0.253683 0.170485 0.0612491
-0.248655 0.170006 0.0666094
-0.243973 0.169771 0.0684862
-0.236495 0.167659 0.0930082
-0.231339 0.166878 0.0983497
-0.227198 0.16681 0.101435
-0.222163 0.166546 0.105687
-0.216843 0.165748 0.114753
-0.212237 0.165246 0.117264
-0.208201 0.165336 0.118144
-0.203629 0.165373 0.116912
-0.199224 0.16539 0.119786
-0.195069 0.164851 0.121099
-0.190624 0.164928 0.122258
-0.185788 0.165282 0.122872
-0.182286 0.1654 0.119543
-0.178584 0.165736 0.116149
-0.174643 0.165764 0.112642
-0.170714 0.16619 0.110023
-0.166186 0.166248 0.112975
-0.161863 0.165395 0.112938
-0.156499 0.165143 0.119783
-0.152476 0.165057 0.124284
-0.147478 0.164356 0.130101
-0.14279 0.16372 0.133964
-0.138956 0.163711 0.137159
-0.134179 0.163004 0.140761
-0.129325 0.162415 0.151117
-0.124216 0.161844 0.160449
-0.119805 0.161645 0.166444
-0.115196 0.160804 0.170038
-0.111377 0.160945 0.172306
-0.106704 0.160258 0.176405
-0.10269 0.159876 0.18209
-0.0979381 0.15943 0.188041
-0.0935723 0.158886 0.192711
-0.0892382 0.158398 0.196824
-0.0854982 0.158134 0.200471
-0.0809477 0.158277 0.202974
-0.0770464 0.158004 0.204624
-0.0730086 0.158444 0.205844
-0.0688402 0.157772 0.20755
-0.0644202 0.157153 0.212735
-0.0602143 0.156718 0.214872
-0.0560966 0.156904 0.21844
-0.0523039 0.156571 0.220059
-0.0484322 0.156328 0.221766
-0.0438376 0.156439 0.224816
-0.0400674 0.156227 0.225229
-0.0361374 0.155979 0.227258
-0.0317115 0.15577 0.228125
-0.0276294 0.156216 0.229111
-0.0234429 0.155764 0.230691
-0.0200898 0.155534 0.232042
-0.0158952 0.155672 0.23268
-0.0116182 0.155486 0.23463
-0.00738637 0.154563 0.238433
-0.00378483 0.154798 0.238393
-0.000407496 0.154762 0.238884
0.0037141 0.154795 0.239666
0.00816507 0.154962 0.239918
0.0120779 0.154716 0.240908
0.0157426 0.154659 0.240835
0.0199353 0.15454 0.241856
0.0236809 0.155072 0.24149
0.0277331 0.154185 0.2415
0.0319689 0.154422 0.241132
0.0357036 0.154643 0.240256
0.0399058 0.155228 0.238981
0.0439061 0.154767 0.239356
0.0474789 0.154692 0.239062
0.0515796 0.154692 0.236849
0.0556206 0.154787 0.236928
0.0594458 0.1552 0.235743
0.0634416 0.155276 0.234215
0.0679788 0.155614 0.231621
0.0723846 0.156606 0.217863
0.0767911 0.157224 0.215565
0.0808706 0.157125 0.213574
0.0847673 0.1571 0.211997
0.0885142 0.157424 0.210084
0.0928588 0.157816 0.206071
0.0971439 0.157757 0.204531
0.101147 0.158045 0.202886
0.105738 0.157913 0.199442
0.109764 0.158359 0.198039
0.114111 0.158928 0.194873
0.118082 0.158704 0.192385
0.122805 0.159175 0.191979
0.126662 0.158919 0.194274
0.130422 0.158688 0.196018
0.133984 0.158434 0.196033
0.138221 0.158898 0.196144
0.142834 0.158959 0.193225
0.147079 0.159441 0.187416
0.152075 0.160491 0.177732
0.157031 0.161302 0.171425
0.161226 0.161172 0.168545
0.165553 0.161269 0.165246
0.170422 0.162081 0.158324
0.175049 0.16241 0.150845
0.180101 0.163319 0.1429
0.184954 0.164249 0.134202
0.191314 0.165891 0.114608
0.196812 0.166117 0.106168
0.214103 0.177446 -0.0202448
0.219166 0.178251 -0.0254362
0.224255 0.178412 -0.0281835
0.229205 0.17861 -0.0328345
0.234398 0.179393 -0.0394619
0.240289 0.180687 -0.0511451
0.248011 0.182338 -0.0759397
0.25548 0.184328 -0.0932593
0.260123 0.184473 -0.0976291
0.265986 0.184907 -0.106004
0.270509 0.185484 -0.106755
-0.279539 0.174895 0.0625654
-0.275034 0.174683 0.0639876
-0.270934 0.174896 0.0626041
-0.267092 0.17521 0.0587307
-0.259557 0.173032 0.0824419
-0.254079 0.172149 0.0897044
-0.249979 0.172106 0.0903493
-0.245013 0.171992 0.0922452
-0.240546 0.171677 0.0981956
-0.234113 0.170369 0.11193
-0.229668 0.169956 0.115641
-0.225117 0.169864 0.11672
-0.220466 0.169357 0.12241
-0.215791 0.168918 0.125447
-0.211342 0.169012 0.126738
-0.206943 0.169129 0.128047
-0.202808 0.169173 0.127603
-0.198416 0.168599 0.128212
-0.194168 0.168317 0.1278
-0.189313 0.168651 0.129704
-0.185714 0.168887 0.1284
-0.181825 0.16896 0.126424
-0.177614 0.169113 0.125415
-0.173573 0.16938 0.122725
-0.169093 0.169249 0.122645
-0.164766 0.169073 0.122618
-0.161057 0.16927 0.124628
-0.156117 0.168859 0.128459
-0.151301 0.168472 0.132521
-0.147232 0.168389 0.135614
-0.142897 0.168212 0.138052
-0.138404 0.167517 0.140392
-0.13373 0.167418 0.144876
-0.129504 0.166872 0.150416
-0.124567 0.165726 0.160133
-0.119832 0.165463 0.167009
-0.115763 0.165096 0.170004
-0.111138 0.164576 0.172716
-0.106427 0.163799 0.18057
-0.102421 0.163512 0.186965
-0.0975995 0.162724 0.191925
-0.0934654 0.163008 0.195612
-0.0896476 0.162195 0.19875
-0.0854872 0.16248 0.202751
-0.0809949 0.161727 0.20497
-0.0771801 0.162046 0.206923
-0.0725142 0.161728 0.207677
-0.068646 0.161449 0.210453
-0.0645296 0.161088 0.214954
-0.0604515 0.160909 0.217817
-0.056388 0.160693 0.219902
-0.0520589 0.160311 0.222022
-0.0479337 0.159937 0.225529
-0.0444053 0.159954 0.225683
-0.0399468 0.159925 0.227849
-0.0358937 0.15982 0.229312
-0.031859 0.159925 0.23034
-0.0280305 0.15979 0.230321
-0.0238076 0.159479 0.230894
-0.0198689 0.159734 0.231663
-0.0159068 0.159332 0.232913
-0.0119255 0.159247 0.235777
-0.00780696 0.158987 0.236495
-0.00403916 0.159209 0.238659
-0.00031348 0.158832 0.239854
0.00382467 0.158851 0.239291
0.0078208 0.158851 0.240004
0.0119647 0.158842 0.240656
0.01602 0.158627 0.240427
0.0197201 0.158402 0.242018
0.023697 0.158834 0.241275
0.0279901 0.158532 0.240571
0.0316309 0.158845 0.240806
0.0352207 0.15871 0.240276
0.039779 0.158936 0.240113
0.0435535 0.158838 0.239591
0.0476326 0.158835 0.238899
0.0515832 0.158965 0.238892
0.0556084 0.158642 0.238811
0.0596022 0.158863 0.238597
0.0636261 0.159071 0.236241
0.0675981 0.159094 0.23472
0.0718368 0.159518 0.230461
0.0763547 0.160764 0.216532
0.0807226 0.161035 0.214837
0.0844465 0.161165 0.212625
0.0891198 0.16158 0.210139
0.0930696 0.161906 0.207301
0.0972731 0.162237 0.20505
0.101375 0.161948 0.202578
0.105556 0.162082 0.200938
0.109722 0.162568 0.198425
0.114028 0.162997 0.19665
0.118169 0.162937 0.193882
0.122232 0.162792 0.194318
0.125727 0.162414 0.197765
0.129793 0.16285 0.199532
0.133835 0.162306 0.200288
0.138154 0.16256 0.198915
0.142227 0.163167 0.196346
0.147151 0.163546 0.187432
0.151925 0.164128 0.180931
0.156478 0.164749 0.173344
0.161366 0.16521 0.168961
0.165427 0.165251 0.167125
0.170175 0.166063 0.159964
0.175218 0.166578 0.152311
0.179845 0.16731 0.145663
0.184644 0.167982 0.135911
0.190657 0.168997 0.12364
0.195697 0.170161 0.112033
0.213509 0.181775 -0.0133927
0.218267 0.181922 -0.0183172
0.224101 0.183145 -0.024508
0.228326 0.1829 -0.0271249
0.234109 0.183376 -0.0331349
0.240096 0.18458 -0.0467601
0.245783 0.185216 -0.0559509
0.25295 0.187831 -0.0774291
0.259985 0.188915 -0.0931835
0.265554 0.189463 -0.1017
0.270462 0.189688 -0.104431
-0.293153 0.176827 0.0881839
-0.289221 0.176581 0.0872265
-0.284822 0.176748 0.0864838
-0.280421 0.176948 0.0875931
-0.275953 0.177015 0.0881481
-0.271661 0.176998 0.0859715
-0.267973 0.177249 0.0858117
-0.262582 0.176266 0.0901896
-0.257963 0.175981 0.0956198
-0.253301 0.175885 0.0992692
-0.248168 0.175746 0.100344
-0.243408 0.174954 0.105594
-0.238097 0.17409 0.117278
-0.232601 0.173832 0.121141
-0.22864 0.173522 0.122846
-0.223899 0.173258 0.124832
-0.21932 0.172951 0.129361
-0.214939 0.172322 0.130986
-0.210821 0.172481 0.132107
-0.206441 0.172703 0.133274
-0.202207 0.172853 0.132453
-0.1979 0.172805 0.133242
-0.193702 0.172529 0.133986
-0.189735 0.172583 0.133774
-0.185098 0.172386 0.13321
-0.181086 0.172875 0.132095
-0.17733 0.172844 0.130346
-0.173086 0.173013 0.128595
-0.168873 0.172598 0.129662
-0.164682 0.172792 0.130731
-0.160406 0.172884 0.132505
-0.155308 0.172425 0.13689
-0.151203 0.171739 0.137519
-0.146901 0.17182 0.140647
-0.142358 0.171833 0.142571
-0.137973 0.171724 0.143483
-0.133929 0.171416 0.146267
-0.129362 0.170787 0.151853
-0.124112 0.170027 0.163384
-0.119643 0.169228 0.168417
-0.115519 0.169345 0.170216
-0.111345 0.168595 0.174673
-0.106657 0.167408 0.184674
-0.101998 0.167442 0.190489
-0.097946 0.166689 0.194425
-0.0935148 0.166465 0.198596
-0.0889541 0.165983 0.202341
-0.085219 0.165982 0.204182
-0.081142 0.165898 0.207027
-0.0768082 0.165854 0.207665
-0.0726441 0.165502 0.209336
-0.0684237 0.164798 0.212976
-0.064542 0.164877 0.216839
-0.0603054 0.164456 0.219459
-0.0562795 0.164242 0.221586
-0.0517818 0.163619 0.22536
-0.0477356 0.163834 0.226373
-0.0438672 0.163929 0.228031
-0.0401209 0.163547 0.229272
-0.0358196 0.16334 0.230835
-0.03211 0.16363 0.231329
-0.0278644 0.163613 0.232496
-0.0240973 0.163429 0.233294
-0.0197498 0.163449 0.23308
-0.015998 0.162957 0.235683
-0.0116982 0.162937 0.237921
-0.00793261 0.162812 0.2401
-0.00385122 0.162559 0.239724
-0.000252039 0.162625 0.241052
0.00394837 0.162586 0.24094
0.00780473 0.162515 0.242488
0.0119704 0.162316 0.242769
0.0162747 0.162358 0.242367
0.0197453 0.162778 0.242649
0.0241264 0.162538 0.241003
0.0274919 0.16272 0.240424
0.0319491 0.162287 0.240423
0.0357699 0.162872 0.240029
0.0396959 0.162707 0.240096
0.0436669 0.162601 0.23919
0.0479191 0.162961 0.239408
0.0517859 0.162655 0.23866
0.0556025 0.162508 0.23866
0.0596554 0.163061 0.237342
0.0637299 0.162957 0.236911
0.0678247 0.163045 0.236335
0.071677 0.163599 0.233688
0.0758577 0.163454 0.230834
0.0802768 0.164894 0.214368
0.0847494 0.165693 0.21278
0.0887046 0.165276 0.210891
0.0932214 0.165935 0.207602
0.097056 0.165444 0.205658
0.101067 0.166005 0.203185
0.105095 0.166306 0.201917
0.10957 0.166653 0.197816
0.113563 0.166077 0.197197
0.117719 0.166774 0.196314
0.121935 0.16664 0.198776
0.125534 0.166337 0.201687
0.129589 0.16621 0.204708
0.133696 0.166321 0.204001
0.138018 0.166392 0.200859
0.142184 0.167414 0.196603
0.147319 0.167535 0.186852
0.151555 0.167867 0.183705
0.155609 0.167812 0.180829
0.161325 0.169014 0.170817
0.165194 0.169458 0.168078
0.17004 0.169636 0.161757
0.174883 0.170483 0.153685
0.17939 0.171296 0.147295
0.184977 0.172248 0.138086
0.190071 0.172828 0.130198
0.195649 0.174663 0.114135
0.201922 0.175441 0.0983136
0.218219 0.185942 -0.0149832
0.223683 0.187084 -0.021625
0.228419 0.1869 -0.0248604
0.234174 0.188052 -0.0303171
0.23958 0.189101 -0.0435536
0.245197 0.189463 -0.0514121
0.252648 0.191726 -0.0748281
0.259564 0.193417 -0.0901153
0.265334 0.193694 -0.0975177
0.270555 0.194236 -0.102865
0.289381 0.204317 -0.208553
-0.364777 0.187052 0.0260338
-0.361912 0.187541 0.0193123
-0.353456 0.185646 0.0399164
-0.348151 0.185337 0.043732
-0.344289 0.185586 0.0417525
-0.341471 0.186138 0.0355111
-0.336935 0.186519 0.0326296
-0.333446 0.186695 0.0285195
-0.329971 0.187073 0.0238619
-0.323373 0.18613 0.0348405
-0.296376 0.180834 0.0939094
-0.291865 0.18036 0.0961875
-0.287644 0.180518 0.0968421
-0.283238 0.180517 0.0964122
-0.278973 0.180648 0.0981275
-0.274981 0.180157 0.0949857
-0.270701 0.180695 0.0946126
-0.266636 0.17992 0.0946754
-0.260321 0.179639 0.106196
-0.256089 0.179082 0.107893
-0.251692 0.179296 0.110667
-0.247014 0.178821 0.110974
-0.242026 0.17814 0.118083
-0.23692 0.177711 0.124311
-0.231785 0.17759 0.127246
-0.22819 0.177437 0.128799
-0.223251 0.177141 0.130226
-0.218487 0.177021 0.134686
-0.21423 0.176474 0.13651
-0.209774 0.176342 0.137884
-0.205873 0.176366 0.137901
-0.201505 0.176226 0.138637
-0.19695 0.175927 0.139459
-0.192612 0.176015 0.14001
-0.188522 0.175836 0.139752
-0.184975 0.176179 0.138219
-0.180255 0.176358 0.137825
-0.176596 0.176168 0.137879
-0.172168 0.176504 0.137111
-0.167594 0.176172 0.136604
-0.163839 0.176666 0.138515
-0.159401 0.175947 0.140514
-0.155026 0.175844 0.142214
-0.150637 0.175912 0.144288
-0.146539 0.175683 0.145244
-0.14158 0.175585 0.14598
-0.137954 0.175741 0.146966
-0.133599 0.175008 0.14899
-0.12947 0.174702 0.152946
-0.124575 0.17423 0.162533
-0.119826 0.17368 0.167481
-0.115602 0.17356 0.170701
-0.110781 0.172651 0.179913
-0.106384 0.171828 0.187729
-0.10217 0.171034 0.192019
-0.0978095 0.170685 0.196322
-0.0932921 0.1702 0.200067
-0.0892064 0.170156 0.203061
-0.0849998 0.16994 0.205894
-0.0808719 0.169569 0.207693
-0.0767691 0.169639 0.209394
-0.0724701 0.169439 0.210843
-0.0684809 0.169158 0.214613
-0.0645266 0.168387 0.218003
-0.0601866 0.168871 0.220862
-0.0561083 0.168354 0.222524
-0.0525093 0.168137 0.224996
-0.0479013 0.168257 0.22549
-0.0444423 0.16779 0.227132
-0.0396623 0.167378 0.23068
-0.0360015 0.167529 0.230903
-0.0318448 0.167268 0.232049
-0.0274349 0.167223 0.234683
-0.024149 0.167283 0.234768
-0.0200382 0.167357 0.235562
-0.0158539 0.166975 0.23613
-0.0118844 0.166722 0.239657
-0.00788411 0.166353 0.241512
-0.0041348 0.166515 0.243611
-0.000153432 0.166294 0.244097
0.00348271 0.166287 0.244284
0.00795566 0.166205 0.244089
0.0119485 0.166378 0.245767
0.0159672 0.166299 0.245172
0.0197104 0.165915 0.244176
0.0237441 0.166437 0.242834
0.0276734 0.166246 0.24129
0.0315714 0.166654 0.240955
0.0350467 0.166437 0.24048
0.0397686 0.166713 0.241509
0.0436028 0.167008 0.239891
0.0476407 0.167177 0.241054
0.0516973 0.166816 0.238572
0.0554891 0.166825 0.237912
0.0592513 0.167148 0.237631
0.0632328 0.167211 0.238002
0.067372 0.167005 0.237215
0.071635 0.167143 0.2365
0.0755616 0.167122 0.235052
0.0800194 0.167427 0.230205
0.0848111 0.169377 0.213176
0.088682 0.169351 0.21109
0.0929177 0.169729 0.206919
0.0971817 0.169584 0.205738
0.101127 0.170018 0.203681
0.105549 0.170318 0.202374
0.109781 0.170505 0.198852
0.113933 0.170859 0.199069
0.117217 0.170684 0.199807
0.121554 0.170088 0.202993
0.125747 0.169832 0.205916
0.129686 0.169578 0.206737
0.133895 0.169849 0.205229
0.137434 0.170206 0.204002
0.142703 0.170957 0.194543
0.147349 0.171371 0.187756
0.151249 0.172165 0.185892
0.155554 0.17198 0.1834
0.161018 0.17327 0.17194
0.165013 0.173132 0.170252
0.170117 0.174003 0.163768
0.174356 0.174779 0.156646
0.179723 0.175314 0.14894
0.184603 0.176249 0.139976
0.189421 0.176789 0.134252
0.195391 0.177941 0.115963
0.200731 0.178875 0.109332
0.217938 0.19074 -0.0121953
0.223053 0.190667 -0.0188239
0.227975 0.191587 -0.0223691
0.232962 0.191611 -0.0266597
0.239242 0.193526 -0.038049
0.245169 0.194028 -0.0495496
0.252427 0.196125 -0.0725963
0.259242 0.198198 -0.0893712
0.264717 0.198596 -0.0947442
0.269843 0.19932 -0.101396
0.275257 0.199304 -0.104539
0.293529 0.209753 -0.205931
-0.380367 0.192076 0.0175972
-0.372399 0.190667 0.0357298
-0.367035 0.189878 0.0382675
-0.362259 0.190098 0.0408919
-0.356286 0.189075 0.0480905
-0.35131 0.189198 0.0511708
-0.347237 0.189061 0.0508813
-0.342481 0.188748 0.0514483
-0.337755 0.18871 0.0546594
-0.333292 0.188689 0.0534933
-0.329561 0.189 0.051409
-0.325972 0.18896 0.0466446
-0.322326 0.189571 0.0427132
-0.318212 0.190475 0.0385802
-0.315071 0.190938 0.0338072
-0.311985 0.191394 0.0246387
-0.294496 0.183466 0.105643
-0.290482 0.183493 0.104562
-0.286512 0.183705 0.104443
-0.282049 0.183775 0.10545
-0.277254 0.183945 0.10539
-0.273917 0.183748 0.103661
-0.269706 0.183752 0.103294
-0.264802 0.18338 0.107594
-0.259659 0.183056 0.112311
-0.254933 0.183028 0.115394
-0.250461 0.182452 0.116015
-0.245971 0.18216 0.118942
-0.240548 0.182059 0.125572
-0.236203 0.181419 0.128282
-0.231604 0.181283 0.130344
-0.2275 0.181028 0.132276
-0.22261 0.180937 0.135249
-0.21783 0.180399 0.139087
-0.213679 0.179798 0.141719
-0.209123 0.180017 0.143484
-0.204983 0.180135 0.144337
-0.200716 0.179948 0.144245
-0.196609 0.17961 0.144474
-0.192634 0.180134 0.144975
-0.188333 0.179766 0.145572
-0.184206 0.179798 0.144639
-0.179953 0.179985 0.143992
-0.175625 0.18009 0.14309
-0.172273 0.179954 0.14249
-0.167679 0.17987 0.142827
-0.163211 0.180084 0.145363
-0.158772 0.179659 0.147044
-0.154502 0.179966 0.147093
-0.150483 0.179751 0.14773
-0.146609 0.180189 0.147124
-0.141779 0.179248 0.148173
-0.137397 0.17934 0.150061
-0.133525 0.179312 0.151528
-0.128608 0.178707 0.157303
-0.123841 0.177799 0.165952
-0.119426 0.177652 0.169941
-0.11531 0.177711 0.171564
-0.110711 0.176092 0.18273
-0.106403 0.175444 0.189484
-0.101863 0.175292 0.194064
-0.0973834 0.174558 0.198068
-0.0931763 0.174373 0.201922
-0.0893352 0.173957 0.204149
-0.0849251 0.174074 0.207989
-0.0807873 0.173667 0.209285
-0.0766882 0.174138 0.210111
-0.0722143 0.17349 0.211691
-0.0684187 0.172978 0.21625
-0.0643076 0.172758 0.219268
-0.0601071 0.172513 0.221633
-0.05585 0.172018 0.223326
-0.0522341 0.172231 0.225847
-0.0480736 0.172258 0.227037
-0.0438641 0.171804 0.229621
-0.0402445 0.17208 0.230429
-0.0361292 0.171256 0.231778
-0.0317032 0.17133 0.23373
-0.0280003 0.170972 0.236002
-0.0238255 0.170963 0.236373
-0.0199354 0.170725 0.237028
-0.0158834 0.170794 0.23778
-0.0119346 0.170719 0.241966
-0.00787387 0.1704 0.24319
-0.0041547 0.17013 0.243959
0.000104963 0.169988 0.246024
0.00402702 0.170067 0.24532
0.00788228 0.17021 0.246444
0.011936 0.169843 0.246136
0.0158799 0.170079 0.247235
0.0196829 0.170339 0.245953
0.0242123 0.170426 0.243804
0.0277634 0.17052 0.242944
0.0316456 0.170672 0.242782
0.0353937 0.170344 0.242755
0.0397545 0.170494 0.243228
0.0437124 0.170554 0.242712
0.0477503 0.170246 0.242533
0.0516264 0.170516 0.240074
0.0554883 0.170656 0.240242
0.059827 0.170745 0.237412
0.0634068 0.171213 0.236611
0.0675031 0.171155 0.236239
0.0716166 0.170745 0.237351
0.0754424 0.170803 0.236299
0.0798645 0.171004 0.234534
0.0835694 0.171577 0.23152
0.0885783 0.17353 0.212499
0.0926269 0.173781 0.209562
0.0971977 0.17382 0.20675
0.100989 0.174118 0.204683
0.105818 0.173928 0.202683
0.109801 0.174652 0.200344
0.113793 0.174398 0.201804
0.117483 0.174387 0.204207
0.121155 0.173962 0.2081
0.125217 0.173663 0.209568
0.129333 0.173839 0.208902
0.133228 0.173676 0.206872
0.137731 0.174475 0.203985
0.142805 0.175107 0.194051
0.146842 0.175604 0.191175
0.151223 0.175706 0.187819
0.155521 0.176191 0.184655
0.160365 0.176819 0.173624
0.165338 0.177214 0.171145
0.169664 0.177482 0.166549
0.174415 0.178803 0.15763
0.179158 0.178807 0.152903
0.1846 0.179981 0.143247
0.188967 0.180549 0.137456
0.195343 0.182406 0.117941
0.20006 0.183285 0.113029
0.21774 0.194891 -0.0102952
0.222828 0.195353 -0.0142865
0.227847 0.195408 -0.0209305
0.233111 0.196008 -0.0242646
0.238378 0.197384 -0.0314751
0.244351 0.198457 -0.0459468
0.252242 0.200875 -0.0695024
0.258631 0.202521 -0.0859995
0.264522 0.202695 -0.0932257
0.269409 0.204063 -0.0989206
0.274913 0.204052 -0.10327
0.292224 0.213825 -0.198025
0.298657 0.213815 -0.205185
-0.393347 0.196931 0.0186234
-0.386889 0.195986 0.0279204
-0.381339 0.195604 0.0329801
-0.374956 0.193728 0.0424441
-0.369927 0.193995 0.04758
-0.36531 0.19376 0.0499033
-0.359372 0.192551 0.0571735
-0.354754 0.192505 0.0570077
-0.350693 0.19303 0.0575978
-0.345865 0.192533 0.0575532
-0.341757 0.192924 0.0592066
-0.336879 0.192395 0.0593426
-0.332917 0.192305 0.0598197
-0.328805 0.192898 0.0582584
-0.324962 0.193204 0.0542089
-0.320546 0.193468 0.0534809
-0.315502 0.192999 0.0560941
-0.309014 0.191763 0.0701973
-0.299021 0.187799 0.107692
-0.294022 0.187236 0.110545
-0.289965 0.187608 0.109517
-0.285403 0.187695 0.110154
-0.281083 0.187056 0.110284
-0.276915 0.187531 0.110323
-0.273116 0.18737 0.110255
-0.268662 0.187551 0.110018
-0.263466 0.187223 0.114352
-0.259106 0.186663 0.117297
-0.254433 0.186278 0.119058
-0.249946 0.186601 0.121745
-0.245243 0.186314 0.124049
-0.240677 0.185719 0.128238
-0.235721 0.185472 0.133072
-0.231438 0.185335 0.134678
-0.227092 0.184771 0.135768
-0.22241 0.184746 0.138809
-0.217814 0.184452 0.142903
-0.212815 0.183418 0.14652
-0.209171 0.183752 0.147458
-0.20493 0.183676 0.149108
-0.200623 0.183646 0.146751
-0.196438 0.183742 0.147954
-0.192007 0.183713 0.148849
-0.18794 0.183824 0.148377
-0.183698 0.183706 0.147794
-0.179831 0.184101 0.146716
-0.175664 0.183998 0.14649
-0.171265 0.183641 0.146604
-0.166947 0.183667 0.149769
-0.162807 0.183898 0.150107
-0.158622 0.183802 0.148566
-0.154494 0.183719 0.149291
-0.150112 0.183545 0.149465
-0.146408 0.183848 0.14962
-0.141629 0.183553 0.151288
-0.137454 0.183131 0.152689
-0.132882 0.183125 0.155249
-0.129113 0.182986 0.158764
-0.124289 0.182021 0.165747
-0.119729 0.181648 0.171022
-0.115688 0.181351 0.172364
-0.110294 0.179824 0.187276
-0.105987 0.179479 0.191716
-0.101937 0.178811 0.19617
-0.0976631 0.178644 0.19947
-0.0930157 0.178295 0.202871
-0.0892 0.177799 0.20627
-0.0849678 0.177692 0.208305
-0.0806276 0.177186 0.2116
-0.0766537 0.177385 0.212061
-0.0726955 0.177458 0.213434
-0.0684524 0.176843 0.217538
-0.0640639 0.176498 0.220784
-0.0601841 0.17624 0.222535
-0.0562975 0.176208 0.225128
-0.0523867 0.175597 0.226316
-0.0480596 0.175764 0.227999
-0.0439343 0.175614 0.230147
-0.0398124 0.17563 0.232304
-0.0357819 0.175523 0.232939
-0.0319499 0.174727 0.234231
-0.0278761 0.17524 0.235381
-0.0241159 0.175238 0.23708
-0.0197098 0.174633 0.238012
-0.016369 0.174553 0.240636
-0.0117722 0.174684 0.243031
-0.00784247 0.174331 0.244547
-0.00431298 0.173981 0.244887
7.86063e-05 0.173998 0.246284
0.004179 0.174246 0.246764
0.00803092 0.174253 0.247536
0.0113119 0.173996 0.247557
0.0155524 0.173695 0.247404
0.0197976 0.174111 0.247888
0.0240384 0.174292 0.245601
0.0279355 0.174222 0.243484
0.0316059 0.174397 0.244095
0.0356905 0.174539 0.244069
0.0395322 0.174201 0.244867
0.0434942 0.174215 0.244892
0.0470888 0.174583 0.24391
0.0517712 0.17443 0.242574
0.0555633 0.174493 0.241323
0.0595213 0.17474 0.23868
0.0635996 0.174942 0.237292
0.0675307 0.175079 0.235695
0.0717946 0.174897 0.236623
0.0756903 0.175078 0.236916
0.0795193 0.174864 0.236412
0.0835826 0.174931 0.233748
0.0873228 0.175207 0.230943
0.0924642 0.177556 0.213361
0.0970647 0.17801 0.207969
0.101533 0.178374 0.20384
0.105352 0.178286 0.20373
0.109243 0.178285 0.203929
0.113599 0.178008 0.205161
0.117136 0.177197 0.209355
0.120692 0.177431 0.212596
0.124987 0.177346 0.213208
0.129277 0.177646 0.210611
0.133481 0.177827 0.207795
0.13806 0.178537 0.200796
0.142259 0.179263 0.195398
0.146716 0.178888 0.192905
0.15109 0.179382 0.190152
0.155588 0.1799 0.186536
0.16079 0.181097 0.174613
0.165092 0.18148 0.172691
0.169314 0.181921 0.169327
0.174218 0.182477 0.161005
0.178738 0.182758 0.15566
0.184135 0.183956 0.14538
0.18887 0.184282 0.139492
0.193756 0.185337 0.132086
0.200316 0.186958 0.11442
0.205707 0.188943 0.097075
0.222241 0.19967 -0.0103106
0.227658 0.19987 -0.0165319
0.232124 0.200469 -0.0201755
0.237603 0.201165 -0.0267985
0.244349 0.202887 -0.0443478
0.249532 0.203567 -0.0535235
0.257156 0.205891 -0.0756493
0.264508 0.207484 -0.0919328
0.269626 0.208043 -0.0973122
0.275229 0.208719 -0.10387
0.292072 0.217482 -0.192557
0.296889 0.217689 -0.195285
0.303317 0.218554 -0.202667
0.30939 0.219887 -0.212608
-0.404503 0.202449 0.00740659
-0.396378 0.200416 0.0253904
-0.390004 0.199616 0.0333958
-0.383635 0.198253 0.0448217
-0.378122 0.197767 0.0511153
-0.373352 0.197551 0.0523076
-0.368255 0.197264 0.0561578
-0.363151 0.19638 0.060118
-0.357898 0.196381 0.0654459
-0.352981 0.196603 0.0645509
-0.349286 0.196353 0.0628537
-0.34465 0.196286 0.0648292
-0.340685 0.1964 0.0651397
-0.335626 0.196536 0.0658382
-0.331735 0.19625 0.0643563
-0.326821 0.196092 0.0650328
-0.322518 0.196005 0.0686406
-0.316448 0.195493 0.076555
-0.311812 0.194665 0.0796481
-0.306183 0.194121 0.0874158
-0.297933 0.191646 0.113198
-0.293636 0.191136 0.114074
-0.289632 0.19106 0.113512
-0.285252 0.191404 0.113135
-0.281117 0.191304 0.113321
-0.276649 0.191319 0.114576
-0.272756 0.191261 0.113243
-0.267562 0.191444 0.11607
-0.262746 0.191366 0.119627
-0.258942 0.190633 0.121807
-0.254277 0.190509 0.123697
-0.249225 0.19022 0.126901
-0.244834 0.189696 0.130046
-0.240135 0.189377 0.133135
-0.235563 0.189287 0.135675
-0.230267 0.188886 0.138218
-0.226335 0.188944 0.139169
-0.222309 0.188708 0.142569
-0.217225 0.188419 0.145644
-0.212666 0.187663 0.148671
-0.208758 0.1878 0.149221
-0.204349 0.187886 0.150127
-0.200214 0.187571 0.150501
-0.19645 0.187269 0.151013
-0.191698 0.187661 0.151448
-0.187503 0.187609 0.151416
-0.183731 0.187274 0.150971
-0.179268 0.187828 0.150921
-0.175419 0.187791 0.149962
-0.171151 0.187478 0.151428
-0.166352 0.187624 0.153196
-0.162517 0.187488 0.152059
-0.15803 0.187556 0.152148
-0.154491 0.187783 0.150954
-0.150248 0.18719 0.150597
-0.145611 0.187656 0.151372
-0.141955 0.18766 0.152499
-0.137553 0.187104 0.15467
-0.132926 0.187207 0.156838
-0.129126 0.186634 0.160658
-0.124275 0.186017 0.167708
-0.11982 0.185466 0.17174
-0.115258 0.185304 0.174238
-0.110482 0.183853 0.187508
-0.105864 0.183127 0.193891
-0.10186 0.182734 0.197203
-0.0974512 0.18272 0.200679
-0.0928821 0.181976 0.204628
-0.0890153 0.182046 0.20725
-0.0846631 0.181399 0.211719
-0.0806104 0.181518 0.21297
-0.0765288 0.180842 0.213369
-0.0725107 0.181167 0.215497
-0.0685354 0.181049 0.21864
-0.0639687 0.180422 0.22139
-0.0600832 0.180096 0.223844
-0.0564092 0.179946 0.225297
-0.0521405 0.180228 0.227118
-0.0477672 0.179348 0.228251
-0.0439445 0.179209 0.230412
-0.0398673 0.179384 0.233812
-0.0357905 0.179021 0.234289
-0.0316764 0.178925 0.235197
-0.0275823 0.178891 0.236656
-0.0237863 0.178567 0.239495
-0.0201664 0.178771 0.23901
-0.0156284 0.17892 0.24109
-0.0120285 0.178039 0.243919
-0.00806706 0.178421 0.244991
-0.00362798 0.177713 0.246101
0.000155054 0.177805 0.247057
0.00370006 0.177703 0.247905
0.00788603 0.178225 0.248952
0.0120609 0.177781 0.248923
0.0156517 0.17727 0.248641
0.0198596 0.177948 0.24726
0.0236704 0.177974 0.247534
0.0274294 0.177964 0.244599
0.0314317 0.178313 0.24516
0.0354883 0.177757 0.24572
0.0394623 0.178057 0.245025
0.0438639 0.177991 0.245232
0.0475456 0.178249 0.244275
0.0507553 0.177852 0.244457
0.0556594 0.1785 0.242616
0.0598279 0.178383 0.239636
0.0634834 0.179049 0.239646
0.0677527 0.17878 0.237584
0.0718013 0.179146 0.23617
0.0755956 0.178875 0.236012
0.0792632 0.178798 0.2363
0.08355 0.178921 0.234523
0.0874135 0.179094 0.233538
0.092169 0.179692 0.229028
0.0965952 0.181451 0.213571
0.10126 0.182309 0.204653
0.105477 0.182282 0.204491
0.109662 0.181899 0.206174
0.113024 0.181573 0.209412
0.117151 0.180906 0.214371
0.12091 0.181097 0.215512
0.124911 0.181064 0.214549
0.129101 0.181554 0.211705
0.133019 0.182123 0.20686
0.137986 0.182525 0.201107
0.141989 0.182987 0.196547
0.146275 0.183152 0.194731
0.151072 0.183511 0.191118
0.155285 0.184126 0.187117
0.16033 0.184975 0.177531
0.164595 0.185532 0.174435
0.169197 0.185686 0.170083
0.173575 0.186067 0.165083
0.179151 0.186691 0.15674
0.183755 0.18823 0.148579
0.188252 0.188497 0.142519
0.193664 0.189227 0.134931
0.200101 0.190779 0.115384
0.205201 0.192608 0.10375
0.221624 0.203458 -0.00769234
0.226679 0.204287 -0.0128062
0.231848 0.204922 -0.0187426
0.237658 0.205686 -0.0261841
0.244309 0.207245 -0.0412421
0.249986 0.208418 -0.0531986
0.257051 0.209891 -0.0723829
0.264158 0.212608 -0.0895526
0.269937 0.212693 -0.0967746
0.274921 0.213279 -0.10219
0.280087 0.213881 -0.10739
0.296424 0.221884 -0.190758
0.301748 0.222251 -0.195173
0.308329 0.223225 -0.203534
0.314092 0.224479 -0.211754
-0.413128 0.206247 0.00907743
-0.406997 0.205303 0.0173912
-0.399003 0.203838 0.0346729
-0.393184 0.203168 0.0406252
-0.388563 0.202803 0.0453414
-0.382258 0.202081 0.0534461
-0.377085 0.201662 0.0566379
-0.371542 0.2016 0.0599368
-0.367037 0.201076 0.0629243
-0.361834 0.200545 0.0663435
-0.357807 0.200425 0.0675189
-0.352686 0.200016 0.068808
-0.348116 0.20066 0.070008
-0.343622 0.200201 0.0714126
-0.33963 0.199895 0.0707546
-0.335221 0.200072 0.069626
-0.330719 0.200461 0.0707209
-0.325402 0.200154 0.0753291
-0.320491 0.199122 0.0788056
-0.315481 0.198473 0.0833836
-0.310184 0.198311 0.0906326
-0.305244 0.197365 0.0934013
-0.297948 0.19557 0.114666
-0.293281 0.195172 0.115911
-0.289185 0.195317 0.115713
-0.284715 0.195516 0.116043
-0.280151 0.195356 0.116019
-0.276288 0.195347 0.116835
-0.271993 0.195424 0.116408
-0.267085 0.195271 0.120087
-0.262471 0.194839 0.123509
-0.258087 0.19459 0.125961
-0.253225 0.193788 0.128414
-0.248496 0.193795 0.130369
-0.244368 0.193994 0.132886
-0.239388 0.193515 0.135591
-0.235657 0.193115 0.137139
-0.230676 0.192265 0.14055
-0.226317 0.193136 0.141829
-0.221526 0.192176 0.145076
-0.217167 0.192704 0.148637
-0.213076 0.191996 0.150379
-0.208685 0.191679 0.151354
-0.203972 0.191598 0.152512
-0.199848 0.191868 0.15134
-0.195876 0.191726 0.153379
-0.191764 0.19161 0.153184
-0.18728 0.191891 0.153756
-0.183188 0.191592 0.154051
-0.178903 0.191794 0.152893
-0.17515 0.191754 0.152348
-0.170741 0.191302 0.154549
-0.166463 0.191156 0.154532
-0.162106 0.191848 0.153675
-0.158244 0.191359 0.153549
-0.154165 0.191462 0.153362
-0.149914 0.191845 0.152906
-0.145714 0.19175 0.154202
-0.141732 0.191294 0.154531
-0.137371 0.191872 0.155566
-0.133225 0.19089 0.158132
-0.128367 0.191253 0.162375
-0.123919 0.18983 0.169535
-0.119466 0.189376 0.174113
-0.11526 0.189018 0.177169
-0.11039 0.187961 0.190179
-0.105745 0.187456 0.196282
-0.101613 0.186531 0.199085
-0.0970837 0.186428 0.202277
-0.0926689 0.186026 0.207276
-0.0888829 0.185748 0.210858
-0.084681 0.185523 0.212299
-0.0800954 0.185318 0.215258
-0.0762647 0.185227 0.215214
-0.0721913 0.184971 0.217349
-0.0682741 0.18488 0.220419
-0.0641216 0.184662 0.222975
-0.0601895 0.184003 0.224973
-0.0557965 0.183829 0.226216
-0.0518658 0.183917 0.227463
-0.0474866 0.183824 0.230247
-0.0440921 0.183398 0.230855
-0.0398668 0.183651 0.232918
-0.0358147 0.183301 0.234912
-0.0318945 0.18314 0.236283
-0.027563 0.182464 0.238012
-0.0240412 0.182649 0.240173
-0.0198641 0.182459 0.241163
-0.0161305 0.182165 0.241731
-0.0118515 0.181757 0.245245
-0.00782603 0.181846 0.246448
-0.00367661 0.181707 0.246839
0.000114039 0.181857 0.247934
0.00388505 0.181793 0.248593
0.00752415 0.181927 0.249761
0.0121103 0.181709 0.248347
0.0161586 0.181594 0.249769
0.0197744 0.18191 0.248827
0.0237408 0.181506 0.247917
0.0275259 0.181971 0.245731
0.0315607 0.182417 0.24442
0.0358432 0.182046 0.245221
0.039444 0.182087 0.245646
0.0437119 0.182356 0.246363
0.0475674 0.181939 0.245461
0.0512418 0.182307 0.245156
0.0552799 0.182252 0.243631
0.0596239 0.182104 0.24244
0.0633816 0.18259 0.241201
0.0673747 0.183048 0.238723
0.07161 0.183054 0.236432
0.0759067 0.183156 0.235393
0.0795484 0.183036 0.235849
0.0834661 0.18313 0.235522
0.0875341 0.183173 0.234062
0.0919524 0.18372 0.232489
0.0957968 0.183824 0.229707
0.100388 0.184785 0.21922
0.105026 0.185884 0.210406
0.109096 0.185223 0.212093
0.112901 0.184926 0.216247
0.116481 0.184918 0.219005
0.120583 0.184813 0.218259
0.124849 0.185199 0.216587
0.128957 0.185522 0.212955
0.134362 0.18622 0.203657
0.138084 0.186668 0.200704
0.142138 0.186544 0.198096
0.146561 0.187224 0.196893
0.151041 0.187374 0.192839
0.155411 0.187782 0.18876
0.159568 0.188738 0.184525
0.164299 0.189018 0.175902
0.168844 0.189389 0.173379
0.173371 0.190167 0.165432
0.178623 0.19081 0.159249
0.183277 0.191765 0.151784
0.188417 0.192458 0.144029
0.193095 0.193034 0.137709
0.199779 0.195256 0.117247
0.204771 0.196113 0.108799
0.221521 0.208471 -0.00584054
0.226726 0.208782 -0.0107086
0.232028 0.209598 -0.0176971
0.237025 0.209972 -0.0229392
0.243085 0.21107 -0.0344296
0.249515 0.212586 -0.0500488
0.256721 0.214797 -0.0701041
0.263959 0.216844 -0.0893745
0.269298 0.217295 -0.0953319
0.274648 0.218034 -0.101615
0.280098 0.218666 -0.107889
0.295383 0.22666 -0.183244
0.301221 0.226937 -0.18884
0.307202 0.227883 -0.196496
0.313645 0.22872 -0.204717
0.319482 0.229533 -0.213073
-0.416043 0.210232 0.0169449
-0.409243 0.209218 0.0262673
-0.402882 0.207548 0.0375884
-0.396875 0.207406 0.0431701
-0.392173 0.206816 0.0471599
-0.386431 0.206313 0.0527916
-0.38088 0.205887 0.0587609
-0.376008 0.205339 0.0619569
-0.371756 0.205383 0.0626168
-0.366696 0.204757 0.0662133
-0.361117 0.204658 0.0699683
-0.356825 0.204244 0.0714896
-0.352207 0.204345 0.0718836
-0.347393 0.204046 0.0728046
-0.342984 0.204149 0.0747632
-0.339266 0.204175 0.073826
-0.334333 0.203908 0.0740988
-0.329458 0.20416 0.0766098
-0.324596 0.203959 0.081091
-0.319433 0.202984 0.0850431
-0.314514 0.202109 0.0896593
-0.309268 0.201767 0.0949254
-0.30414 0.201127 0.101423
-0.296971 0.199119 0.120226
-0.292501 0.199696 0.12093
-0.288431 0.199539 0.119295
-0.284193 0.199184 0.119319
-0.279622 0.19956 0.121085
-0.275325 0.199008 0.120189
-0.271235 0.198744 0.119647
-0.2664 0.198813 0.124671
-0.262016 0.19819 0.127177
-0.25725 0.198049 0.129631
-0.252672 0.198185 0.132303
-0.248316 0.197835 0.132462
-0.244 0.197841 0.135581
-0.239161 0.197269 0.1379
-0.23496 0.196822 0.139974
-0.230564 0.196471 0.14212
-0.226116 0.196449 0.144087
-0.221631 0.196635 0.146378
-0.217009 0.196433 0.150675
-0.212465 0.195682 0.152263
-0.208291 0.195595 0.153164
-0.20444 0.195606 0.153146
-0.200169 0.195548 0.154409
-0.195459 0.195597 0.153989
-0.191518 0.195452 0.155359
-0.187184 0.195647 0.155867
-0.182867 0.195702 0.154764
-0.17916 0.195418 0.154892
-0.174929 0.19522 0.15497
-0.170522 0.195439 0.155457
-0.166115 0.194844 0.156479
-0.161706 0.195138 0.155417
-0.158209 0.19571 0.154085
-0.153833 0.195803 0.155105
-0.149804 0.195578 0.156032
-0.145483 0.195283 0.155861
-0.141343 0.195118 0.156459
-0.137146 0.195207 0.156699
-0.132982 0.195392 0.159828
-0.128172 0.194679 0.164021
-0.123498 0.193735 0.171905
-0.119698 0.193255 0.174716
-0.115298 0.192917 0.178087
-0.110246 0.191842 0.192593
-0.105328 0.191105 0.197816
-0.101233 0.191021 0.200866
-0.0973108 0.190604 0.204249
-0.0931424 0.190193 0.207241
-0.0888622 0.189577 0.211553
-0.0844629 0.189393 0.213584
-0.0805231 0.18886 0.214248
-0.0762589 0.188984 0.215849
-0.0724407 0.188687 0.217549
-0.068133 0.188697 0.222516
-0.0639639 0.188053 0.224095
-0.0603716 0.187983 0.225972
-0.0559398 0.187909 0.226776
-0.0522216 0.187928 0.227735
-0.0479819 0.187646 0.229237
-0.0438442 0.187613 0.231088
-0.0398012 0.187153 0.233689
-0.0356278 0.186887 0.236624
-0.0317087 0.186666 0.23963
-0.0278799 0.186387 0.24073
-0.0237996 0.186284 0.242245
-0.0198868 0.186043 0.242231
-0.015566 0.186449 0.243299
-0.0124194 0.186225 0.245393
-0.00786997 0.185894 0.246951
-0.00416572 0.1856 0.248038
-3.71732e-05 0.185612 0.248137
0.00372212 0.185719 0.249318
0.0080835 0.18553 0.24963
0.0119422 0.185577 0.249952
0.015918 0.185428 0.250187
0.0197658 0.185622 0.250364
0.0237053 0.1858 0.249319
0.0276674 0.186089 0.246917
0.0315197 0.185908 0.245223
0.0355543 0.186048 0.245778
0.0394468 0.185625 0.246681
0.0431968 0.185443 0.247093
0.0478167 0.186073 0.245322
0.0517329 0.185913 0.245195
0.0553396 0.185838 0.244719
0.0594493 0.186329 0.243383
0.063376 0.18665 0.242053
0.0676436 0.186786 0.240215
0.0715882 0.186828 0.237368
0.0752917 0.187054 0.237148
0.0795115 0.187234 0.235361
0.0834022 0.187538 0.233716
0.0875682 0.187283 0.234317
0.0918406 0.187079 0.233439
0.0954325 0.187429 0.231971
0.0997671 0.187575 0.229569
0.103917 0.188119 0.226731
0.108507 0.188584 0.219044
0.112419 0.188793 0.22105
0.116068 0.188514 0.220627
0.120297 0.188764 0.219811
0.124334 0.189008 0.216972
0.129005 0.189403 0.210831
0.133401 0.190163 0.205968
0.138223 0.190527 0.202651
0.142001 0.190458 0.200708
0.146127 0.19108 0.19716
0.150879 0.191868 0.192283
0.155265 0.191927 0.189301
0.159515 0.192224 0.185846
0.164397 0.19322 0.17753
0.168971 0.193759 0.174313
0.173683 0.194434 0.166693
0.178616 0.194956 0.160249
0.183325 0.195844 0.155184
0.188311 0.196365 0.144526
0.192967 0.197401 0.138366
0.198971 0.199249 0.120336
0.204432 0.199763 0.113932
0.221726 0.212956 -0.00551057
0.226627 0.213191 -0.00900221
0.231757 0.214135 -0.0162845
0.236829 0.214432 -0.0215929
0.242765 0.215737 -0.0325885
0.249883 0.217289 -0.0512285
0.256497 0.219686 -0.0709743
0.263987 0.221685 -0.0902555
0.269595 0.222176 -0.0964267
0.275251 0.223111 -0.102997
0.290205 0.231373 -0.177488
0.295351 0.231487 -0.180127
0.300305 0.231387 -0.1824
0.30612 0.23235 -0.188151
0.312401 0.232913 -0.19557
0.318624 0.233931 -0.205614
-0.419441 0.213682 0.022554
-0.412872 0.213064 0.0300326
-0.407723 0.2131 0.0359116
-0.4017 0.211744 0.0426257
-0.395664 0.211447 0.0497333
-0.391349 0.210822 0.0515965
-0.384852 0.210381 0.0592721
-0.380775 0.21008 0.0621649
-0.375316 0.209244 0.0653732
-0.370616 0.209061 0.0672057
-0.365488 0.208616 0.0710247
-0.360865 0.208659 0.0736253
-0.355939 0.208368 0.0752463
-0.35182 0.2078 0.0748152
-0.347187 0.208289 0.0760195
-0.34261 0.207886 0.0760895
-0.337944 0.207915 0.0787739
-0.333639 0.207849 0.0788816
-0.328421 0.207509 0.0819691
-0.324223 0.20731 0.0848411
-0.318588 0.206823 0.0912342
-0.313712 0.206025 0.0950463
-0.308391 0.205758 0.0988818
-0.301551 0.203569 0.117724
-0.295817 0.203092 0.124013
-0.29187 0.202834 0.123614
-0.288141 0.203119 0.121514
-0.283899 0.203364 0.122885
-0.279635 0.203194 0.123439
-0.275319 0.203264 0.123684
-0.271124 0.202832 0.123439
-0.266342 0.202969 0.126816
-0.261508 0.202594 0.130406
-0.256683 0.202134 0.132888
-0.252805 0.202372 0.13308
-0.248226 0.202079 0.135625
-0.243416 0.201179 0.137676
-0.23965 0.201237 0.139443
-0.234681 0.201135 0.142526
-0.230281 0.20108 0.144433
-0.22582 0.20086 0.146351
-0.221257 0.200532 0.147822
-0.216504 0.200173 0.151531
-0.212196 0.19967 0.154284
-0.208009 0.199816 0.155287
-0.203848 0.199767 0.154558
-0.199758 0.199955 0.154354
-0.195694 0.199841 0.155149
-0.191397 0.199659 0.1574
-0.186939 0.199537 0.157635
-0.182819 0.199747 0.155605
-0.178488 0.199665 0.154914
-0.174719 0.199625 0.156304
-0.170326 0.199423 0.157379
-0.16661 0.199452 0.156632
-0.16226 0.199634 0.156884
-0.157986 0.199669 0.156783
-0.153502 0.199311 0.157531
-0.149909 0.199481 0.157137
-0.145352 0.199542 0.156372
-0.141829 0.199629 0.158106
-0.137491 0.199422 0.157918
-0.13232 0.199281 0.160612
-0.128388 0.198923 0.164417
-0.123523 0.197695 0.174036
-0.11926 0.197301 0.177043
-0.114939 0.197155 0.18069
-0.110235 0.195329 0.193574
-0.105696 0.195152 0.199048
-0.10138 0.194385 0.203257
-0.0969961 0.194097 0.206868
-0.0925589 0.193774 0.210064
-0.0890923 0.193551 0.213386
-0.0843261 0.19323 0.214704
-0.0805941 0.193017 0.21574
-0.0764232 0.193106 0.216581
-0.0723428 0.192853 0.21963
-0.0681439 0.192359 0.223083
-0.0641121 0.192502 0.22454
-0.0596726 0.191843 0.226998
-0.0557144 0.191885 0.227829
-0.052401 0.191937 0.228114
-0.047621 0.191743 0.230669
-0.0439897 0.191472 0.23203
-0.0397139 0.191291 0.234521
-0.0359551 0.190669 0.237251
-0.0315116 0.19053 0.239998
-0.0278994 0.19026 0.241088
-0.0241555 0.190454 0.241964
-0.0196173 0.190124 0.242948
-0.0150667 0.190525 0.244329
-0.012035 0.189606 0.246209
-0.00808759 0.189504 0.247659
-0.00412671 0.189658 0.249791
1.33485e-05 0.189316 0.25038
0.00372621 0.189443 0.249846
0.0079002 0.18933 0.250022
0.0118537 0.189075 0.25081
0.0159235 0.189002 0.25009
0.0196457 0.189487 0.251603
0.0237049 0.189725 0.251121
0.0273623 0.189642 0.248827
0.0317455 0.190159 0.245901
0.0358 0.189854 0.246425
0.0397441 0.189648 0.245986
0.0433176 0.189768 0.246728
0.0474849 0.190022 0.245774
