ply
format ascii 1.0
element vertex 1675
property float x
property float y
property float z
end_header
0.0724327 -0.446042 0.308243
0.0766046 -0.44823 0.301714
0.0805555 -0.449065 0.297781
0.0847411 -0.45029 0.294114
0.0886184 -0.451296 0.28959
0.0924645 -0.452195 0.286231
0.0967371 -0.452886 0.282719
0.100832 -0.453977 0.279758
0.105005 -0.455377 0.27402
0.1093 -0.45676 0.26885
0.113388 -0.458067 0.264262
0.117978 -0.459678 0.258187
0.121936 -0.460253 0.254959
0.126047 -0.461185 0.251478
0.130491 -0.462913 0.245969
0.135051 -0.463844 0.241498
0.139203 -0.465565 0.236679
0.14332 -0.466183 0.232774
0.148339 -0.468298 0.225398
0.152496 -0.469782 0.219347
0.157453 -0.471755 0.211523
0.163807 -0.478297 0.18829
-0.0159157 -0.456556 0.255173
-0.0118211 -0.455826 0.257397
-0.00790579 -0.455391 0.26004
-0.00378634 -0.454374 0.262183
-0.000154124 -0.454294 0.264585
0.0038765 -0.453821 0.265684
0.00775637 -0.450386 0.278699
0.0113427 -0.447404 0.288917
0.0156085 -0.446876 0.29164
0.0191727 -0.446321 0.293736
0.0230906 -0.446296 0.293787
0.0269001 -0.446614 0.294013
0.0310764 -0.44603 0.294197
0.0348623 -0.445773 0.295262
0.0383528 -0.445882 0.295974
0.0422212 -0.445012 0.298821
0.0457635 -0.443305 0.306071
0.0501691 -0.44229 0.308718
0.0532739 -0.441885 0.310784
0.0572025 -0.441848 0.311526
0.0608203 -0.442304 0.308985
0.0650241 -0.442908 0.307487
0.0687694 -0.444019 0.303135
0.073029 -0.44449 0.30133
0.077193 -0.445149 0.297886
0.0804768 -0.445874 0.295572
0.0848575 -0.447282 0.290901
0.0891842 -0.448317 0.285876
0.0926713 -0.448705 0.285024
0.0972802 -0.449731 0.28099
0.10113 -0.450623 0.277593
0.104822 -0.451532 0.274314
0.109497 -0.452644 0.269314
0.113107 -0.453874 0.265984
0.117743 -0.455119 0.26044
0.121978 -0.456171 0.25628
0.126413 -0.457539 0.25113
0.130546 -0.458675 0.246847
0.134348 -0.459737 0.242112
0.138931 -0.461052 0.237311
0.143709 -0.462932 0.230133
0.147685 -0.463831 0.226569
0.152376 -0.465702 0.219344
0.157866 -0.46867 0.209897
0.163797 -0.474875 0.184729
-0.0117552 -0.453515 0.251941
-0.00771077 -0.451803 0.257472
-0.00391683 -0.451688 0.2598
-0.000193636 -0.451249 0.260883
0.00345193 -0.450618 0.261369
0.00824528 -0.450351 0.263458
0.0118831 -0.445643 0.282511
0.0156461 -0.44401 0.287241
0.0192083 -0.443728 0.289557
0.0230987 -0.443113 0.290042
0.0269502 -0.443134 0.290963
0.0309378 -0.443036 0.292061
0.0345024 -0.442463 0.293098
0.0382471 -0.442605 0.294575
0.042347 -0.442416 0.294561
0.0456549 -0.440059 0.302518
0.0496789 -0.43923 0.304894
0.0537469 -0.439295 0.305126
0.0572723 -0.439685 0.304335
0.0614866 -0.439932 0.303947
0.0646807 -0.440484 0.301849
0.0689347 -0.441186 0.298516
0.0731886 -0.442017 0.296786
0.0769904 -0.442451 0.294256
0.0808643 -0.44257 0.292457
0.0850266 -0.444028 0.288219
0.0892176 -0.445056 0.283906
0.0929071 -0.445355 0.282847
0.096804 -0.446491 0.280078
0.101522 -0.44749 0.275869
0.105453 -0.448003 0.272323
0.109198 -0.448576 0.269881
0.113724 -0.449402 0.266366
0.117771 -0.450743 0.260926
0.121958 -0.452023 0.256137
0.12653 -0.453357 0.252046
0.130535 -0.454984 0.246634
0.134729 -0.45635 0.241019
0.139171 -0.457283 0.236391
0.143699 -0.459041 0.230424
0.148415 -0.46084 0.223955
0.152736 -0.462287 0.218053
0.157981 -0.465067 0.206385
-0.0077576 -0.449374 0.251507
-0.00389766 -0.449147 0.254076
-1.41401e-05 -0.44826 0.255651
0.00373333 -0.448154 0.257819
0.00747853 -0.447685 0.259117
0.0116178 -0.44726 0.260277
0.0153662 -0.44169 0.280994
0.0191417 -0.441041 0.283235
0.0230283 -0.440653 0.286256
0.0270316 -0.440386 0.286435
0.0306521 -0.439969 0.288901
0.0347035 -0.439811 0.288724
0.0387266 -0.439579 0.290575
0.0422027 -0.43965 0.291203
0.0457349 -0.439357 0.291234
0.0501889 -0.437667 0.297837
0.05362 -0.437343 0.298728
0.057666 -0.43728 0.298827
0.0616787 -0.437456 0.297991
0.065014 -0.438006 0.296028
0.0694993 -0.438882 0.293565
0.0731794 -0.439 0.291737
0.077061 -0.439596 0.290096
0.0809029 -0.440085 0.288311
0.0850572 -0.440599 0.28671
0.0889327 -0.441112 0.283978
0.0932628 -0.441983 0.281206
0.0970187 -0.442751 0.277785
0.101356 -0.443682 0.273514
0.105163 -0.444632 0.270789
0.108998 -0.445229 0.268038
0.11371 -0.446115 0.264909
0.117825 -0.447042 0.261377
0.122091 -0.448542 0.25619
0.12628 -0.449395 0.251692
0.130633 -0.450802 0.246595
0.135246 -0.452329 0.240165
0.139453 -0.453763 0.235357
0.144299 -0.455651 0.227906
0.148338 -0.456502 0.22342
0.152537 -0.458585 0.216863
0.15747 -0.461104 0.206146
-0.00399793 -0.448576 0.240078
0.000254285 -0.446128 0.248688
0.00395306 -0.44539 0.253688
0.00803545 -0.44461 0.255035
0.0120145 -0.443953 0.257798
0.0159428 -0.443197 0.260686
0.0191014 -0.439355 0.276106
0.0228695 -0.437922 0.281526
0.0274113 -0.437363 0.284266
0.0310849 -0.436789 0.285155
0.0345494 -0.43693 0.28518
0.0388775 -0.437646 0.283238
0.0426424 -0.437496 0.284346
0.0463159 -0.437146 0.285213
0.049984 -0.436159 0.288399
0.0536804 -0.435797 0.291341
0.0574671 -0.435288 0.292188
0.0616053 -0.435061 0.291803
0.0656216 -0.435616 0.290655
0.0695319 -0.435995 0.289076
0.0734112 -0.436399 0.28795
0.077279 -0.436604 0.286333
0.0813214 -0.436914 0.285169
0.0852157 -0.437419 0.283352
0.0888068 -0.437563 0.282462
0.0932961 -0.438909 0.277137
0.097265 -0.439296 0.27589
0.101193 -0.440408 0.272113
0.105517 -0.441233 0.268778
0.109278 -0.441541 0.266582
0.113817 -0.442652 0.263044
0.117352 -0.443249 0.260642
0.121789 -0.444245 0.255734
0.125534 -0.445316 0.252306
0.130924 -0.446853 0.246488
0.13475 -0.448407 0.240731
0.139597 -0.449784 0.234049
0.143882 -0.451059 0.229007
0.148057 -0.452833 0.223187
0.153572 -0.455232 0.21265
0.158685 -0.459388 0.196639
3.41251e-05 -0.446424 0.232952
0.00408013 -0.441535 0.250619
0.00741567 -0.441437 0.252951
0.0116781 -0.440893 0.255334
0.0156234 -0.440561 0.254829
0.0194555 -0.43719 0.270603
0.0232518 -0.435733 0.275297
0.0271339 -0.434686 0.278082
0.0309507 -0.434702 0.279549
0.0347729 -0.434905 0.279046
0.038667 -0.434705 0.278412
0.0424848 -0.434417 0.279755
0.0467492 -0.434418 0.280466
0.0507911 -0.433659 0.282502
0.0543604 -0.433441 0.284582
0.0582712 -0.43283 0.285241
0.0614729 -0.432873 0.285768
0.065397 -0.43303 0.285024
0.0699513 -0.433388 0.285119
0.0736446 -0.43349 0.283946
0.0774918 -0.433636 0.284697
0.0814231 -0.433452 0.282926
0.0854953 -0.434429 0.280524
0.0890173 -0.434593 0.279547
0.093484 -0.435367 0.27514
0.0974329 -0.436239 0.273716
0.101365 -0.436876 0.27054
0.105175 -0.437797 0.26693
0.109544 -0.438337 0.265086
0.114008 -0.438943 0.261278
0.118073 -0.440498 0.257801
0.122212 -0.440886 0.254446
0.126169 -0.442055 0.250126
0.130781 -0.442982 0.245191
0.135216 -0.444809 0.238583
0.139158 -0.446303 0.233897
0.143825 -0.447082 0.229239
0.148722 -0.44907 0.221174
0.153529 -0.451924 0.211072
0.00786605 -0.438862 0.248057
0.0120801 -0.438709 0.246433
0.0159522 -0.438457 0.247994
0.0196409 -0.437671 0.252704
0.0235412 -0.437639 0.251836
0.0272708 -0.434435 0.265439
0.0308226 -0.433725 0.268683
0.0353635 -0.432744 0.271257
0.0389404 -0.432528 0.272186
0.0423928 -0.432173 0.273353
0.0470608 -0.432248 0.273613
0.0507316 -0.431834 0.274023
0.0541227 -0.43158 0.276674
0.0581014 -0.430557 0.280291
0.062231 -0.43061 0.279662
0.0661019 -0.430548 0.280734
0.0695791 -0.430268 0.280824
0.0736504 -0.430215 0.281548
0.0775334 -0.430255 0.281178
0.0815062 -0.430468 0.279767
0.0855765 -0.431098 0.277314
0.0894238 -0.431662 0.27587
0.0932742 -0.43232 0.273546
0.0975451 -0.432828 0.27095
0.101655 -0.433562 0.267354
0.105549 -0.434122 0.265338
0.10949 -0.435038 0.261939
0.113967 -0.43616 0.258409
0.11805 -0.436671 0.254841
0.122145 -0.437863 0.25098
0.126757 -0.438682 0.248117
0.130691 -0.439977 0.242753
0.135079 -0.441147 0.237638
0.13969 -0.442634 0.231555
0.144006 -0.444019 0.226551
0.149004 -0.446157 0.217499
0.153924 -0.448857 0.206095
0.0238543 -0.437353 0.238551
0.0277247 -0.43553 0.242579
0.0316285 -0.434091 0.25021
0.0355595 -0.431464 0.261118
0.0393903 -0.430804 0.263218
0.0429281 -0.430517 0.263808
0.046977 -0.430063 0.265927
0.0509249 -0.430005 0.268148
0.0549027 -0.429513 0.269342
0.058606 -0.428551 0.27214
0.0622432 -0.42848 0.273584
0.066142 -0.428393 0.274099
0.0699287 -0.427316 0.275777
0.0734702 -0.427151 0.27797
0.0776639 -0.426542 0.278617
0.0813173 -0.427889 0.277709
0.0858092 -0.428481 0.273648
0.0898129 -0.428432 0.271892
0.0933878 -0.429453 0.269565
0.0973388 -0.429798 0.267412
0.101733 -0.430278 0.266548
0.105811 -0.430817 0.262898
0.109954 -0.431597 0.260449
0.114097 -0.432447 0.256472
0.117949 -0.433302 0.252713
0.122417 -0.434567 0.249511
0.126522 -0.43564 0.244754
0.130742 -0.43708 0.238874
0.135713 -0.438396 0.232425
0.139493 -0.439581 0.228879
0.144221 -0.44113 0.220888
0.149502 -0.443639 0.211892
0.154411 -0.446539 0.200063
0.0355566 -0.431689 0.243814
0.0396694 -0.42954 0.252527
0.0431982 -0.428891 0.255843
0.0472635 -0.428299 0.257936
0.0513279 -0.427249 0.261708
0.0547091 -0.426592 0.264478
0.0588625 -0.425894 0.265997
0.0625207 -0.425263 0.26948
0.0665319 -0.42536 0.27013
0.0698647 -0.424801 0.271079
0.0739799 -0.424603 0.273497
0.0777721 -0.424737 0.273423
0.0819268 -0.424542 0.272161
0.0858787 -0.425337 0.270118
0.089506 -0.425559 0.268791
0.0935639 -0.426106 0.267419
0.0973987 -0.426501 0.266519
0.102094 -0.426737 0.263963
0.10534 -0.427099 0.261745
0.109816 -0.427912 0.259936
0.114272 -0.428703 0.25584
0.118175 -0.429656 0.251809
0.122296 -0.430774 0.247267
0.12682 -0.431791 0.242897
0.131481 -0.433846 0.23508
0.135754 -0.435013 0.229096
0.140703 -0.437103 0.220547
0.144632 -0.439027 0.214561
0.149902 -0.441487 0.203961
0.0398938 -0.428737 0.239122
0.0437512 -0.42718 0.245826
0.0474804 -0.426549 0.249217
0.0512451 -0.425354 0.254618
0.0549796 -0.424778 0.256088
0.0587094 -0.423794 0.260052
0.0626725 -0.423009 0.263922
0.066353 -0.422765 0.265718
0.0704509 -0.422364 0.266071
0.0743147 -0.421608 0.266849
0.0780044 -0.421873 0.268822
0.0818923 -0.421903 0.268455
0.0858213 -0.422082 0.268042
0.089906 -0.422108 0.267649
0.0938922 -0.422213 0.265632
0.0976227 -0.422612 0.265458
0.102011 -0.422828 0.263889
0.105873 -0.423792 0.262032
0.109612 -0.42378 0.259873
0.113964 -0.424663 0.256291
0.118257 -0.425814 0.251232
0.12238 -0.426682 0.24796
0.126655 -0.427667 0.243187
0.131288 -0.430304 0.234767
0.13601 -0.431749 0.227959
0.14054 -0.433873 0.217713
0.146019 -0.437149 0.20511
0.0436246 -0.425859 0.236864
0.0475269 -0.424288 0.242582
0.051504 -0.42339 0.245901
0.0552152 -0.422549 0.249528
0.0588616 -0.421597 0.251899
0.0630258 -0.420684 0.257123
0.0668914 -0.419688 0.259811
0.0706166 -0.419679 0.260734
0.0742159 -0.418937 0.262891
0.0778628 -0.41906 0.264925
0.0819004 -0.418457 0.266826
0.0862297 -0.418142 0.266426
0.0899527 -0.418322 0.267548
0.0937602 -0.417891 0.266153
0.0980684 -0.418757 0.263948
0.101855 -0.419649 0.263239
0.105367 -0.419077 0.262682
0.109714 -0.420283 0.259672
0.114196 -0.421 0.255583
0.118067 -0.42151 0.252112
0.122335 -0.422449 0.248607
0.126688 -0.423775 0.243732
0.131453 -0.426151 0.235576
0.136083 -0.427656 0.228925
0.141107 -0.431169 0.213828
0.1469 -0.436181 0.192019
0.0478634 -0.422597 0.231744
0.0517732 -0.420859 0.238555
0.0556725 -0.419676 0.244563
0.0594964 -0.419101 0.247976
0.0632278 -0.417557 0.253044
0.0668343 -0.416704 0.256744
0.0707998 -0.416491 0.258481
0.0742451 -0.415751 0.260902
0.0786312 -0.415238 0.263668
0.0825383 -0.414566 0.265557
0.0858774 -0.414538 0.266046
0.0902105 -0.414666 0.265033
0.0936861 -0.414893 0.264897
0.0979333 -0.414922 0.264274
0.101581 -0.415446 0.263235
0.105923 -0.415585 0.260396
0.110325 -0.416901 0.258107
0.113606 -0.416859 0.256001
0.118526 -0.417944 0.251426
0.122504 -0.418682 0.248362
0.126997 -0.420465 0.24245
0.131281 -0.421402 0.236586
0.135901 -0.423313 0.230353
0.14105 -0.426594 0.215498
0.0515053 -0.417982 0.235014
0.0555226 -0.416277 0.241876
0.0593515 -0.415467 0.245859
0.063077 -0.414276 0.250248
0.0668525 -0.41335 0.253604
0.070238 -0.412876 0.25691
0.0749435 -0.41197 0.259004
0.078256 -0.411714 0.261539
0.0822612 -0.411067 0.263676
0.0860307 -0.410956 0.264205
0.0901095 -0.410973 0.264197
0.0942284 -0.411388 0.263705
0.097715 -0.411326 0.262682
0.101686 -0.41155 0.261493
0.105992 -0.411907 0.26027
0.110208 -0.412295 0.256987
0.114143 -0.413331 0.255112
0.117918 -0.414136 0.251872
0.12253 -0.41436 0.248716
0.126268 -0.415819 0.243846
0.131408 -0.417558 0.236337
0.135697 -0.418956 0.230533
0.140793 -0.422189 0.217963
0.169585 -0.495018 -0.0894446
0.174459 -0.494642 -0.0900333
0.0518579 -0.414193 0.234608
0.0555673 -0.412179 0.242503
0.0591483 -0.411398 0.245446
0.0630744 -0.410392 0.25031
0.0671188 -0.409753 0.253804
0.0704544 -0.408226 0.257028
0.0746308 -0.408918 0.258203
0.0783208 -0.407964 0.261212
0.0829177 -0.407562 0.262297
0.0859575 -0.407652 0.262764
0.0899752 -0.407926 0.262648
0.0940535 -0.407496 0.262129
0.0979582 -0.407542 0.261406
0.10152 -0.407957 0.261024
0.105814 -0.407986 0.259586
0.110099 -0.408859 0.256807
0.114006 -0.409571 0.254342
0.118441 -0.410254 0.252003
0.122842 -0.411335 0.246577
0.126534 -0.411982 0.242876
0.131381 -0.413585 0.236571
0.135616 -0.414273 0.231954
0.140371 -0.418026 0.220493
0.169533 -0.488904 -0.086323
0.174211 -0.489563 -0.0877013
0.178734 -0.489841 -0.0881169
0.183692 -0.490624 -0.0914204
0.18957 -0.491808 -0.0972013
0.0289144 -0.4959 -0.135888
0.0336392 -0.495735 -0.133827
0.038805 -0.495092 -0.130899
0.0431975 -0.495082 -0.129743
0.0479287 -0.494293 -0.126746
0.052244 -0.493682 -0.125293
0.0573626 -0.493558 -0.123402
0.0518001 -0.409373 0.236917
0.055083 -0.408034 0.243668
0.059174 -0.406858 0.248605
0.06315 -0.405902 0.253158
0.0669296 -0.405213 0.25633
0.0708949 -0.404429 0.258572
0.0740798 -0.40427 0.25975
0.0784317 -0.404329 0.260579
0.0827518 -0.40374 0.262423
0.0861645 -0.403354 0.262975
0.0900035 -0.403776 0.262661
0.0939964 -0.403671 0.261805
0.0978978 -0.403786 0.261145
0.101835 -0.403976 0.260081
0.106075 -0.404631 0.258343
0.109938 -0.405273 0.256274
0.11412 -0.405555 0.254212
0.118589 -0.406665 0.250071
0.122931 -0.407196 0.24731
0.127055 -0.408741 0.241233
0.131418 -0.409698 0.236573
0.135636 -0.410666 0.231029
0.140271 -0.413903 0.219217
0.169192 -0.484458 -0.0853744
0.174492 -0.484524 -0.0865989
0.178477 -0.484568 -0.0869443
0.183638 -0.486083 -0.0900822
0.188796 -0.486299 -0.0929885
0.19402 -0.487727 -0.0990059
0.199598 -0.490046 -0.110115
0.019347 -0.490969 -0.1334
0.0240565 -0.490051 -0.130878
0.0287571 -0.489775 -0.129141
0.0336945 -0.489639 -0.126992
0.0381725 -0.489199 -0.126723
0.0433712 -0.48889 -0.125452
0.0481992 -0.488354 -0.123662
0.0529188 -0.488422 -0.122563
0.0475903 -0.406312 0.232798
0.0517568 -0.404847 0.241347
0.0555924 -0.403429 0.247193
0.0589536 -0.402165 0.251951
0.0628043 -0.400963 0.25692
0.0663421 -0.4007 0.258281
0.0705526 -0.400328 0.260082
0.0744937 -0.400092 0.261206
0.0778764 -0.399366 0.262576
0.0821507 -0.399315 0.265148
0.0862116 -0.398918 0.265025
0.0902736 -0.399221 0.262701
0.0941987 -0.399832 0.261746
0.0979577 -0.399857 0.261266
0.101678 -0.399938 0.261526
0.105951 -0.400287 0.259605
0.109739 -0.400942 0.257698
0.114263 -0.401903 0.254663
0.118621 -0.402029 0.251367
0.122373 -0.403123 0.247813
0.126951 -0.404664 0.241255
0.131125 -0.405572 0.236882
0.135829 -0.407174 0.229641
0.140644 -0.410068 0.217817
0.169216 -0.479389 -0.0846479
0.174505 -0.479478 -0.0853479
0.178417 -0.479806 -0.0862138
0.183998 -0.480249 -0.088232
0.188758 -0.481253 -0.0915058
0.194199 -0.482678 -0.0986512
0.199822 -0.486565 -0.114489
0.00508784 -0.490425 -0.151963
0.009775 -0.488345 -0.145325
0.0145444 -0.486111 -0.135534
0.0193154 -0.485595 -0.132222
0.0241414 -0.485391 -0.12996
0.0283948 -0.485078 -0.129024
0.0335616 -0.484416 -0.126685
0.0379237 -0.484315 -0.125724
0.0435678 -0.483473 -0.124266
0.0477713 -0.483154 -0.122447
0.0435131 -0.401651 0.236664
0.0476361 -0.400576 0.240775
0.0514528 -0.399884 0.24473
0.0552996 -0.398444 0.250204
0.0590666 -0.398007 0.254168
0.062726 -0.39676 0.258742
0.0664334 -0.396502 0.260206
0.070768 -0.396017 0.261416
0.074554 -0.395852 0.261853
0.0779897 -0.395064 0.265179
0.0822329 -0.395191 0.26692
0.0860441 -0.394863 0.266924
0.0898845 -0.394992 0.265719
0.0941302 -0.395763 0.262632
0.0977759 -0.395847 0.262696
0.101828 -0.395751 0.262815
0.106081 -0.395986 0.261712
0.109569 -0.396173 0.260138
0.113834 -0.396958 0.257512
0.118258 -0.398107 0.254185
0.122011 -0.398787 0.250121
0.126697 -0.399781 0.244751
0.131243 -0.401161 0.2388
0.135623 -0.402057 0.23316
0.140533 -0.405915 0.218909
0.16932 -0.474782 -0.0851903
0.173587 -0.475105 -0.0852795
0.17854 -0.475413 -0.086385
0.183552 -0.475446 -0.0880551
0.188792 -0.476184 -0.0924025
0.193982 -0.477568 -0.0972555
-0.00997086 -0.486454 -0.157324
-0.00494631 -0.485617 -0.152779
-6.20408e-05 -0.485331 -0.150562
0.00506868 -0.484258 -0.147431
0.00982995 -0.482873 -0.141362
0.0143586 -0.481379 -0.134293
0.0195072 -0.481208 -0.131757
0.0237088 -0.480321 -0.130086
0.0287135 -0.479988 -0.128601
0.0331677 -0.479768 -0.12671
0.0384846 -0.479492 -0.125295
0.042897 -0.479138 -0.124227
0.0477624 -0.479105 -0.124423
0.0437694 -0.396562 0.240514
0.0477076 -0.395886 0.24354
0.0512262 -0.395151 0.248279
0.0552317 -0.394067 0.252011
0.0590587 -0.39375 0.256078
0.0627926 -0.392541 0.258698
0.0667024 -0.392397 0.260617
0.0705491 -0.391999 0.26228
0.0746644 -0.391443 0.263184
0.0780764 -0.391001 0.266657
0.0818364 -0.390844 0.26697
0.0860455 -0.390949 0.267086
0.0902959 -0.391561 0.265494
0.0943127 -0.391317 0.263867
0.0982446 -0.391562 0.262568
0.101962 -0.391905 0.263259
0.105916 -0.391946 0.262632
0.109967 -0.392404 0.260802
0.113832 -0.391942 0.26027
0.117562 -0.39263 0.258161
0.12189 -0.393149 0.255723
0.12631 -0.395159 0.2488
0.130484 -0.395769 0.244241
0.135012 -0.396688 0.239252
0.139706 -0.399921 0.227451
0.169364 -0.470981 -0.0868459
0.174255 -0.470786 -0.0883484
0.179067 -0.47089 -0.0877175
0.184337 -0.471276 -0.0902667
0.188828 -0.471845 -0.0918493
0.194271 -0.473121 -0.0978031
0.19988 -0.475309 -0.107247
-0.0489322 -0.486073 -0.178096
-0.044038 -0.486445 -0.176319
-0.0391536 -0.484982 -0.173285
-0.034122 -0.48481 -0.170823
-0.0293892 -0.483221 -0.166616
-0.0245299 -0.483406 -0.163554
-0.0189135 -0.482287 -0.159757
-0.0149562 -0.481643 -0.156996
-0.00986868 -0.480921 -0.154275
-0.00487917 -0.479859 -0.150334
-0.000116118 -0.480153 -0.150255
0.00478585 -0.479445 -0.147453
0.00980595 -0.478188 -0.140861
0.0145187 -0.476404 -0.133995
0.0190671 -0.475848 -0.131596
0.0241535 -0.475711 -0.129371
0.028655 -0.474821 -0.128174
0.0332413 -0.474841 -0.125932
0.0385341 -0.474275 -0.124348
0.0431756 -0.474562 -0.124816
0.039329 -0.393626 0.235736
0.0437487 -0.393002 0.240459
0.0476913 -0.39206 0.24384
0.0513978 -0.391044 0.249867
0.0552729 -0.390168 0.253979
0.0590722 -0.389049 0.257476
0.0628313 -0.388644 0.259942
0.0665251 -0.388067 0.261198
0.070364 -0.387964 0.262036
0.0743123 -0.387935 0.262833
0.0784522 -0.387668 0.265301
0.0819893 -0.387116 0.26682
0.0866424 -0.386935 0.266845
0.0900646 -0.387186 0.26482
0.0937876 -0.387387 0.263526
0.0981311 -0.38769 0.26332
0.102022 -0.387826 0.263975
0.106008 -0.387948 0.262886
0.109582 -0.388047 0.262302
0.113895 -0.388254 0.261271
0.117885 -0.388208 0.260173
0.121857 -0.38883 0.257816
0.125756 -0.389448 0.254333
0.130594 -0.391148 0.24779
0.134742 -0.39222 0.243231
0.139684 -0.394298 0.234308
0.144365 -0.397121 0.222943
0.174577 -0.46671 -0.0897346
0.179422 -0.466575 -0.0893295
0.184149 -0.466799 -0.0908298
0.189564 -0.467791 -0.0947945
0.194154 -0.468636 -0.0988069
0.19945 -0.470311 -0.107487
-0.0492887 -0.481815 -0.178878
-0.0442378 -0.481054 -0.175544
-0.0389598 -0.479824 -0.171509
-0.0342452 -0.479281 -0.168041
-0.0292292 -0.478828 -0.164995
-0.0244065 -0.477755 -0.161815
-0.0191284 -0.477236 -0.158207
-0.0147187 -0.476201 -0.155801
-0.0091596 -0.475893 -0.153182
-0.00452725 -0.475024 -0.151446
-0.000523853 -0.47538 -0.149902
0.00461655 -0.474485 -0.146578
0.00973353 -0.473221 -0.141603
0.0144218 -0.471621 -0.134572
0.0192499 -0.4706 -0.131152
0.0243008 -0.470277 -0.128651
0.0286991 -0.469845 -0.127669
0.0333806 -0.470073 -0.126493
0.0384015 -0.470099 -0.1264
0.0436935 -0.469743 -0.125217
0.0397264 -0.389771 0.235461
0.0433962 -0.388664 0.240286
0.0472031 -0.388025 0.24462
0.0508324 -0.386843 0.249807
0.0548455 -0.385505 0.256272
0.058979 -0.384991 0.258886
0.0631155 -0.38476 0.260221
0.0665674 -0.384373 0.261485
0.0703466 -0.383733 0.263314
0.0744325 -0.383312 0.264709
0.0781855 -0.383617 0.263872
0.0825372 -0.383451 0.264171
0.085829 -0.383677 0.265066
0.0899923 -0.383564 0.264655
0.0938328 -0.383653 0.263897
0.0979555 -0.383627 0.263636
0.101925 -0.383862 0.264078
0.105345 -0.383508 0.264188
0.109742 -0.384273 0.262451
0.113442 -0.384317 0.262722
0.117618 -0.384261 0.261611
0.121634 -0.384766 0.259364
0.12586 -0.385686 0.255259
0.130031 -0.386368 0.251587
0.134497 -0.387862 0.245052
0.139223 -0.389209 0.237469
0.143911 -0.391629 0.228014
0.174753 -0.462451 -0.0906858
0.179482 -0.462081 -0.0907426
0.183979 -0.462427 -0.0935962
0.18855 -0.463085 -0.0952911
0.194314 -0.464534 -0.102301
-0.0494011 -0.476744 -0.181203
-0.0440586 -0.476171 -0.176981
-0.0391307 -0.475122 -0.172476
-0.0343832 -0.474643 -0.170061
-0.029256 -0.473612 -0.165987
-0.0243454 -0.472886 -0.162361
-0.0195321 -0.472124 -0.159012
-0.0152984 -0.471543 -0.157212
-0.00975827 -0.470899 -0.154959
-0.00490507 -0.470891 -0.151462
0.000423251 -0.470377 -0.149203
0.00450339 -0.470238 -0.147648
0.0101175 -0.468697 -0.141288
0.0147401 -0.467042 -0.135223
0.0193944 -0.466128 -0.13132
0.0241599 -0.465733 -0.128574
0.0287635 -0.465801 -0.128473
0.0332064 -0.465771 -0.127381
0.0383488 -0.465722 -0.128148
0.0435044 -0.46483 -0.12702
0.0398499 -0.388928 0.222729
0.0438827 -0.38387 0.245052
0.0468946 -0.383069 0.248926
0.0509886 -0.382203 0.252464
0.0547396 -0.381179 0.257096
0.0588809 -0.380848 0.259498
0.0625793 -0.381006 0.260523
0.066494 -0.380545 0.262217
0.0706216 -0.379199 0.265292
0.074355 -0.379137 0.265581
0.0779366 -0.379853 0.264217
0.0821184 -0.379971 0.263565
0.0861557 -0.379974 0.262919
0.0902336 -0.379438 0.26392
0.0941384 -0.380067 0.264334
0.0980036 -0.379509 0.264532
0.102344 -0.37984 0.263798
0.105883 -0.379732 0.264603
0.109573 -0.379648 0.26409
0.11377 -0.380233 0.262152
0.117147 -0.380516 0.261121
0.121662 -0.381162 0.25842
0.126111 -0.381343 0.25647
0.129803 -0.382306 0.251984
0.134531 -0.383773 0.245632
0.139259 -0.38574 0.23705
0.143788 -0.387597 0.228255
0.174751 -0.458093 -0.0927596
0.179635 -0.457877 -0.0929639
0.18427 -0.458247 -0.0946841
0.189476 -0.459189 -0.0989401
0.195184 -0.460403 -0.106856
-0.0391317 -0.471016 -0.176304
-0.03425 -0.469747 -0.171817
-0.029355 -0.469507 -0.167497
-0.0245087 -0.469197 -0.165259
-0.0197736 -0.468032 -0.161242
-0.0145303 -0.467147 -0.158741
-0.00941393 -0.466735 -0.155523
-0.00432028 -0.466191 -0.153495
0.000105163 -0.465865 -0.151634
0.0047789 -0.465528 -0.149392
0.00980492 -0.464119 -0.145661
0.0142526 -0.462715 -0.135836
0.0193612 -0.461695 -0.131948
0.0241376 -0.460995 -0.12961
0.0288446 -0.461006 -0.129644
0.0338353 -0.461145 -0.129507
0.0384981 -0.460437 -0.12776
0.0361841 -0.385794 0.217546
0.0396186 -0.383874 0.227777
0.0431507 -0.379067 0.249081
0.0471728 -0.378409 0.251049
0.0512359 -0.377901 0.254551
0.055289 -0.377109 0.257868
0.0587324 -0.376843 0.260153
0.0626808 -0.376374 0.261154
0.0668706 -0.375643 0.265456
0.0706372 -0.37556 0.264862
0.0746519 -0.375588 0.264668
0.0785084 -0.375754 0.264484
0.0821558 -0.37597 0.26281
0.0863449 -0.375758 0.264207
0.0903328 -0.375621 0.264452
0.0940493 -0.375424 0.265744
0.0981716 -0.375864 0.264831
0.101704 -0.375647 0.264426
0.105947 -0.375544 0.264076
0.109647 -0.375932 0.264083
0.113727 -0.375715 0.263987
0.117658 -0.376312 0.261264
0.121619 -0.376795 0.25892
0.126052 -0.377979 0.255207
0.130156 -0.378429 0.251793
0.134583 -0.379737 0.246132
0.139177 -0.381002 0.239878
0.143962 -0.383473 0.228171
0.174212 -0.453416 -0.093997
0.179826 -0.453862 -0.0970306
0.184586 -0.454584 -0.0970464
0.189726 -0.454895 -0.102912
0.19509 -0.457619 -0.112285
-0.0243235 -0.464852 -0.168475
-0.0190555 -0.463848 -0.163804
-0.0148048 -0.462852 -0.161289
-0.0093622 -0.462766 -0.159654
-0.00504992 -0.46154 -0.156475
-0.000205423 -0.461401 -0.154013
0.00519488 -0.461181 -0.151991
0.00999159 -0.460546 -0.149502
0.0143268 -0.458317 -0.139879
0.0194995 -0.456858 -0.134455
0.0238237 -0.45685 -0.132234
0.02907 -0.456959 -0.132066
0.0335357 -0.456631 -0.132184
0.0384955 -0.456451 -0.131301
0.0360508 -0.381578 0.21904
0.0393824 -0.375328 0.247139
0.0433832 -0.374814 0.250093
0.0474724 -0.374508 0.252079
0.0511648 -0.373756 0.254711
0.0546212 -0.373343 0.257625
0.0586292 -0.372145 0.261441
0.0631223 -0.371781 0.263937
0.0665395 -0.371763 0.264666
0.0702558 -0.371575 0.265938
0.0740295 -0.371756 0.265617
0.0786169 -0.371844 0.264669
0.082275 -0.371853 0.264001
0.0863399 -0.372064 0.264603
0.0897385 -0.371501 0.266181
0.0936626 -0.371517 0.265864
0.0979533 -0.371544 0.265199
0.102039 -0.371593 0.265343
0.105531 -0.371586 0.265391
0.109105 -0.371746 0.265703
0.113394 -0.371594 0.264471
0.117216 -0.371886 0.262393
0.121852 -0.373193 0.259103
0.126096 -0.373175 0.25637
0.130141 -0.374364 0.252461
0.133782 -0.375305 0.248815
0.138889 -0.37708 0.240558
0.143204 -0.378729 0.233067
0.174775 -0.449374 -0.0960567
0.179776 -0.449817 -0.0983295
0.184937 -0.450267 -0.101768
0.190091 -0.452268 -0.108461
-0.020081 -0.472546 -0.228582
-0.0144055 -0.460411 -0.168581
-0.00963119 -0.459107 -0.165897
-0.00440076 -0.45835 -0.162004
0.000293495 -0.457847 -0.159659
0.0048533 -0.45749 -0.157866
0.00990034 -0.45696 -0.155129
0.0144128 -0.454685 -0.14295
0.0195937 -0.45281 -0.1359
0.0241826 -0.452123 -0.134026
0.0289883 -0.452646 -0.135408
0.0333895 -0.452728 -0.135122
0.032416 -0.379583 0.209335
0.0359727 -0.375517 0.227805
0.0393204 -0.371625 0.247032
0.0435738 -0.371332 0.250404
0.0473645 -0.370067 0.25282
0.0511531 -0.369742 0.255805
0.0548521 -0.368245 0.262213
0.0589032 -0.368378 0.263415
0.0623454 -0.368003 0.265392
0.0667393 -0.368032 0.264979
0.0704646 -0.367729 0.265512
0.0744667 -0.368097 0.264047
0.0783551 -0.368264 0.263848
0.0819473 -0.368314 0.264659
0.0857008 -0.367607 0.265664
0.0899856 -0.367151 0.266986
0.0939472 -0.367959 0.26662
0.0977873 -0.367404 0.266265
0.101628 -0.367509 0.266885
0.10581 -0.367757 0.266105
0.10953 -0.367354 0.266575
0.113541 -0.367453 0.265125
0.117631 -0.3685 0.262083
0.121365 -0.368993 0.26027
0.12562 -0.369474 0.256183
0.129819 -0.370155 0.254444
0.134064 -0.371189 0.250157
0.139208 -0.373438 0.240584
0.14351 -0.37484 0.231102
0.175434 -0.444946 -0.100349
0.179622 -0.445337 -0.102336
0.18556 -0.447238 -0.10774
-0.0102175 -0.465784 -0.220136
-0.00521885 -0.463643 -0.211166
-8.67264e-05 -0.46262 -0.204588
0.00476535 -0.461791 -0.20052
0.010124 -0.460628 -0.196346
0.0148903 -0.459849 -0.192691
0.0193319 -0.448902 -0.141646
0.0240298 -0.448185 -0.135688
0.0286758 -0.448447 -0.13689
0.0340716 -0.448598 -0.137544
0.0321223 -0.374867 0.213985
0.0360665 -0.37116 0.230465
0.0393772 -0.367767 0.247112
0.0431825 -0.366946 0.250559
0.0472391 -0.366241 0.253961
0.0511178 -0.364425 0.261568
0.055106 -0.363863 0.264644
0.0589493 -0.364259 0.265365
0.0625402 -0.363813 0.265738
0.0664051 -0.363839 0.263713
0.0703461 -0.364063 0.2645
0.074397 -0.364561 0.263376
0.0783415 -0.364339 0.263924
0.0820704 -0.364087 0.264716
0.0859592 -0.363758 0.265914
0.0901837 -0.363551 0.266831
0.0940035 -0.362841 0.268092
0.0979801 -0.363107 0.26803
0.101499 -0.363385 0.268215
0.105658 -0.363333 0.267728
0.109221 -0.363707 0.266386
0.113565 -0.364022 0.265466
0.117148 -0.36426 0.264253
0.121363 -0.364656 0.261554
0.125506 -0.365295 0.258158
0.129918 -0.366281 0.253805
0.134159 -0.367242 0.24964
0.138814 -0.368949 0.24082
0.14368 -0.37121 0.229347
0.175634 -0.441245 -0.103075
0.180728 -0.442152 -0.108038
0.185979 -0.443817 -0.115132
3.40224e-05 -0.459213 -0.212407
0.00537194 -0.457382 -0.20584
0.0100184 -0.456353 -0.201213
0.0148199 -0.455655 -0.196052
0.0198746 -0.454942 -0.193339
0.0239767 -0.444221 -0.140486
0.0290403 -0.44374 -0.14061
0.0281411 -0.370459 0.214365
0.0320238 -0.36956 0.218307
0.0352771 -0.36642 0.233543
0.0398666 -0.363544 0.247282
0.043683 -0.363068 0.251202
0.0472945 -0.361945 0.255474
0.0506077 -0.3605 0.261698
0.0548216 -0.360099 0.265245
0.0583346 -0.359623 0.26588
0.0628036 -0.360201 0.26509
0.0663095 -0.359892 0.264832
0.0702743 -0.359924 0.264216
0.0743567 -0.36074 0.263297
0.0780826 -0.360722 0.263629
0.082361 -0.360177 0.263796
0.0857032 -0.35958 0.265501
0.0898785 -0.359896 0.266287
0.0939676 -0.359468 0.268361
0.0975223 -0.359306 0.269376
0.10162 -0.358799 0.269744
0.104837 -0.358942 0.270208
0.109911 -0.359748 0.266682
0.113246 -0.359931 0.265404
0.117493 -0.360484 0.264401
0.121638 -0.360442 0.262584
0.125718 -0.361186 0.258869
0.130051 -0.362541 0.253707
0.134677 -0.362725 0.24942
0.138426 -0.364206 0.243954
0.143635 -0.366949 0.230318
0.175969 -0.437394 -0.108064
0.181662 -0.43893 -0.115439
0.010058 -0.453704 -0.209451
0.0150271 -0.452458 -0.203393
0.0200181 -0.45122 -0.19994
0.0244892 -0.451527 -0.198786
0.028801 -0.440361 -0.144582
0.0279938 -0.365926 0.216518
0.0317742 -0.362239 0.234967
0.0357259 -0.360872 0.24111
0.0393166 -0.359055 0.249946
0.0438107 -0.358758 0.253067
0.0470257 -0.357588 0.256964
0.050844 -0.356539 0.262186
0.0547764 -0.355944 0.264781
0.0587287 -0.356178 0.265804
0.0622577 -0.356104 0.266632
0.0666944 -0.355747 0.265378
0.0703824 -0.355766 0.264984
0.0742883 -0.356528 0.264367
0.0784519 -0.356094 0.264392
0.082127 -0.356031 0.26456
0.0859269 -0.355657 0.266106
0.0898501 -0.355247 0.267811
0.0933784 -0.354851 0.270053
0.0971885 -0.354982 0.270968
0.101339 -0.354723 0.270859
0.105626 -0.354989 0.269428
0.109361 -0.355306 0.268103
0.113378 -0.355897 0.266571
0.117468 -0.356229 0.263835
0.121422 -0.356854 0.262115
0.125657 -0.357355 0.259007
0.129767 -0.358161 0.254735
0.134409 -0.358866 0.251295
0.138466 -0.360724 0.243137
0.143868 -0.363159 0.231254
0.175992 -0.433466 -0.109451
0.181296 -0.43462 -0.118368
0.028169 -0.35869 0.232749
0.031723 -0.357003 0.239607
0.0356676 -0.356008 0.246798
0.0394727 -0.354648 0.253149
0.0436493 -0.353927 0.255798
0.0469507 -0.352799 0.259715
0.0505151 -0.352716 0.262807
0.0546527 -0.352261 0.264146
0.0586146 -0.352014 0.265013
0.062441 -0.351445 0.267335
0.0663598 -0.351234 0.267256
0.0702409 -0.352302 0.265118
0.0746337 -0.352236 0.264443
0.0782697 -0.352038 0.265152
0.0822001 -0.351991 0.266244
0.0858875 -0.351956 0.267157
0.0897418 -0.351261 0.269334
0.093531 -0.350771 0.270115
0.0978995 -0.351019 0.271765
0.101224 -0.35071 0.270765
0.105352 -0.350843 0.270755
0.109461 -0.351312 0.269758
0.113314 -0.351534 0.268482
0.117237 -0.351617 0.265435
0.121491 -0.352716 0.262421
0.125829 -0.353784 0.257868
0.129677 -0.353826 0.25648
0.13373 -0.354615 0.252701
0.138439 -0.356977 0.243186
0.143461 -0.358709 0.233166
0.175843 -0.427931 -0.109571
0.181562 -0.430115 -0.118594
0.024332 -0.360664 0.203477
0.0280604 -0.353629 0.237058
0.0315496 -0.352846 0.241596
0.0358061 -0.351153 0.2513
0.0392465 -0.350443 0.254161
0.0433933 -0.349767 0.258153
0.0470223 -0.347909 0.267455
0.0509559 -0.348197 0.266664
0.0544415 -0.347828 0.266424
0.0587995 -0.347725 0.267051
0.0624407 -0.347694 0.267417
0.0664388 -0.347348 0.268428
0.070553 -0.34775 0.267903
0.0739944 -0.347882 0.265276
0.0783127 -0.348154 0.265285
0.0818112 -0.347685 0.268106
0.0859325 -0.347625 0.269254
0.0895946 -0.347333 0.269889
0.0933539 -0.347154 0.269961
0.0974872 -0.346889 0.270976
0.101479 -0.347017 0.271132
0.10491 -0.346842 0.271957
0.109103 -0.346936 0.270606
0.11308 -0.347447 0.26932
0.117618 -0.347813 0.267182
0.121383 -0.348191 0.263864
0.125222 -0.349147 0.260679
0.12946 -0.349755 0.25654
0.133528 -0.350303 0.253949
0.138337 -0.352183 0.244933
0.143305 -0.354487 0.232915
0.175849 -0.422996 -0.109702
0.181754 -0.424995 -0.119435
0.0240552 -0.354958 0.209975
0.0280088 -0.349747 0.236752
0.0316473 -0.348753 0.244317
0.0353676 -0.34714 0.251904
0.0396231 -0.346177 0.25619
0.043026 -0.343849 0.268398
0.0470148 -0.343055 0.270694
0.0505655 -0.343262 0.269681
0.0544858 -0.343723 0.26868
0.0586669 -0.343346 0.268234
0.0624993 -0.343829 0.268571
0.0667578 -0.34339 0.267575
0.070127 -0.343863 0.268044
0.0742124 -0.343737 0.266744
0.0784169 -0.343712 0.267077
0.0820251 -0.343356 0.26879
0.0860847 -0.34361 0.269719
0.0898435 -0.343474 0.269425
0.0937222 -0.343138 0.270661
0.0972921 -0.34323 0.271603
0.101245 -0.342515 0.27177
0.10506 -0.342804 0.271486
0.109369 -0.343112 0.270429
0.113422 -0.343318 0.269015
0.117221 -0.343647 0.267987
0.121573 -0.344298 0.265039
0.125346 -0.344628 0.262321
0.129736 -0.345995 0.25636
0.13404 -0.346847 0.251788
0.138783 -0.348372 0.244848
0.14334 -0.350455 0.235091
0.176236 -0.419302 -0.111762
0.181634 -0.420591 -0.119974
0.0242082 -0.349813 0.216778
0.0278786 -0.342981 0.251615
0.0315139 -0.342968 0.252306
0.0355711 -0.342618 0.254311
0.0391043 -0.341154 0.260294
0.0432422 -0.339495 0.268545
0.0473621 -0.33934 0.269951
0.050649 -0.340031 0.269814
0.0547979 -0.339812 0.269017
0.0584321 -0.339945 0.267826
0.0625781 -0.340105 0.268029
0.066465 -0.339426 0.268384
0.070442 -0.339558 0.267766
0.0738191 -0.340043 0.267426
0.0782814 -0.339749 0.268228
0.0819634 -0.339847 0.268933
0.0853621 -0.339473 0.269374
0.0894765 -0.339276 0.272282
0.0931774 -0.33878 0.27423
0.0973368 -0.33887 0.272946
0.101558 -0.338513 0.272773
0.104898 -0.338933 0.272662
0.108867 -0.33959 0.270442
0.113257 -0.339602 0.268767
0.117509 -0.34023 0.267246
0.120977 -0.34016 0.265834
0.1253 -0.340992 0.262596
0.129965 -0.342259 0.2562
0.133863 -0.342785 0.252734
0.138443 -0.344266 0.246339
0.142747 -0.345043 0.239538
0.176696 -0.414609 -0.113144
0.181804 -0.416343 -0.122707
0.020211 -0.346016 0.215292
0.0239524 -0.33952 0.251225
0.0276706 -0.338141 0.255319
0.0316639 -0.338116 0.25545
0.0353727 -0.338062 0.256172
0.0390437 -0.336662 0.262343
0.0428047 -0.335876 0.268915
0.0470492 -0.335409 0.269338
0.0508111 -0.335646 0.270228
0.0544685 -0.335703 0.269471
0.0582556 -0.335587 0.269755
0.0623227 -0.335616 0.268258
0.0662822 -0.336123 0.267169
0.0703769 -0.336162 0.267517
0.0742733 -0.33539 0.268749
0.0781195 -0.335831 0.268184
0.0819322 -0.335984 0.269596
0.085973 -0.335122 0.272743
0.089397 -0.334578 0.276196
0.093043 -0.334547 0.274789
0.0968186 -0.334223 0.275237
0.10124 -0.334868 0.273434
0.105123 -0.334788 0.272562
0.109383 -0.335563 0.270311
0.113053 -0.3355 0.269406
0.117114 -0.335814 0.267694
0.121035 -0.33626 0.265877
0.12579 -0.337189 0.261393
0.129552 -0.338193 0.257046
0.134084 -0.339133 0.251501
0.138741 -0.340189 0.245638
0.143047 -0.341956 0.237799
0.176164 -0.409945 -0.112882
0.182028 -0.412088 -0.123563
0.0164056 -0.343131 0.211305
0.0200477 -0.3419 0.216964
0.0240461 -0.334906 0.253882
0.0275871 -0.3342 0.256311
0.0314156 -0.334506 0.256504
0.035474 -0.333488 0.259894
0.0389022 -0.332519 0.264486
0.0433301 -0.332146 0.267835
0.0468441 -0.332142 0.268807
0.0506665 -0.331612 0.270423
0.054673 -0.331239 0.271186
0.058455 -0.331574 0.270142
0.0622289 -0.331482 0.270721
0.066264 -0.3317 0.268233
0.0705961 -0.33225 0.266531
0.0743636 -0.331489 0.269144
0.0780315 -0.331587 0.270121
0.0821444 -0.331593 0.270945
0.0856616 -0.33078 0.273959
0.08956 -0.330296 0.275871
0.0935315 -0.330528 0.276258
0.0973892 -0.330826 0.274512
0.101127 -0.330877 0.273619
0.105146 -0.331212 0.272743
0.109337 -0.331654 0.271806
0.113133 -0.332007 0.269315
0.117201 -0.332041 0.267651
0.121213 -0.332332 0.266453
0.125409 -0.333096 0.262149
0.129231 -0.333383 0.25914
0.134097 -0.335177 0.252855
0.138762 -0.33621 0.245482
0.142727 -0.337427 0.23951
0.175887 -0.404348 -0.110727
0.180946 -0.405743 -0.115589
0.0160425 -0.338901 0.212751
0.0199545 -0.33784 0.2172
0.0232878 -0.330948 0.25366
0.0275653 -0.330099 0.25677
0.0311514 -0.329841 0.259859
0.0352171 -0.328787 0.265627
0.0388083 -0.328235 0.268785
0.0431064 -0.328168 0.268685
0.0468232 -0.32768 0.270233
0.0506184 -0.327374 0.271668
0.0546545 -0.327622 0.272245
0.0581632 -0.327127 0.272195
0.0625303 -0.327547 0.271267
0.0663333 -0.327927 0.268072
0.0704712 -0.328285 0.267647
0.073959 -0.328273 0.268893
0.0782856 -0.328049 0.269456
0.0818304 -0.327273 0.27123
0.0855718 -0.326925 0.274344
0.0892075 -0.326651 0.276018
0.0931638 -0.326566 0.276236
0.0974379 -0.326587 0.274294
0.10113 -0.326806 0.273564
0.104984 -0.327145 0.272452
0.108994 -0.327328 0.271356
0.113375 -0.327742 0.269843
0.117218 -0.328025 0.267607
0.121053 -0.328345 0.266626
0.125685 -0.329022 0.262071
0.129574 -0.330151 0.258357
0.133831 -0.330611 0.25428
0.138381 -0.332018 0.246319
0.142758 -0.333901 0.238501
0.176177 -0.39996 -0.108879
0.181321 -0.400538 -0.11478
0.186688 -0.403228 -0.125642
0.016125 -0.33474 0.211378
0.0195723 -0.32953 0.239761
0.0232946 -0.327765 0.250685
0.0274528 -0.326025 0.257403
0.0312348 -0.32454 0.265885
0.0348531 -0.324267 0.269873
0.0391809 -0.323902 0.270823
0.0428449 -0.32371 0.271181
0.04687 -0.32326 0.271862
0.0507586 -0.323308 0.272738
0.0546373 -0.322727 0.274291
0.0584112 -0.323388 0.272474
0.0620411 -0.323422 0.272054
0.0666273 -0.324 0.26973
0.070082 -0.323752 0.269954
0.0743989 -0.323799 0.269538
0.078201 -0.323505 0.270399
0.0813968 -0.323726 0.271622
0.0858708 -0.32307 0.274172
0.0897631 -0.322853 0.274738
0.0932515 -0.322513 0.275714
0.0972471 -0.322905 0.275486
0.101518 -0.323315 0.273216
0.104974 -0.32331 0.272436
0.109554 -0.323455 0.270581
0.112832 -0.323888 0.269791
0.11721 -0.324148 0.268641
0.121277 -0.324385 0.266523
0.125191 -0.324878 0.262899
0.129761 -0.326074 0.25823
0.133727 -0.327101 0.253853
0.138284 -0.328126 0.247645
0.143204 -0.330006 0.238184
0.147882 -0.332657 0.222972
0.181308 -0.396474 -0.116523
0.18696 -0.397888 -0.126235
0.0160163 -0.331232 0.209255
0.0194011 -0.324331 0.247037
0.0233846 -0.323261 0.252839
0.0273619 -0.32133 0.262022
0.0315243 -0.320175 0.268714
0.0351076 -0.320001 0.270837
0.0389674 -0.319408 0.272348
0.0427162 -0.319624 0.271401
0.0465379 -0.319244 0.273277
0.0506235 -0.319597 0.272136
0.0544425 -0.319099 0.273462
0.0581925 -0.319785 0.272683
0.062091 -0.31999 0.270963
0.0662988 -0.319643 0.271538
0.0703174 -0.319556 0.271406
0.0739327 -0.319522 0.272041
0.0779855 -0.319022 0.273592
0.0817126 -0.319395 0.273534
0.0856369 -0.319411 0.273154
0.0891717 -0.318893 0.275269
0.0932615 -0.318927 0.275623
0.0971711 -0.319002 0.27536
0.101113 -0.319577 0.273618
0.105238 -0.319338 0.272218
0.109131 -0.319601 0.272788
0.113398 -0.319424 0.271144
0.116968 -0.320329 0.268403
0.121082 -0.320465 0.266369
0.125255 -0.321336 0.262519
0.13003 -0.322359 0.257307
0.133715 -0.323193 0.25373
0.138539 -0.323969 0.24777
0.142728 -0.32556 0.240338
0.148425 -0.328538 0.222462
0.181529 -0.391759 -0.118131
0.187339 -0.393221 -0.128028
0.0122577 -0.328821 0.201505
0.015773 -0.320408 0.245557
0.0198946 -0.319558 0.251972
0.0238656 -0.318364 0.255818
0.027506 -0.316654 0.265593
0.0313158 -0.315718 0.270884
0.034949 -0.315462 0.272463
0.0387921 -0.31561 0.27345
0.0425898 -0.315296 0.273728
0.0467058 -0.315327 0.273544
0.0506135 -0.315157 0.274008
0.0541442 -0.314888 0.274934
0.0584454 -0.315387 0.272651
0.0626119 -0.31592 0.272623
0.0663013 -0.315356 0.272006
0.0700733 -0.31541 0.272625
0.0740543 -0.315087 0.274778
0.077695 -0.314776 0.275657
0.0817814 -0.315303 0.274381
0.0855426 -0.315268 0.273799
0.0896768 -0.315111 0.274538
0.0931796 -0.315105 0.275963
0.0972764 -0.315024 0.275604
0.101086 -0.315286 0.274542
0.105209 -0.315565 0.273825
0.109282 -0.315233 0.273127
0.112919 -0.315697 0.271177
0.11695 -0.31655 0.268204
0.120826 -0.316588 0.266011
0.125139 -0.317044 0.262763
0.129737 -0.318846 0.257053
0.133907 -0.318996 0.251848
0.138276 -0.320281 0.248208
0.142558 -0.320681 0.242948
0.148546 -0.324888 0.222362
0.181789 -0.387358 -0.120477
0.186922 -0.388695 -0.127814
0.0124244 -0.323454 0.206669
0.0156434 -0.315563 0.249899
0.0197616 -0.315328 0.254051
0.0238046 -0.314014 0.259088
0.0273906 -0.31293 0.266351
0.0311978 -0.312158 0.26994
0.0350974 -0.311619 0.272671
0.0389383 -0.311971 0.272048
0.0425336 -0.311674 0.273544
0.0463053 -0.311367 0.275056
0.0507951 -0.31118 0.275924
0.0544522 -0.311265 0.276179
0.0583084 -0.31148 0.273748
0.0623404 -0.311285 0.273621
0.0659014 -0.311448 0.274037
0.0703495 -0.311169 0.274823
0.0736718 -0.311231 0.276105
0.0780477 -0.311081 0.275595
0.0817318 -0.310999 0.274808
0.085704 -0.311069 0.275441
0.089277 -0.311021 0.276343
0.0931941 -0.311135 0.276337
0.0971495 -0.311078 0.276145
0.101019 -0.311309 0.27506
0.104936 -0.311441 0.274213
0.109053 -0.311636 0.272499
0.112872 -0.312076 0.271047
0.117029 -0.312587 0.267697
0.121192 -0.312855 0.265642
0.125322 -0.31332 0.262688
0.129372 -0.314374 0.257428
0.133937 -0.315469 0.252995
0.138214 -0.316011 0.247591
0.142779 -0.317834 0.240978
0.147917 -0.320023 0.224666
0.182091 -0.383006 -0.12348
0.187479 -0.38454 -0.13324
0.0119088 -0.311964 0.24605
0.0157402 -0.31116 0.253091
0.019458 -0.310829 0.255277
0.0233711 -0.310141 0.259255
0.0270317 -0.309172 0.26608
0.0312055 -0.30804 0.269343
0.0347594 -0.307906 0.272376
0.0387406 -0.307648 0.273112
0.0428038 -0.307363 0.274136
0.0467716 -0.307385 0.276397
0.0502827 -0.306777 0.27763
0.0548069 -0.307025 0.276384
0.058599 -0.307387 0.275154
0.0618212 -0.307221 0.274983
0.0665357 -0.307292 0.275441
0.0701818 -0.307303 0.275422
0.0737043 -0.307037 0.276808
0.0779961 -0.307334 0.276196
0.0817884 -0.30727 0.275074
0.0858301 -0.307296 0.274506
0.0895316 -0.307196 0.275216
0.0935776 -0.307421 0.275405
0.0975969 -0.307469 0.275593
0.101117 -0.307236 0.275116
0.104861 -0.307751 0.273238
0.109176 -0.307602 0.271771
0.11316 -0.307896 0.270797
0.116999 -0.308556 0.269002
0.121316 -0.308732 0.266144
0.125331 -0.309661 0.262003
0.129294 -0.310378 0.25821
0.134005 -0.311564 0.252371
0.13797 -0.311939 0.249209
0.142662 -0.313371 0.240073
0.17684 -0.376856 -0.116197
0.182292 -0.378627 -0.125157
0.18785 -0.380737 -0.136144
0.0116898 -0.308054 0.24785
0.0155842 -0.307262 0.253233
0.0197062 -0.306524 0.256326
0.0236503 -0.306042 0.260612
0.0272458 -0.304929 0.266362
0.0310146 -0.30462 0.270404
0.0350056 -0.304401 0.271255
0.0390464 -0.303942 0.273243
0.0426767 -0.30325 0.27494
0.0462635 -0.303202 0.276649
0.0507626 -0.303144 0.2767
0.0545501 -0.30313 0.276085
0.0582308 -0.303481 0.275876
0.0621864 -0.303388 0.275091
0.0660732 -0.303407 0.27578
0.0699107 -0.303416 0.275496
0.0737149 -0.303054 0.276102
0.0779532 -0.303397 0.275817
0.0815387 -0.303653 0.27448
0.0854128 -0.303436 0.275298
0.0893691 -0.303253 0.276318
0.0936316 -0.303621 0.275437
0.0977341 -0.303477 0.27453
0.101067 -0.303657 0.274575
0.105248 -0.303663 0.273265
0.109326 -0.303716 0.272557
0.113264 -0.304276 0.270664
0.116851 -0.304552 0.26888
0.121203 -0.305288 0.26623
0.12535 -0.30573 0.262196
0.129465 -0.306492 0.259016
0.133942 -0.307202 0.254185
0.138179 -0.308066 0.249467
0.143215 -0.309945 0.238102
0.147555 -0.311401 0.229425
0.182349 -0.373708 -0.126595
0.00800068 -0.306904 0.233037
0.0119297 -0.304377 0.24832
0.0157166 -0.30329 0.253563
0.0197686 -0.302346 0.257858
0.0235752 -0.301848 0.263512
0.0274394 -0.300647 0.269064
0.0311758 -0.299997 0.271363
0.0351758 -0.300012 0.273014
0.0387611 -0.299501 0.275716
0.0430339 -0.298745 0.278872
0.0463497 -0.299212 0.278318
0.0503845 -0.299336 0.277407
0.0542905 -0.299163 0.27734
0.0581946 -0.299153 0.276661
0.0621963 -0.29961 0.275192
0.0660116 -0.299494 0.274576
0.0703404 -0.299926 0.274235
0.0743715 -0.299534 0.274257
0.077624 -0.299884 0.274679
0.0815303 -0.299664 0.274727
0.0855495 -0.29984 0.274425
0.0893255 -0.299489 0.276142
0.0928797 -0.29951 0.276646
0.0971967 -0.299647 0.274855
0.101313 -0.299946 0.274185
0.105344 -0.299974 0.273421
0.109448 -0.29991 0.271746
0.112591 -0.300814 0.270513
0.117032 -0.300711 0.268781
0.120831 -0.301156 0.265813
0.125146 -0.301686 0.262194
0.129566 -0.302322 0.258734
0.133593 -0.302967 0.254814
0.138284 -0.30388 0.249662
0.142664 -0.305681 0.240914
0.147507 -0.307616 0.228748
0.182518 -0.369679 -0.128226
0.00788759 -0.301763 0.240878
0.0118151 -0.299868 0.250507
0.0156672 -0.298681 0.256974
0.0197454 -0.297631 0.260942
0.0236959 -0.296912 0.268069
0.0271203 -0.29619 0.271159
0.0315207 -0.29626 0.272272
0.0345197 -0.295542 0.27565
0.0388304 -0.295069 0.278496
0.0426433 -0.295241 0.279383
0.0468201 -0.294926 0.279578
0.0504004 -0.295443 0.277748
0.054631 -0.295236 0.277443
0.0584369 -0.295387 0.276295
0.0623257 -0.295551 0.276037
0.0658845 -0.295311 0.274582
0.0698115 -0.296199 0.273807
0.073981 -0.295798 0.273101
0.0776854 -0.295475 0.274136
0.0814515 -0.295369 0.274497
0.085397 -0.295595 0.274899
0.0896816 -0.295542 0.275751
0.0935146 -0.295556 0.275854
0.0968977 -0.295432 0.274767
0.101565 -0.29553 0.275115
0.104881 -0.296086 0.274411
0.109203 -0.296024 0.272854
0.112816 -0.296682 0.269638
0.117205 -0.296877 0.267822
0.121607 -0.297315 0.264569
0.12572 -0.298151 0.261477
0.129563 -0.298619 0.258329
0.134365 -0.299244 0.253921
0.13842 -0.299803 0.249231
0.142589 -0.30131 0.241435
0.176943 -0.362865 -0.119113
0.183045 -0.365714 -0.134923
0.00768841 -0.297639 0.244602
0.0117448 -0.294328 0.260123
0.0157905 -0.293781 0.261603
0.0194668 -0.293519 0.263749
0.0231854 -0.29294 0.267966
0.0273473 -0.292346 0.271152
0.0310223 -0.291926 0.274037
0.0350057 -0.291105 0.278202
0.0386792 -0.290839 0.279498
0.0425863 -0.290651 0.281344
0.0461829 -0.290706 0.280799
0.050277 -0.290673 0.279109
0.0542418 -0.291446 0.277763
0.0584736 -0.291222 0.277271
0.0623794 -0.291358 0.275815
0.0659499 -0.292108 0.274033
0.0702593 -0.292378 0.273215
0.0736787 -0.292144 0.273792
0.0777486 -0.292267 0.274427
0.0814437 -0.29175 0.275899
0.0854555 -0.291749 0.275241
0.0896363 -0.291661 0.276163
0.0933168 -0.291844 0.275403
0.0969119 -0.291857 0.274491
0.101215 -0.291589 0.274825
0.105144 -0.292425 0.273933
0.109283 -0.292218 0.271957
0.113092 -0.292555 0.269762
0.117322 -0.292828 0.26844
0.121297 -0.293162 0.265525
0.125279 -0.29435 0.261783
0.130027 -0.295001 0.257649
0.133993 -0.295113 0.253555
0.13847 -0.296624 0.247914
0.142723 -0.297553 0.241557
0.17722 -0.359171 -0.12183
0.183569 -0.362022 -0.140469
0.00409888 -0.293868 0.239524
0.00770708 -0.290116 0.259712
0.0120946 -0.289888 0.26294
0.0154806 -0.289445 0.264544
0.0194953 -0.28946 0.264786
0.0234145 -0.288578 0.268936
0.0274942 -0.288673 0.271284
0.0307996 -0.287882 0.274396
0.0346544 -0.287349 0.277781
0.0389124 -0.28724 0.280292
0.0425721 -0.286631 0.280404
0.0466984 -0.287132 0.280366
0.050324 -0.287309 0.279468
0.0544198 -0.287354 0.278777
0.0581776 -0.287103 0.278551
0.0621063 -0.287686 0.276828
0.0659668 -0.287852 0.275598
0.0700954 -0.288141 0.274513
0.073912 -0.287917 0.274278
0.0776692 -0.287644 0.275523
0.0814454 -0.287238 0.276515
0.0856342 -0.287589 0.275639
0.0894148 -0.287885 0.275754
0.0933353 -0.288209 0.275174
0.097221 -0.288017 0.275055
0.101051 -0.288166 0.274243
0.105056 -0.288497 0.273566
0.109348 -0.28784 0.272609
0.113149 -0.288469 0.270778
0.116736 -0.288745 0.269501
0.121447 -0.289611 0.265841
0.125514 -0.290202 0.261893
0.129417 -0.290093 0.259288
0.134047 -0.291489 0.252633
0.138414 -0.293018 0.246349
0.142362 -0.293521 0.241049
0.176513 -0.354147 -0.12184
0.00393874 -0.289058 0.244579
0.00777184 -0.286393 0.259798
0.0119774 -0.285783 0.26353
0.0154137 -0.285427 0.265603
0.0196162 -0.285158 0.26725
0.0232667 -0.284532 0.271775
0.027759 -0.284173 0.273838
0.0310769 -0.283546 0.275094
0.0349137 -0.283294 0.278075
0.0389148 -0.283158 0.279516
0.0425802 -0.282949 0.28087
0.0463796 -0.283029 0.27985
0.0502192 -0.282728 0.281445
0.0540344 -0.282727 0.28101
0.0584194 -0.28336 0.279927
0.0620608 -0.28318 0.278473
0.0666849 -0.284098 0.27576
0.069886 -0.284429 0.273675
0.073662 -0.284141 0.27453
0.0781704 -0.283962 0.276004
0.0819944 -0.283881 0.276372
0.0854639 -0.283813 0.276151
0.0893642 -0.283916 0.276136
0.0932138 -0.28401 0.275389
0.0971321 -0.283828 0.275392
0.101627 -0.284001 0.274241
0.104596 -0.284158 0.273522
0.109071 -0.284452 0.272353
0.112979 -0.284733 0.270364
0.117194 -0.284869 0.268643
0.121503 -0.285903 0.264486
0.125656 -0.285854 0.261821
0.129889 -0.28683 0.25816
0.133624 -0.288156 0.251945
