ply
format ascii 1.0
element vertex 1706
property float x
property float y
property float z
end_header
-0.177974 0.351696 0.0754945
-0.173411 0.351089 0.0783459
-0.167874 0.348707 0.0907744
-0.162993 0.348291 0.0947587
-0.158418 0.347377 0.0974435
-0.15447 0.347542 0.0977178
-0.15019 0.347469 0.0982537
-0.1451 0.345135 0.108899
-0.140719 0.345013 0.11146
-0.136086 0.344826 0.111819
-0.131568 0.344458 0.112189
-0.110342 0.298748 0.365577
-0.106336 0.296775 0.377139
-0.101902 0.295293 0.3852
-0.0981098 0.294021 0.391199
-0.0941142 0.292786 0.397921
-0.0898389 0.291095 0.404368
-0.0863104 0.291367 0.407348
-0.0823482 0.290666 0.408765
-0.0788255 0.290268 0.411169
-0.0749872 0.289892 0.412646
-0.0715621 0.289482 0.415316
-0.0677222 0.289026 0.417695
-0.0640675 0.288976 0.419492
-0.0606615 0.288217 0.421893
-0.0570115 0.287933 0.423292
-0.0532605 0.288127 0.424045
-0.0497395 0.287932 0.424337
-0.0462339 0.287706 0.425591
-0.0425786 0.287584 0.426347
-0.0391902 0.287434 0.426243
-0.0353904 0.287222 0.42788
-0.0318335 0.28698 0.429627
-0.0282443 0.28646 0.431027
-0.0247659 0.286196 0.432394
-0.0210514 0.286471 0.432247
-0.0175941 0.286248 0.433446
-0.0142276 0.286103 0.433529
-0.0108018 0.285859 0.433677
-0.00727195 0.286197 0.433809
-0.00339013 0.286232 0.432882
-2.24203e-06 0.286261 0.432709
0.00340044 0.286628 0.432435
0.00712269 0.28637 0.432472
0.0109117 0.286547 0.432182
0.0141393 0.286386 0.432149
0.0176321 0.286387 0.432536
0.0213653 0.286291 0.433281
0.0244588 0.286271 0.432952
0.0282669 0.285366 0.436359
0.0315153 0.284682 0.439435
0.0351359 0.284834 0.441337
0.0385372 0.284758 0.440823
0.0421329 0.285363 0.438665
0.0456371 0.286546 0.429703
0.0499797 0.2879 0.424366
0.0637488 0.342263 0.125294
0.0673986 0.342792 0.124576
0.0718356 0.34257 0.125169
0.0759056 0.342529 0.125976
0.080074 0.342569 0.127023
0.0841911 0.342033 0.127558
0.0884281 0.341592 0.129348
0.0927452 0.341608 0.130093
0.0966597 0.341367 0.130356
0.101266 0.341299 0.130723
0.105504 0.341137 0.131596
0.109543 0.341385 0.130345
0.113852 0.341733 0.130726
0.117967 0.341077 0.129689
0.12218 0.341735 0.128841
0.126568 0.342108 0.127716
0.13127 0.342159 0.127331
0.134694 0.341715 0.127662
0.139635 0.341628 0.127306
0.14387 0.342308 0.126779
0.147507 0.342075 0.125991
0.152322 0.342444 0.124491
0.156249 0.342743 0.12346
0.160822 0.343305 0.121221
0.165556 0.343623 0.119315
0.170185 0.34377 0.116564
0.174269 0.34451 0.114323
0.179113 0.345274 0.110988
0.183791 0.346222 0.105339
0.188677 0.347393 0.097003
0.194801 0.351239 0.0764394
0.201544 0.355218 0.0566199
0.408727 0.398945 -0.183576
0.412699 0.39723 -0.175484
0.41686 0.397639 -0.175375
-0.205091 0.36647 0.0182188
-0.199612 0.363847 0.0314498
-0.193442 0.359666 0.0531991
-0.188252 0.359014 0.0610285
-0.182975 0.357359 0.0689843
-0.177899 0.355937 0.0736086
-0.173751 0.35585 0.0763309
-0.168828 0.354889 0.0810132
-0.163614 0.353368 0.0905695
-0.159159 0.352217 0.0944871
-0.154554 0.352279 0.0951076
-0.150262 0.351501 0.0970685
-0.145447 0.350796 0.103146
-0.14076 0.349792 0.109195
-0.136315 0.349152 0.11044
-0.132601 0.349902 0.108649
-0.128046 0.3501 0.108775
-0.106066 0.300125 0.37667
-0.101858 0.298599 0.384743
-0.0980167 0.297823 0.390054
-0.0942385 0.29678 0.395867
-0.090085 0.295813 0.400477
-0.0862339 0.295358 0.404369
-0.0824421 0.294397 0.407685
-0.0787536 0.294289 0.408864
-0.0752263 0.293919 0.411476
-0.0716716 0.293196 0.41308
-0.0680943 0.293109 0.41541
-0.0642828 0.292505 0.418316
-0.0605852 0.292317 0.420277
-0.0568697 0.292129 0.420982
-0.0536367 0.291829 0.42264
-0.0497883 0.291454 0.423759
-0.046014 0.291402 0.424663
-0.0423914 0.29087 0.426387
-0.0390028 0.291131 0.426576
-0.0352355 0.290948 0.427397
-0.0320489 0.291147 0.428106
-0.0283532 0.290063 0.431945
-0.0248026 0.290217 0.430497
-0.0212974 0.290102 0.432615
-0.0179343 0.289587 0.433776
-0.0140376 0.289218 0.434019
-0.0103311 0.28995 0.432844
-0.00682432 0.289975 0.432975
-0.00356062 0.289544 0.433245
-0.000229183 0.289442 0.433147
0.00350781 0.289904 0.432974
0.00692493 0.289872 0.433881
0.0106694 0.289278 0.43543
0.0140981 0.288948 0.43621
0.0176928 0.288738 0.436425
0.0207587 0.288505 0.437637
0.0246742 0.28846 0.43973
0.0280816 0.288198 0.441603
0.0319018 0.287935 0.443537
0.0352531 0.287893 0.444775
0.0385134 0.287697 0.444817
0.0421872 0.288004 0.443708
0.0457814 0.288239 0.441224
0.0494005 0.289099 0.434166
0.052989 0.290614 0.430135
0.0680189 0.346686 0.123327
0.0720548 0.346982 0.12513
0.0761295 0.346629 0.126554
0.0802719 0.34634 0.125776
0.0849003 0.346817 0.125382
0.088622 0.346474 0.12689
0.0929637 0.346442 0.128152
0.0971463 0.345912 0.129463
0.100998 0.345505 0.131571
0.105544 0.345654 0.131386
0.109353 0.345944 0.131654
0.11395 0.34545 0.131528
0.117651 0.345642 0.131182
0.122189 0.346079 0.131478
0.126186 0.346139 0.129838
0.130578 0.345689 0.130421
0.134796 0.345921 0.129303
0.139113 0.34628 0.129013
0.143701 0.346392 0.127639
0.147886 0.346299 0.126635
0.152029 0.346704 0.126623
0.156864 0.346774 0.12422
0.160955 0.346856 0.123149
0.165323 0.347134 0.120921
0.169502 0.348535 0.117275
0.174704 0.348967 0.113095
0.179881 0.351128 0.101977
0.184641 0.352042 0.0960852
0.190962 0.356618 0.073
0.197099 0.359898 0.0545901
0.412789 0.402882 -0.179077
-0.20009 0.369145 0.0276423
-0.193885 0.366246 0.0451618
-0.188366 0.36445 0.0541686
-0.183316 0.362867 0.0628129
-0.178426 0.361324 0.0698203
-0.173821 0.360279 0.07565
-0.169441 0.360003 0.0771406
-0.164336 0.358589 0.0819932
-0.159469 0.357239 0.0906014
-0.154892 0.357319 0.09246
-0.150496 0.35679 0.0937245
-0.145846 0.356499 0.095806
-0.141497 0.355017 0.104271
-0.136569 0.354082 0.107616
-0.132174 0.354479 0.107318
-0.128044 0.354452 0.107502
-0.106447 0.304343 0.374116
-0.102251 0.302912 0.382611
-0.0976819 0.301316 0.389787
-0.0943224 0.300876 0.393607
-0.0904042 0.299993 0.397101
-0.0865372 0.299306 0.401102
-0.0826923 0.29896 0.403946
-0.0790018 0.298383 0.405639
-0.0753167 0.298123 0.40813
-0.0720175 0.297708 0.410234
-0.0677667 0.29685 0.413344
-0.0641573 0.296878 0.415615
-0.0604698 0.296484 0.416987
-0.0575138 0.295802 0.4188
-0.0534216 0.296147 0.419734
-0.0496899 0.295027 0.422637
-0.0463504 0.295357 0.423889
-0.0425474 0.29474 0.424676
-0.0388622 0.294493 0.426681
-0.0354532 0.294286 0.427943
-0.0319911 0.294513 0.428726
-0.0281399 0.2941 0.429182
-0.0249121 0.293717 0.430096
-0.0210279 0.29381 0.431557
-0.0179806 0.293023 0.432835
-0.0138296 0.293091 0.433893
-0.0104843 0.293188 0.432841
-0.00686487 0.293389 0.43216
-0.00342446 0.293317 0.432904
3.1191e-05 0.293367 0.433239
0.00359774 0.293223 0.434485
0.0071571 0.292949 0.43659
0.0105251 0.292041 0.439675
0.0141908 0.29204 0.4394
0.01769 0.291485 0.442301
0.021004 0.29124 0.442218
0.0242081 0.291252 0.443675
0.0276825 0.291283 0.444071
0.0312948 0.290752 0.446443
0.0350686 0.290554 0.447624
0.0387136 0.29076 0.446275
0.0419243 0.290713 0.446613
0.0456991 0.290801 0.446127
0.0488645 0.291333 0.444331
0.0528668 0.291877 0.442539
0.0562551 0.292768 0.435511
0.0720803 0.351208 0.122794
0.0760991 0.35144 0.123084
0.0801362 0.351342 0.124108
0.0842214 0.351413 0.12366
0.088623 0.350611 0.12451
0.0928969 0.350878 0.12683
0.096612 0.350616 0.127358
0.100955 0.350559 0.129202
0.105344 0.350069 0.130252
0.109368 0.349669 0.131468
0.113705 0.349762 0.132024
0.117753 0.349553 0.132421
0.122434 0.349188 0.133049
0.126959 0.349506 0.132541
0.130681 0.349284 0.132308
0.135253 0.349719 0.13173
0.139311 0.349951 0.131597
0.143371 0.349791 0.131014
0.147575 0.350391 0.128947
0.151904 0.35043 0.128185
0.15605 0.350444 0.126365
0.160971 0.351183 0.123492
0.165442 0.351743 0.120303
0.169692 0.352744 0.116548
0.174877 0.354309 0.106915
0.180838 0.357015 0.0920349
0.187171 0.361622 0.068043
0.193619 0.364678 0.0508543
-0.202593 0.378025 0.00369966
-0.195141 0.372863 0.0310345
-0.189204 0.369508 0.0483973
-0.184147 0.367887 0.0567369
-0.179044 0.366412 0.0644984
-0.17433 0.365647 0.0698957
-0.169531 0.364412 0.0759294
-0.164765 0.363864 0.0796614
-0.160336 0.363439 0.0819707
-0.15532 0.363325 0.0840669
-0.151093 0.362261 0.0885695
-0.146192 0.361651 0.090284
-0.141413 0.360198 0.0994545
-0.137091 0.359555 0.10395
-0.13223 0.359008 0.106179
-0.127798 0.358492 0.107445
-0.123762 0.358395 0.10692
-0.102569 0.30715 0.380238
-0.0980926 0.305746 0.386884
-0.0941282 0.304805 0.391173
-0.0903187 0.30406 0.394405
-0.0866383 0.303329 0.398077
-0.0833168 0.303215 0.399858
-0.0791542 0.302354 0.403055
-0.0755725 0.302477 0.403508
-0.0719276 0.301502 0.408292
-0.0682487 0.301153 0.410882
-0.0643713 0.300458 0.413534
-0.0607255 0.300039 0.415447
-0.0568122 0.299707 0.417152
-0.0532929 0.299032 0.419308
-0.0498082 0.29904 0.421726
-0.045822 0.298987 0.422082
-0.0429248 0.299029 0.422616
-0.0389756 0.298284 0.426525
-0.0355363 0.298219 0.426756
-0.0314719 0.297821 0.427406
-0.0283427 0.297759 0.427969
-0.0247269 0.29771 0.428889
-0.0208993 0.297439 0.430393
-0.0174754 0.297049 0.432345
-0.0143622 0.297226 0.432285
-0.0104223 0.297027 0.431498
-0.00666223 0.296816 0.432523
-0.00338942 0.296408 0.43373
-0.000247555 0.296628 0.435085
0.00338658 0.296076 0.436937
0.00696215 0.295917 0.439722
0.0104668 0.295479 0.442131
0.0139072 0.294941 0.443201
0.0172416 0.294451 0.445137
0.0210946 0.294513 0.445397
0.0244118 0.29435 0.44638
0.0278383 0.294298 0.447431
0.0316241 0.293874 0.449088
0.0351069 0.293885 0.44831
0.038205 0.293907 0.448741
0.0420247 0.293333 0.450213
0.0455766 0.293897 0.44961
0.0488267 0.29388 0.448966
0.052191 0.293873 0.449853
0.0560021 0.294273 0.446613
0.0595708 0.293779 0.447745
0.0626801 0.293746 0.448697
0.0662643 0.293692 0.448631
0.0699724 0.294502 0.446756
0.0888786 0.356223 0.122507
0.0930269 0.355496 0.12402
0.0971795 0.355316 0.124485
0.101395 0.354925 0.127932
0.105482 0.354158 0.129092
0.109497 0.35417 0.130441
0.113517 0.353752 0.13271
0.118321 0.353897 0.132183
0.122381 0.35405 0.133481
0.12616 0.353177 0.133829
0.130465 0.354118 0.133943
0.134569 0.35374 0.13305
0.138633 0.353403 0.132924
0.143308 0.353994 0.13156
0.147473 0.354122 0.130884
0.152227 0.354709 0.128806
0.156192 0.355139 0.127022
0.160897 0.355561 0.122535
0.165389 0.356847 0.116905
0.17064 0.357935 0.109684
0.178119 0.364094 0.0772939
0.182782 0.366243 0.067633
0.189402 0.369632 0.0478376
0.196745 0.37565 0.0173061
-0.196795 0.380513 0.0165879
-0.191067 0.377253 0.0316365
-0.185276 0.375165 0.0464793
-0.179812 0.372645 0.0570257
-0.174594 0.370975 0.0653132
-0.169598 0.369474 0.072004
-0.164261 0.367962 0.0788554
-0.160198 0.368075 0.0804133
-0.155806 0.368098 0.0817404
-0.151059 0.367214 0.0847648
-0.14676 0.367276 0.0853845
-0.141954 0.365914 0.0913684
-0.13693 0.363635 0.101578
-0.132983 0.363873 0.10211
-0.12814 0.363581 0.103511
-0.124091 0.363403 0.105037
-0.101956 0.310772 0.378534
-0.0983027 0.30975 0.384337
-0.0946286 0.30902 0.388789
-0.0906729 0.308218 0.392047
-0.086803 0.307822 0.394052
-0.0834578 0.307765 0.396296
-0.0794921 0.307261 0.39856
-0.0754285 0.306525 0.401634
-0.071894 0.306165 0.403382
-0.0684083 0.305577 0.406621
-0.0644125 0.304953 0.409189
-0.0609443 0.304081 0.412255
-0.0572952 0.303874 0.415022
-0.0530908 0.303401 0.417124
-0.0498604 0.303014 0.419646
-0.0464405 0.302713 0.42036
-0.0426609 0.302402 0.42307
-0.0390007 0.301885 0.425797
-0.035294 0.301572 0.426479
-0.0318048 0.301321 0.426545
-0.02827 0.301846 0.427417
-0.0250235 0.301171 0.428882
-0.0216111 0.301214 0.428509
-0.0180084 0.30119 0.429411
-0.0143663 0.301018 0.429755
-0.0105291 0.300894 0.430673
-0.00694719 0.300281 0.433576
-0.00373032 0.299996 0.435862
0.000102698 0.299846 0.436499
0.00356018 0.299602 0.439415
0.00705647 0.298693 0.440499
0.0105903 0.298293 0.444879
0.0139424 0.298064 0.445853
0.0174039 0.297844 0.4474
0.0209428 0.297713 0.44677
0.0244503 0.297209 0.45014
0.0282171 0.296688 0.450717
0.0314578 0.296592 0.452376
0.0347442 0.296685 0.452947
0.0382885 0.296761 0.453296
0.0420048 0.296233 0.45443
0.0456418 0.296136 0.45429
0.048893 0.296242 0.453955
0.0524807 0.296734 0.452223
0.0557869 0.296339 0.45286
0.0591046 0.296702 0.452438
0.0624002 0.296474 0.453521
0.0661253 0.296511 0.452822
0.0698096 0.296626 0.453011
0.0732507 0.29693 0.450098
0.0930188 0.359808 0.123061
0.0974391 0.359522 0.12519
0.101379 0.358412 0.127772
0.105144 0.358374 0.130382
0.10952 0.358238 0.131565
0.113652 0.357973 0.132653
0.117976 0.35764 0.13358
0.121739 0.357705 0.133542
0.126387 0.357856 0.134234
0.130108 0.358319 0.132698
0.134371 0.357774 0.133393
0.138822 0.358038 0.133426
0.143109 0.358242 0.132715
0.147294 0.357795 0.131374
0.151515 0.358307 0.12964
0.156709 0.359879 0.12242
0.162099 0.36234 0.109926
0.167753 0.366068 0.0909775
0.172973 0.366771 0.0854295
0.177971 0.368815 0.0755329
0.183612 0.37132 0.0649322
0.19127 0.378433 0.0260847
0.196501 0.379615 0.0181441
-0.191305 0.383089 0.0240438
-0.186461 0.381911 0.031528
-0.180843 0.378465 0.0479687
-0.174953 0.376481 0.0586352
-0.169918 0.375347 0.06612
-0.165037 0.373276 0.0731603
-0.160506 0.372941 0.0772313
-0.155513 0.372125 0.080961
-0.151455 0.372416 0.0819502
-0.147019 0.371957 0.0833607
-0.142695 0.371945 0.0836589
-0.137132 0.368881 0.0966948
-0.132822 0.368149 0.0990523
-0.128532 0.368117 0.0999599
-0.1244 0.368342 0.101533
-0.11972 0.367852 0.102674
-0.0986592 0.314663 0.378704
-0.0948622 0.313045 0.38603
-0.0909314 0.312475 0.389207
-0.087051 0.312035 0.392338
-0.0829644 0.311322 0.393962
-0.0799557 0.311087 0.395648
-0.0759349 0.310527 0.399463
-0.0720076 0.310037 0.401938
-0.0686204 0.309218 0.403733
-0.0648495 0.30912 0.40636
-0.0609507 0.308322 0.410267
-0.0573452 0.307708 0.41188
-0.0536557 0.307634 0.414499
-0.0500435 0.30726 0.4169
-0.0461633 0.30621 0.420167
-0.0424069 0.305756 0.422139
-0.039287 0.305559 0.424204
-0.0356309 0.305487 0.425033
-0.0318977 0.30522 0.426312
-0.0281206 0.305118 0.426699
-0.0246677 0.305009 0.427674
-0.0212224 0.305203 0.427887
-0.0178028 0.305016 0.426356
-0.0140949 0.305128 0.428102
-0.0103656 0.305022 0.42863
-0.00697037 0.303687 0.434744
-0.00350828 0.302976 0.43875
-0.000100613 0.302621 0.439926
0.00311754 0.302372 0.441024
0.0071315 0.30197 0.443235
0.0102651 0.301349 0.445366
0.0140262 0.300973 0.448039
0.0176067 0.300762 0.44882
0.0208377 0.300448 0.450748
0.0242397 0.299901 0.452521
0.0280106 0.299731 0.453319
0.0312758 0.299567 0.45525
0.0348553 0.299864 0.455037
0.0381347 0.299214 0.456507
0.0415438 0.299403 0.457184
0.0450516 0.299022 0.458847
0.0488162 0.298825 0.457918
0.0523507 0.299215 0.456623
0.0558545 0.299366 0.457417
0.0593215 0.298979 0.457384
0.0625766 0.298996 0.457443
0.0658556 0.299238 0.457625
0.0697759 0.299553 0.456663
0.0732972 0.29972 0.454287
0.0769774 0.300334 0.451742
0.0971419 0.363635 0.124872
0.101291 0.362734 0.129293
0.105542 0.362597 0.131411
0.109274 0.361853 0.13448
0.113414 0.361922 0.134675
0.117777 0.362641 0.132694
0.122124 0.362531 0.131454
0.126905 0.362425 0.131402
0.131003 0.362162 0.132949
0.134684 0.361852 0.133145
0.139116 0.361993 0.133194
0.143633 0.361875 0.133306
0.147886 0.362252 0.131609
0.152022 0.363385 0.125266
0.158726 0.368548 0.10068
0.163511 0.369999 0.0955304
0.16778 0.370405 0.0907804
0.172884 0.371497 0.0854425
0.177457 0.372952 0.0764456
0.183983 0.376063 0.0590308
0.19195 0.383184 0.0243957
0.196327 0.384118 0.0201763
0.201745 0.384989 0.0132554
-0.187284 0.38778 0.0230687
-0.181873 0.385906 0.0326619
-0.176254 0.38284 0.0498321
-0.170534 0.380815 0.0591788
-0.165675 0.379913 0.0662091
-0.160469 0.37808 0.0723747
-0.156211 0.377143 0.0775368
-0.15134 0.376313 0.0807563
-0.147305 0.376591 0.0811238
-0.142805 0.376453 0.081163
-0.138166 0.37558 0.0848128
-0.133391 0.374442 0.0927113
-0.128906 0.373589 0.0956709
-0.124688 0.373833 0.0952779
-0.119878 0.372835 0.0982711
-0.115653 0.373439 0.0978096
-0.0948223 0.317669 0.382174
-0.090917 0.316272 0.386928
-0.087238 0.31647 0.388853
-0.0834848 0.315586 0.390446
-0.0793811 0.31502 0.394149
-0.076168 0.315054 0.395598
-0.0721466 0.314022 0.399272
-0.0683721 0.313667 0.402034
-0.0648345 0.313004 0.404574
-0.0608648 0.312396 0.408099
-0.057354 0.311892 0.410519
-0.0538372 0.311621 0.412609
-0.0501189 0.311009 0.414873
-0.0462846 0.310218 0.417143
-0.0430234 0.310104 0.418909
-0.0392877 0.309541 0.42229
-0.0358703 0.309853 0.422186
-0.0319186 0.309042 0.424576
-0.0284661 0.308893 0.426056
-0.0248393 0.308718 0.426825
-0.0210617 0.308488 0.426618
-0.0176846 0.309035 0.426206
-0.0143164 0.308564 0.427484
-0.0105327 0.308404 0.429048
-0.00696953 0.306894 0.435813
-0.00345546 0.306169 0.439991
7.48694e-05 0.305783 0.441564
0.00369582 0.305336 0.442543
0.00693342 0.305193 0.444499
0.0106361 0.305085 0.447236
0.0138663 0.30421 0.449541
0.017789 0.30366 0.451561
0.0211129 0.303547 0.454189
0.0244158 0.302809 0.455103
0.0275531 0.302653 0.457701
0.0314942 0.302463 0.458342
0.0351189 0.302291 0.457776
0.0382747 0.302237 0.459469
0.0417859 0.302074 0.459945
0.0451228 0.302082 0.460678
0.0485793 0.302002 0.461832
0.0522695 0.302038 0.461212
0.0553821 0.301716 0.462175
0.0588697 0.301836 0.462186
0.0623529 0.301754 0.461763
0.0660062 0.30184 0.461299
0.0692451 0.301784 0.46172
0.0730517 0.302289 0.459182
0.0765334 0.302886 0.456851
0.0807814 0.304166 0.448447
0.101077 0.366536 0.13192
0.104768 0.36566 0.135591
0.109377 0.366088 0.136821
0.113171 0.365827 0.135104
0.118145 0.367024 0.129792
0.122232 0.367213 0.128755
0.126943 0.367047 0.128752
0.130939 0.366926 0.130846
0.134906 0.366439 0.133237
0.138572 0.366022 0.13342
0.143018 0.365775 0.134266
0.147393 0.36689 0.131776
0.154255 0.372049 0.101908
0.158251 0.372915 0.100552
0.163364 0.373991 0.0941998
0.168259 0.374597 0.0892484
0.174174 0.379528 0.0665594
0.180657 0.383074 0.0474279
0.186499 0.386233 0.0320994
0.191988 0.387655 0.0242443
0.19674 0.388246 0.0207604
0.201209 0.389147 0.0177839
-0.182029 0.391509 0.026592
-0.177378 0.390744 0.0317852
-0.171492 0.387779 0.0494423
-0.166013 0.384959 0.0596805
-0.161524 0.38409 0.0647885
-0.156797 0.383012 0.0701257
-0.152259 0.382499 0.0743742
-0.146991 0.38174 0.0781341
-0.14303 0.381134 0.0788382
-0.138906 0.381524 0.0787221
-0.13369 0.379986 0.0866642
-0.129342 0.379268 0.0900103
-0.125036 0.378717 0.0915372
-0.120844 0.378948 0.0919348
-0.1166 0.378251 0.0937362
-0.111835 0.378418 0.0932351
-0.0907154 0.320938 0.383831
-0.0875021 0.320334 0.386346
-0.0832927 0.320033 0.388425
-0.0798553 0.319407 0.391123
-0.0761278 0.31908 0.392517
-0.0722592 0.318236 0.396546
-0.0686523 0.317614 0.399226
-0.0647468 0.317059 0.40202
-0.0610293 0.316641 0.404784
-0.0573489 0.315944 0.408552
-0.0535261 0.315347 0.410908
-0.0501942 0.314919 0.413658
-0.0461816 0.31481 0.41509
-0.0430072 0.314495 0.416319
-0.0391872 0.314179 0.417629
-0.0355814 0.313492 0.419886
-0.0318598 0.313475 0.421151
-0.0283136 0.313103 0.42414
-0.0248723 0.312665 0.424115
-0.0214649 0.313307 0.423482
-0.0177125 0.312752 0.424376
-0.0140092 0.312286 0.426064
-0.0105597 0.311743 0.429554
-0.00728257 0.310754 0.435179
-0.00324126 0.309274 0.44078
2.78616e-05 0.309096 0.441865
0.00357457 0.308668 0.444968
0.00712185 0.30849 0.446353
0.0102565 0.307776 0.449692
0.0142493 0.307352 0.451885
0.017735 0.306699 0.45385
0.0209392 0.306286 0.456212
0.0242763 0.305801 0.459118
0.0277675 0.305548 0.459139
0.0312997 0.305815 0.459685
0.0346207 0.305516 0.46084
0.0383919 0.305337 0.461882
0.0412632 0.30492 0.46241
0.0450693 0.30484 0.463827
0.0483612 0.304761 0.465657
0.0521545 0.304432 0.465706
0.0555147 0.304387 0.466335
0.0590044 0.304075 0.467108
0.0624469 0.304408 0.467135
0.0653656 0.304287 0.466597
0.069325 0.304368 0.465314
0.0727388 0.304925 0.465318
0.0763171 0.305578 0.460299
0.0800083 0.306091 0.458196
0.10095 0.369442 0.136881
0.104858 0.369401 0.138034
0.108792 0.369537 0.139074
0.113549 0.370192 0.134374
0.117986 0.371467 0.129501
0.122327 0.371843 0.126244
0.126876 0.371688 0.125418
0.13118 0.371177 0.128953
0.134922 0.371114 0.130626
0.139088 0.370524 0.133035
0.142756 0.370279 0.13513
0.147385 0.370358 0.133824
0.154147 0.376508 0.102794
0.158775 0.377017 0.0979663
0.166515 0.385765 0.057422
0.17244 0.388279 0.0420766
0.177257 0.389514 0.0368834
0.182199 0.391137 0.0303595
0.186572 0.391752 0.0288961
0.191518 0.392058 0.025405
0.195958 0.392208 0.0238869
0.200501 0.392774 0.0215914
0.205297 0.393659 0.0176997
-0.17889 0.39764 0.0191793
-0.17276 0.395079 0.0314897
-0.167195 0.391809 0.049029
-0.1619 0.389913 0.0570526
-0.157188 0.388487 0.0635026
-0.152592 0.387871 0.0682245
-0.147828 0.386992 0.0724361
-0.143045 0.386539 0.0739967
-0.138733 0.386559 0.0758619
-0.134092 0.386033 0.0771351
-0.129351 0.384282 0.084403
-0.125262 0.384482 0.0854635
-0.121101 0.384181 0.085808
-0.116988 0.383592 0.087834
-0.112264 0.384386 0.0853153
-0.0911439 0.325067 0.379547
-0.0875407 0.324568 0.38385
-0.08362 0.323701 0.386587
-0.0800682 0.323543 0.387902
-0.07631 0.322842 0.391709
-0.0720978 0.322329 0.393752
-0.0689838 0.321645 0.396272
-0.0652288 0.321252 0.399167
-0.0611197 0.320712 0.401456
-0.0570911 0.319605 0.406057
-0.0538039 0.319202 0.408779
-0.0502548 0.318868 0.41145
-0.0465292 0.318542 0.413793
-0.0426749 0.31837 0.414125
-0.0392959 0.317696 0.41544
-0.0357684 0.317488 0.417513
-0.0321052 0.317462 0.418671
-0.0287519 0.317252 0.420436
-0.0251036 0.316754 0.42078
-0.0214247 0.316606 0.421114
-0.0179597 0.317008 0.421595
-0.0141176 0.316585 0.424231
-0.0106781 0.31535 0.428569
-0.00709889 0.314384 0.434218
-0.00311338 0.313126 0.439849
3.09877e-05 0.312412 0.443452
0.00335639 0.312069 0.444539
0.00699118 0.311633 0.446786
0.0102654 0.311086 0.449592
0.0138455 0.310421 0.452744
0.0175757 0.30989 0.455781
0.0211737 0.309593 0.458001
0.024277 0.309425 0.458465
0.0277165 0.308869 0.460824
0.0311125 0.308555 0.462756
0.0346993 0.308336 0.463427
0.0382457 0.307931 0.466083
0.0417495 0.30811 0.465668
0.0448099 0.307799 0.46555
0.0483234 0.307562 0.467065
0.0521054 0.307349 0.469367
0.05517 0.30692 0.470715
0.0588497 0.306724 0.471681
0.0619672 0.306949 0.470704
0.0653589 0.306999 0.469683
0.0688124 0.307167 0.469093
0.0726267 0.307394 0.468068
0.0760517 0.30821 0.466015
0.0795806 0.308417 0.464204
0.0834919 0.308978 0.461432
0.0868143 0.309507 0.457617
0.109289 0.373655 0.138962
0.113691 0.374403 0.134254
0.118484 0.376012 0.128418
0.122725 0.376342 0.124103
0.127016 0.376369 0.123967
0.13126 0.375911 0.126508
0.135401 0.375223 0.128742
0.139019 0.374907 0.132538
0.142778 0.374048 0.135597
0.14702 0.373962 0.136791
0.156513 0.387182 0.0703977
0.162422 0.390571 0.0558033
0.168208 0.39381 0.0390021
0.173437 0.394746 0.0335337
0.177325 0.395211 0.0322129
0.182493 0.395497 0.029217
0.18678 0.395359 0.0285592
0.191269 0.396373 0.0270616
0.1961 0.397 0.024573
0.200521 0.396755 0.0229657
0.205084 0.396905 0.0207281
0.210433 0.397953 0.0178182
-0.175348 0.404961 0.00578904
-0.169454 0.400116 0.0295867
-0.162552 0.396259 0.0482894
-0.158161 0.395005 0.053368
-0.153642 0.394331 0.0583
-0.148281 0.392282 0.0666417
-0.14365 0.39158 0.0704684
-0.1386 0.391461 0.0710758
-0.134484 0.391242 0.071277
-0.130705 0.391615 0.0709512
-0.125541 0.391031 0.0749186
-0.121562 0.390402 0.0770507
-0.116834 0.389233 0.0791935
-0.112675 0.39017 0.0773125
-0.107612 0.389613 0.0826044
-0.103683 0.388154 0.0873835
-0.0840385 0.328382 0.382341
-0.0801852 0.327704 0.385062
-0.0764376 0.327576 0.387416
-0.0726943 0.327153 0.389604
-0.0686743 0.325829 0.393856
-0.0651204 0.326153 0.394052
-0.0614535 0.325126 0.398323
-0.057493 0.324218 0.401622
-0.054099 0.323735 0.404464
-0.0502424 0.323134 0.408681
-0.0466613 0.322556 0.411585
-0.0429399 0.322555 0.411545
-0.0396424 0.322294 0.413917
-0.0355055 0.321611 0.415618
-0.0320638 0.321439 0.415722
-0.028377 0.321521 0.416213
-0.02497 0.321286 0.416345
-0.0211867 0.321506 0.416253
-0.0176697 0.320547 0.420024
-0.0143211 0.320041 0.423041
-0.0105852 0.318953 0.428987
-0.00721122 0.317801 0.433091
-0.00348743 0.317101 0.437667
-0.000210229 0.316089 0.442113
0.00394219 0.315678 0.444815
0.00686842 0.315131 0.446828
0.0105406 0.314414 0.450827
0.013928 0.313509 0.453826
0.0175741 0.31348 0.456534
0.0207447 0.3127 0.45968
0.0239905 0.312552 0.460439
0.027719 0.312266 0.462493
0.0311116 0.311962 0.464707
0.0347651 0.310901 0.46703
0.0382019 0.310885 0.468328
0.0417006 0.310788 0.469163
0.0451128 0.310712 0.469319
0.0484531 0.310528 0.469839
0.0515293 0.310072 0.471663
0.0551305 0.309964 0.471973
0.0586821 0.309864 0.47252
0.0620406 0.310127 0.472555
0.0654738 0.310256 0.471819
0.0690186 0.310065 0.471661
0.0723107 0.310371 0.469817
0.0760743 0.310727 0.469589
0.0797259 0.310741 0.468439
0.0832321 0.31105 0.467395
0.0865121 0.311462 0.465918
0.0906295 0.312963 0.457627
0.113689 0.378783 0.133988
0.118004 0.379558 0.128225
0.12263 0.38047 0.125264
0.126876 0.380687 0.124532
0.130881 0.380695 0.124603
0.135191 0.380154 0.127518
0.139214 0.379508 0.130908
0.14314 0.378832 0.135585
0.146833 0.377819 0.13794
0.15128 0.377759 0.138674
0.162427 0.396326 0.0485971
0.16848 0.398476 0.0357013
0.172888 0.398944 0.0322688
0.177237 0.399665 0.0307435
0.182026 0.400403 0.029564
0.186517 0.40026 0.0282196
0.19115 0.400243 0.0285401
0.195807 0.400705 0.0268614
0.200468 0.40089 0.0254226
0.205133 0.40092 0.0233881
0.210026 0.402006 0.0208453
0.214346 0.402333 0.0181466
-0.164806 0.404929 0.0258199
-0.159734 0.403938 0.0317634
-0.153525 0.400259 0.0497929
-0.149376 0.399016 0.0557323
-0.144147 0.397647 0.0626562
-0.139376 0.396722 0.0671259
-0.135055 0.396658 0.0667204
-0.130604 0.396785 0.0655878
-0.126929 0.397506 0.0639757
-0.122012 0.39583 0.070063
-0.117331 0.395188 0.0736457
-0.11256 0.394738 0.0755379
-0.10829 0.395055 0.0752822
-0.103464 0.393235 0.082821
-0.0995016 0.392705 0.0859958
-0.0946648 0.391889 0.0879993
-0.0904643 0.392885 0.0863158
-0.0726973 0.331516 0.385346
-0.0692027 0.33051 0.388963
-0.0653042 0.330827 0.389616
-0.0617783 0.330342 0.391156
-0.0582794 0.329611 0.394568
-0.05426 0.328095 0.401385
-0.0503539 0.327145 0.406341
-0.0467435 0.32649 0.408439
-0.042966 0.326356 0.409282
-0.0395508 0.326151 0.4106
-0.0361306 0.325794 0.412657
-0.0325015 0.325785 0.413571
-0.0284876 0.325619 0.414278
-0.0250515 0.325722 0.412812
-0.0213702 0.325365 0.413405
-0.0182686 0.324725 0.415956
-0.0141814 0.323861 0.421626
-0.0107465 0.322729 0.427093
-0.00716974 0.321953 0.431663
-0.00339534 0.321044 0.435734
-0.000119596 0.320195 0.439745
0.00325119 0.319253 0.444124
0.00708334 0.318074 0.448905
0.0103681 0.317584 0.452281
0.0136775 0.317163 0.45431
0.0178336 0.316613 0.457329
0.0208166 0.316115 0.460053
0.0240217 0.315823 0.461824
0.0275235 0.315272 0.463231
0.0309359 0.314866 0.465243
0.0344775 0.314475 0.469245
0.037921 0.314034 0.470268
0.0412625 0.314158 0.469871
0.0450206 0.313618 0.470887
0.0482293 0.313444 0.472644
0.0516932 0.313565 0.472318
0.0554166 0.313472 0.474477
0.0585694 0.312785 0.474768
0.0621669 0.313202 0.473143
0.065501 0.313186 0.473395
0.0686116 0.313025 0.473586
0.0724377 0.313286 0.472812
0.0753478 0.313414 0.4723
0.0795144 0.313599 0.471106
0.0828747 0.313599 0.471203
0.0864764 0.314226 0.46934
0.0899029 0.314706 0.465991
0.11393 0.382612 0.134381
0.118321 0.383989 0.130136
0.1227 0.384265 0.127066
0.12694 0.384397 0.125962
0.130896 0.384781 0.125362
0.134699 0.384264 0.127863
0.139066 0.383957 0.130154
0.14309 0.382786 0.13428
0.14704 0.382084 0.137533
0.150931 0.381308 0.1411
0.163132 0.401648 0.0417465
0.168203 0.403528 0.0345826
0.173534 0.403956 0.0318565
0.177345 0.404146 0.0306261
0.182411 0.404648 0.0303065
0.186481 0.404228 0.0297514
0.191127 0.404857 0.0285425
0.195779 0.404625 0.0280595
0.20024 0.404774 0.0271406
0.205334 0.405942 0.0241712
0.209503 0.405622 0.0235823
0.21439 0.406581 0.0194584
0.219253 0.407252 0.0172436
-0.161019 0.412432 0.0119916
-0.156311 0.410527 0.0224794
-0.151256 0.408669 0.0292578
-0.145247 0.404735 0.048745
-0.140509 0.404327 0.0513657
-0.136263 0.403936 0.0534819
-0.131314 0.402377 0.0582025
-0.127038 0.402896 0.0593408
-0.122355 0.400903 0.0668503
-0.117302 0.3998 0.0727669
-0.11283 0.399291 0.0735562
-0.108479 0.399506 0.0742751
-0.104166 0.399386 0.0740296
-0.100026 0.399437 0.0748051
-0.0953772 0.399064 0.0763985
-0.0910582 0.399172 0.0760617
-0.0869123 0.398729 0.0768201
-0.082309 0.399495 0.0768206
-0.0653451 0.335421 0.383283
-0.0614428 0.334438 0.38704
-0.0582026 0.334341 0.387319
-0.0546846 0.334146 0.390784
-0.0504853 0.332501 0.398284
-0.0466063 0.331161 0.40423
-0.0428273 0.330657 0.40567
-0.0394603 0.329785 0.408847
-0.0356645 0.329944 0.411259
-0.0321644 0.32973 0.411268
-0.0288204 0.330094 0.409392
-0.0252926 0.330221 0.408924
-0.0213123 0.32999 0.409863
-0.0180136 0.328675 0.414717
-0.0143271 0.328005 0.419314
-0.0103639 0.326344 0.426396
-0.0069015 0.325456 0.430972
-0.0034193 0.324957 0.435007
-0.000252489 0.323868 0.439178
0.00369689 0.3228 0.444433
0.00691954 0.321629 0.449645
0.0102965 0.320926 0.452338
0.0142421 0.320583 0.454724
0.0173322 0.319858 0.458139
0.0207551 0.319274 0.461018
0.0239728 0.319353 0.461783
0.0275793 0.31847 0.464147
0.0314726 0.318221 0.466894
0.0345656 0.317608 0.469056
0.0380542 0.317059 0.470597
0.0412674 0.317043 0.471163
0.0446856 0.317469 0.470775
0.0478802 0.316902 0.472408
0.0515656 0.316534 0.474171
0.0549036 0.316507 0.474445
0.0584458 0.316716 0.475083
0.061921 0.3163 0.474891
0.0651794 0.316217 0.475208
0.0688314 0.316537 0.474256
0.0724171 0.31663 0.474679
0.0760236 0.316512 0.474795
0.0791223 0.316173 0.475755
0.0826186 0.316766 0.473807
0.0862952 0.316867 0.472693
0.0899346 0.317406 0.470179
0.0933974 0.317906 0.468664
0.0967245 0.318251 0.465492
0.122423 0.38853 0.128917
0.126325 0.388767 0.126838
0.131451 0.388631 0.127221
0.135107 0.388118 0.129544
0.139263 0.38778 0.13041
0.143164 0.386916 0.134399
0.147211 0.386937 0.136845
0.151113 0.385822 0.141062
0.155049 0.385288 0.142795
0.168877 0.408955 0.0308608
0.173422 0.408725 0.0299946
0.177524 0.408532 0.0309988
0.181925 0.40881 0.0291759
0.186782 0.409214 0.029333
0.191331 0.408674 0.0291364
0.195711 0.409254 0.0278662
0.199997 0.40907 0.0278443
0.205021 0.409408 0.0269755
0.209318 0.409755 0.0247427
0.214095 0.410434 0.023463
0.218498 0.410867 0.0206486
-0.142862 0.414219 0.0262289
-0.136752 0.410253 0.0444556
-0.131481 0.408451 0.0525098
-0.127184 0.407819 0.0547128
-0.122716 0.407387 0.0583071
-0.117361 0.404791 0.0695602
-0.113119 0.403668 0.0733523
-0.108497 0.404346 0.0730605
-0.104126 0.403519 0.0747778
-0.0995408 0.404169 0.0734557
-0.0953747 0.404303 0.0735301
-0.0910675 0.403745 0.0757151
-0.086669 0.403787 0.0745809
-0.082776 0.403812 0.0750775
-0.0784001 0.40343 0.0758424
-0.0735661 0.40369 0.0762227
-0.0585441 0.340067 0.379326
-0.0542733 0.338781 0.385759
-0.0508917 0.337606 0.389784
-0.0472316 0.337073 0.394219
-0.0435322 0.33575 0.399782
-0.0397868 0.334825 0.403434
-0.0358072 0.334414 0.406198
-0.0321648 0.334903 0.405086
-0.0288433 0.334621 0.403989
-0.0255221 0.334858 0.402433
-0.0215759 0.334487 0.406373
-0.0179686 0.332801 0.412385
-0.0142647 0.332295 0.416675
-0.0104895 0.330091 0.425143
-0.00692613 0.329311 0.429204
-0.00349743 0.328305 0.433856
-0.000231633 0.32778 0.43804
0.00366534 0.326578 0.442947
0.0067284 0.325315 0.449526
0.010313 0.324373 0.453212
0.0137794 0.323684 0.454848
0.0174386 0.32331 0.458171
0.0211407 0.323015 0.460487
0.0242588 0.322496 0.462033
0.0278347 0.321852 0.4643
0.0312774 0.321191 0.466162
0.0346288 0.321213 0.468169
0.0378695 0.321035 0.469626
0.0411146 0.320527 0.471499
0.0448088 0.320375 0.472304
0.0481313 0.320217 0.473401
0.0515144 0.320013 0.474205
0.0550425 0.319851 0.476183
0.058319 0.319696 0.476009
0.0616822 0.319474 0.476333
0.0652526 0.319615 0.475036
0.0687465 0.31989 0.474916
0.0722454 0.319466 0.475415
0.0754804 0.319265 0.478179
0.0791888 0.319282 0.476529
0.0824175 0.319482 0.476657
0.0861765 0.319821 0.474661
0.0893484 0.32013 0.473854
0.0932712 0.320318 0.472496
0.0965199 0.320469 0.470885
0.100092 0.321248 0.469316
0.126428 0.392788 0.128272
0.131088 0.393015 0.127634
0.135146 0.392922 0.128194
0.139221 0.392784 0.13046
0.143196 0.391897 0.132554
0.147176 0.390584 0.136417
0.151484 0.389381 0.142506
0.155046 0.38897 0.144953
0.158747 0.389175 0.144043
0.173408 0.413264 0.0289366
0.177894 0.413718 0.0284491
0.18242 0.413409 0.0296035
0.18641 0.413194 0.0294244
0.191476 0.413367 0.0289695
0.195739 0.413539 0.0295101
0.199897 0.413498 0.0290343
0.204755 0.413593 0.0277939
0.208877 0.414232 0.026388
0.213378 0.414087 0.0242974
0.21849 0.415305 0.021917
0.223463 0.415239 0.0194355
-0.14296 0.420624 0.0164524
-0.137738 0.41746 0.0325888
-0.132151 0.413918 0.0469881
-0.127234 0.412401 0.052546
-0.122846 0.413021 0.0529512
-0.117866 0.410993 0.0599873
-0.113605 0.410261 0.0663971
-0.108835 0.409646 0.0687315
-0.104181 0.40973 0.0696528
-0.100087 0.408866 0.0719047
-0.0957813 0.409022 0.0719981
-0.0912718 0.408408 0.0732617
-0.0866511 0.408257 0.0734684
-0.0825607 0.408098 0.075341
-0.0780946 0.407486 0.075739
-0.073745 0.408402 0.0749348
-0.0694776 0.407886 0.0761815
-0.0653168 0.40811 0.0756072
-0.0510672 0.342146 0.384773
-0.047423 0.34147 0.389395
-0.0434322 0.340276 0.392786
-0.0397486 0.340237 0.395943
-0.0359375 0.339341 0.398447
-0.032722 0.339666 0.398015
-0.0289121 0.340107 0.396026
-0.0251783 0.339004 0.399945
-0.0217203 0.338342 0.404108
-0.0176071 0.336603 0.411564
-0.0142784 0.335933 0.416479
-0.0107872 0.334089 0.424872
-0.00747898 0.333134 0.428872
-0.00358019 0.331975 0.433997
-5.58556e-06 0.331128 0.438165
0.00333279 0.329958 0.442221
0.00708831 0.329026 0.447856
0.0101537 0.328088 0.45194
0.0141607 0.327828 0.454462
0.0177758 0.326774 0.458161
0.0209284 0.326622 0.460498
0.0242408 0.325797 0.46235
0.0273335 0.325364 0.463905
0.0313593 0.32486 0.466619
0.0344148 0.324292 0.468906
0.0379035 0.324562 0.468729
0.041263 0.324544 0.469591
0.0448435 0.323733 0.472467
0.0481546 0.32352 0.474404
0.0514611 0.32315 0.475731
0.0549047 0.323291 0.476697
0.0584427 0.322867 0.476225
0.0618674 0.323202 0.47582
0.0648478 0.323175 0.475539
0.068855 0.322863 0.476169
0.0719796 0.322967 0.4768
0.0755456 0.323034 0.477244
0.079181 0.322749 0.477356
0.0825945 0.323184 0.476596
0.085884 0.32279 0.47709
0.0894487 0.32286 0.475419
0.0929414 0.323251 0.475279
0.0961536 0.323216 0.475045
0.100037 0.323628 0.473125
0.103624 0.323928 0.472078
0.13058 0.396141 0.129237
0.134475 0.396395 0.129987
0.139123 0.396273 0.131393
0.143042 0.3957 0.133648
0.147417 0.395224 0.136573
0.150764 0.394155 0.14027
0.154474 0.392959 0.145208
0.158524 0.392915 0.14711
0.173428 0.418122 0.0273201
0.177621 0.418009 0.0274531
0.182352 0.417718 0.0280849
0.186436 0.417777 0.0286853
0.191154 0.418291 0.0293375
0.195822 0.418166 0.0285507
0.200012 0.417673 0.0296621
0.204751 0.418406 0.0270908
0.209155 0.418289 0.0265093
0.2139 0.418546 0.0249738
0.218065 0.418935 0.0236068
0.223377 0.419672 0.0207318
0.228083 0.420034 0.0182148
-0.138598 0.424406 0.0182031
-0.133404 0.421721 0.030604
-0.127981 0.419773 0.0411042
-0.123595 0.418857 0.0443313
-0.118923 0.418779 0.0449901
-0.115112 0.417665 0.0492457
-0.109374 0.41575 0.0603298
-0.104921 0.41546 0.0627661
-0.100698 0.414954 0.0646325
-0.0960256 0.413988 0.0671737
-0.0914891 0.414005 0.0684893
-0.0872791 0.413242 0.0697941
-0.0823981 0.413551 0.0709659
-0.0782945 0.413539 0.0709716
-0.0737131 0.413582 0.0716515
-0.0692193 0.412705 0.072807
-0.0651767 0.41281 0.0729123
-0.0604865 0.412317 0.0739018
-0.0562741 0.412919 0.0724862
-0.0436191 0.345545 0.387303
-0.0400937 0.344498 0.391901
-0.03601 0.34435 0.393292
-0.032516 0.34427 0.392699
-0.0288995 0.344394 0.391352
-0.0253635 0.344738 0.391109
-0.0215868 0.342031 0.403375
-0.0179559 0.340901 0.409572
-0.0142257 0.339576 0.415625
-0.0109472 0.337159 0.425458
-0.00678587 0.336263 0.431283
-0.00342287 0.335787 0.433462
-0.000140363 0.335017 0.436326
0.00353475 0.33413 0.441109
0.00700652 0.332814 0.446505
0.010335 0.332026 0.44969
0.0140056 0.331378 0.45332
0.0174285 0.330481 0.456466
0.0209407 0.330141 0.459405
0.0243148 0.329607 0.461423
0.0276002 0.328951 0.464828
0.0310171 0.328328 0.467251
0.034684 0.328207 0.468273
0.0381196 0.328044 0.469222
0.0414888 0.327783 0.469422
0.0450933 0.327374 0.47107
0.0482787 0.326681 0.473829
0.0516611 0.326485 0.475608
0.0552406 0.326325 0.476538
0.0583633 0.326329 0.476269
0.0617925 0.326377 0.475808
0.0656153 0.326687 0.475753
0.0685887 0.326596 0.477329
0.0723526 0.326266 0.477452
0.075489 0.3257 0.478707
0.0789923 0.325947 0.478693
0.0823503 0.326099 0.476942
0.0860967 0.326378 0.477297
0.0894675 0.326175 0.478148
0.0925705 0.325902 0.478149
0.0963637 0.326432 0.4767
0.0996276 0.326298 0.476609
0.102869 0.32675 0.475327
0.10688 0.327115 0.473545
0.110495 0.327466 0.470366
0.138779 0.400056 0.133146
0.142975 0.400253 0.133866
0.147238 0.398887 0.136219
0.15128 0.398412 0.139606
0.155093 0.396994 0.145345
0.158882 0.396589 0.149196
0.162786 0.396932 0.147936
0.178249 0.423482 0.0250852
0.182236 0.422747 0.0275179
0.186674 0.422378 0.0279831
0.190866 0.422426 0.0290534
0.195809 0.421888 0.0293115
0.200222 0.422376 0.0275412
0.204352 0.422474 0.0273782
0.209114 0.422954 0.0262349
0.213631 0.423595 0.0245433
0.218285 0.423547 0.023357
0.222863 0.423877 0.0207381
0.227797 0.424438 0.0184534
0.233002 0.425404 0.0133681
-0.135153 0.431161 0.00696373
-0.129318 0.428217 0.0225914
-0.124097 0.426204 0.0317504
-0.119613 0.425805 0.0340863
-0.115091 0.426053 0.0329489
-0.110919 0.426051 0.0328484
-0.104977 0.421537 0.0530393
-0.100833 0.420673 0.0564142
-0.0965753 0.420887 0.0578188
-0.0919589 0.419831 0.060655
-0.0868874 0.418968 0.0636678
-0.0833863 0.418659 0.0642878
-0.078673 0.418539 0.0662472
-0.0736698 0.417904 0.0682476
-0.0699311 0.418749 0.0674721
-0.0655374 0.418644 0.068254
-0.0611338 0.418718 0.0673919
-0.0565198 0.418339 0.0685732
-0.0521408 0.418354 0.0679245
-0.0404515 0.353007 0.370267
-0.0367174 0.351348 0.378061
-0.0327349 0.350792 0.381114
-0.0293292 0.34999 0.383215
-0.0254356 0.35034 0.38352
-0.0216364 0.346618 0.399264
-0.0177572 0.344133 0.410432
-0.0142784 0.342826 0.415517
-0.0106045 0.340605 0.427431
-0.00725431 0.339623 0.430961
-0.00348046 0.339038 0.433763
9.47266e-05 0.338462 0.435779
0.00347886 0.337681 0.44109
0.00677057 0.337058 0.44404
0.0105167 0.335788 0.449384
0.0138448 0.335255 0.451213
0.0175005 0.334131 0.457413
0.0207656 0.333784 0.458117
0.0243841 0.33332 0.459758
0.0276547 0.332565 0.462611
0.0312832 0.332128 0.465761
0.034662 0.332229 0.467419
0.0381469 0.331418 0.467634
0.0414662 0.331622 0.467853
0.0450812 0.331712 0.469498
0.0482767 0.330716 0.47187
0.051501 0.330552 0.47339
0.0552079 0.330346 0.474684
0.0584911 0.330037 0.474703
0.0620735 0.330051 0.475151
0.0655346 0.330017 0.475845
0.0686874 0.329556 0.476896
0.0719663 0.329604 0.478245
0.0753499 0.329343 0.478816
0.0791612 0.329699 0.478148
0.0823365 0.329295 0.478868
0.0857255 0.329307 0.479169
0.0892306 0.329443 0.477996
0.0924358 0.329397 0.478737
0.0960591 0.329185 0.478918
0.099333 0.329401 0.478451
0.103337 0.329376 0.477556
0.106256 0.329917 0.477509
0.110054 0.329927 0.476033
0.11381 0.330794 0.472796
0.143108 0.403491 0.135133
0.147501 0.403269 0.137378
0.150939 0.402444 0.140737
0.154905 0.40157 0.145422
0.158384 0.400446 0.15019
0.162634 0.400462 0.150424
0.177983 0.427669 0.0238262
0.182639 0.427315 0.0252517
0.186927 0.427156 0.026673
0.191372 0.427166 0.0264152
0.195864 0.426965 0.0272057
0.199986 0.427341 0.0276538
0.204454 0.426809 0.0279384
0.209383 0.42716 0.0257323
0.213455 0.426909 0.0260485
0.218511 0.427825 0.0241265
0.223066 0.42838 0.0209515
0.228423 0.42913 0.0167599
0.232927 0.430171 0.0132208
-0.120741 0.433317 0.019612
-0.115899 0.433178 0.0229628
-0.111533 0.431961 0.0258601
-0.106828 0.432004 0.0242186
-0.102579 0.430742 0.0287061
-0.0977466 0.430107 0.0340843
-0.091912 0.426464 0.0510962
-0.0874596 0.425876 0.0535848
-0.083113 0.42453 0.0575471
-0.0787831 0.424648 0.0583475
-0.074936 0.42493 0.0592617
-0.0703873 0.424422 0.0602652
-0.0660057 0.424078 0.0617088
-0.0610614 0.423619 0.0630066
-0.0568731 0.423521 0.0634755
-0.0520897 0.423763 0.0634193
-0.0482915 0.423908 0.062686
-0.0437472 0.423356 0.0634006
-0.0393226 0.424106 0.0612419
-0.0292811 0.355783 0.373619
-0.0253901 0.355161 0.375681
-0.0214389 0.352829 0.387393
-0.0176584 0.347979 0.409569
-0.0144176 0.346816 0.41406
-0.010823 0.344491 0.425622
-0.00706052 0.343421 0.43113
-0.0035621 0.34249 0.433087
0.000206607 0.342104 0.434379
0.00351067 0.341376 0.440663
0.00720466 0.340171 0.444988
0.010401 0.339788 0.448038
0.0139063 0.339055 0.450145
0.0169203 0.338091 0.453402
0.0207149 0.337797 0.456989
0.0242458 0.336947 0.458709
0.0277777 0.337003 0.460059
0.0310866 0.336556 0.462176
0.0344198 0.33565 0.465223
0.0381943 0.33596 0.464944
0.0415056 0.335458 0.465786
0.0449705 0.335292 0.467875
0.0483451 0.334691 0.469826
0.051774 0.334343 0.472126
0.0551809 0.333788 0.473385
0.058551 0.333808 0.473615
0.0619312 0.334129 0.47385
0.0652179 0.333822 0.474253
0.0689371 0.333515 0.475349
0.0721039 0.332899 0.477235
0.0755595 0.333223 0.477531
0.0789802 0.332817 0.478612
0.082479 0.33296 0.478731
0.0859291 0.33253 0.477996
0.0891624 0.332564 0.480397
0.092573 0.332796 0.479771
0.0961485 0.332244 0.47966
0.0990987 0.332742 0.479097
0.103154 0.332825 0.478892
0.106336 0.332715 0.47877
0.109572 0.332814 0.4784
0.113358 0.333508 0.47621
0.117108 0.333905 0.474043
0.147071 0.407225 0.138641
0.150876 0.406267 0.142826
0.154338 0.405603 0.147415
0.158515 0.404359 0.150963
0.16258 0.404177 0.151021
0.17824 0.432706 0.0224855
0.182881 0.432766 0.0226227
0.186717 0.431691 0.0252079
0.191311 0.432173 0.0254049
0.195719 0.431614 0.0261289
0.200387 0.432027 0.0253305
0.204589 0.431864 0.0259418
0.20911 0.43201 0.0257282
0.213801 0.431878 0.024744
0.218267 0.432337 0.0245587
0.223265 0.433145 0.0205212
0.228501 0.434361 0.0159487
0.23351 0.434966 0.0111585
0.238082 0.436539 0.00453436
-0.10814 0.440009 0.00877452
-0.103459 0.440587 0.00606644
-0.0998724 0.444364 -0.0103872
-0.0931632 0.435108 0.0312777
-0.0887336 0.434383 0.0332314
-0.0837579 0.434185 0.0358869
-0.0797805 0.4341 0.0365504
-0.0744001 0.43003 0.0523548
-0.0704832 0.430406 0.0529404
-0.0662712 0.430593 0.0531694
-0.0615508 0.429537 0.0562162
-0.0569492 0.429813 0.0564518
-0.0526511 0.429502 0.0578029
-0.0481095 0.429356 0.0570151
-0.0436456 0.429643 0.0570182
-0.0394954 0.429761 0.0551113
-0.034788 0.429496 0.0549538
-0.0308085 0.4293 0.0573931
-0.0262983 0.428672 0.0605021
-0.0178689 0.352331 0.40668
-0.014395 0.35074 0.412217
-0.0104307 0.348284 0.424094
-0.00722033 0.347149 0.429566
-0.00379205 0.346763 0.43138
-0.000184201 0.346041 0.43287
0.00371713 0.344855 0.438893
0.00704376 0.344329 0.443309
0.0107376 0.342948 0.447064
0.013866 0.34281 0.449069
0.0175384 0.342207 0.451767
0.0209034 0.341401 0.455595
0.0240408 0.340635 0.458202
0.0278369 0.34017 0.459666
0.0311584 0.340078 0.460632
0.0349512 0.339714 0.461969
0.0383863 0.340106 0.461261
0.0416211 0.340259 0.461803
0.0452388 0.339307 0.464658
0.0483261 0.338543 0.46768
0.0517656 0.338627 0.468748
0.0555069 0.338235 0.470038
0.0586666 0.33785 0.471138
0.0620739 0.337986 0.471308
0.0655156 0.337654 0.471907
0.0687545 0.337508 0.474512
0.0722653 0.336808 0.476428
0.0758863 0.336825 0.476618
0.0790006 0.336667 0.47723
0.0826583 0.336359 0.477946
0.0854673 0.336054 0.478895
0.0892847 0.335697 0.479913
0.092701 0.335636 0.480287
0.0958003 0.335824 0.480375
0.0994371 0.335812 0.480693
0.102835 0.335879 0.479758
0.106425 0.336019 0.479201
0.109814 0.336075 0.479415
0.113169 0.336564 0.478159
0.116806 0.336626 0.477564
0.120151 0.336975 0.476182
0.124041 0.337709 0.470964
0.154579 0.409254 0.148237
0.158711 0.408513 0.15232
0.162276 0.408382 0.153117
0.178839 0.437408 0.0202255
0.182392 0.43762 0.0207556
0.186811 0.436594 0.0229176
0.192022 0.437149 0.0228803
0.196053 0.437179 0.0227684
0.200531 0.436358 0.0242229
0.204974 0.436875 0.0242161
0.20932 0.436621 0.0231913
0.213951 0.436716 0.0230995
0.218594 0.436587 0.0228399
0.22304 0.437609 0.0212508
0.228305 0.438405 0.0164927
0.233771 0.439967 0.00926197
0.238437 0.441311 0.00341213
-0.089439 0.440503 0.0256958
-0.0846623 0.440095 0.029405
-0.0795234 0.439542 0.032644
-0.0749526 0.438393 0.0357023
-0.0706448 0.438344 0.0360707
-0.0663212 0.437924 0.0384916
-0.0622256 0.437346 0.0392615
-0.0573912 0.437281 0.0403855
-0.0532975 0.43713 0.0409775
-0.0489965 0.437852 0.0406315
-0.0441205 0.437774 0.0405439
-0.0396838 0.436582 0.042272
-0.0355568 0.437511 0.0407257
-0.0307591 0.436497 0.0446359
-0.0259041 0.434907 0.0524713
-0.0181383 0.358926 0.393869
-0.0144537 0.354736 0.409528
-0.0110789 0.353862 0.415275
-0.00699271 0.351976 0.424836
-0.00353307 0.350642 0.428635
0.000191441 0.350222 0.431717
0.00343192 0.349418 0.435037
0.00678951 0.348122 0.441524
0.0104973 0.346905 0.446029
0.0139162 0.346576 0.448175
0.0174615 0.346182 0.449611
0.0209236 0.345424 0.453281
0.0246034 0.344661 0.458189
0.0279008 0.343544 0.460628
0.0310708 0.34354 0.461932
0.0348618 0.343685 0.461633
0.0383617 0.344065 0.460687
0.0416219 0.343507 0.461956
0.045043 0.343103 0.46247
0.0483242 0.343275 0.462621
0.0514727 0.342715 0.46493
0.0554681 0.342276 0.465858
0.0585839 0.342439 0.466349
0.062077 0.342061 0.467376
0.0655875 0.342004 0.469737
0.0689111 0.340807 0.47286
0.0720786 0.340211 0.475417
0.0754157 0.340151 0.475862
0.0788042 0.340459 0.475104
0.0826103 0.33997 0.477169
0.0855834 0.339665 0.478891
0.0891496 0.339506 0.479261
0.0924861 0.339421 0.480307
0.0954458 0.339435 0.480585
0.0996771 0.33897 0.480821
0.102716 0.339067 0.480503
0.106142 0.339377 0.480343
0.109726 0.338921 0.480373
0.113154 0.339396 0.479918
0.116677 0.339993 0.478504
0.120368 0.340261 0.476742
0.123558 0.340245 0.475586
0.127527 0.341753 0.47078
0.158312 0.412552 0.153292
0.162614 0.411649 0.155607
0.179014 0.442311 0.0182216
0.183218 0.442362 0.0191276
0.187785 0.442385 0.0196953
0.192056 0.442157 0.0204971
0.196552 0.441872 0.0208995
0.200526 0.442073 0.0208766
0.2053 0.441754 0.0221412
0.209708 0.442267 0.0210193
0.214258 0.441278 0.0217502
0.21864 0.441652 0.0206418
0.223751 0.442761 0.0174598
0.227931 0.442921 0.0160145
0.233462 0.444289 0.0098083
0.239586 0.446087 0.00111163
-0.0713316 0.444555 0.028731
-0.0669607 0.443747 0.0323486
-0.0623193 0.443053 0.0345731
-0.057809 0.443136 0.0351163
-0.0535927 0.442982 0.0365907
-0.0486185 0.442933 0.0371857
-0.0445364 0.442678 0.0374224
-0.0398354 0.443079 0.0364895
-0.0354942 0.443039 0.0349202
-0.0312853 0.445111 0.0274917
-0.0268174 0.446559 0.0201474
-0.017992 0.363311 0.388524
-0.0140017 0.359409 0.407089
-0.0107995 0.357959 0.41369
-0.00749129 0.356155 0.419321
-0.00350067 0.354965 0.425175
0.000236344 0.353834 0.430245
0.00368666 0.353461 0.433179
0.00702082 0.352307 0.43747
0.010638 0.350996 0.443407
0.0140949 0.350641 0.445933
0.0174002 0.350461 0.447545
0.0210194 0.349933 0.449983
0.0241642 0.34809 0.456917
0.027801 0.347405 0.459805
0.0312579 0.347055 0.461353
0.0348128 0.347118 0.460891
0.0385006 0.346879 0.461172
0.0417363 0.346939 0.462269
0.0452075 0.347064 0.460932
0.0484317 0.346641 0.46164
0.0519644 0.346533 0.463138
0.0552822 0.346981 0.462138
0.0589957 0.347027 0.462334
0.0623648 0.346483 0.462899
0.0658876 0.34649 0.463735
0.0689811 0.345344 0.468732
0.0722358 0.344511 0.471737
0.0754899 0.344669 0.472546
0.0793031 0.344268 0.472684
0.0823003 0.344095 0.47451
0.0859893 0.343643 0.47675
0.0892959 0.343268 0.478196
0.0925926 0.343102 0.479007
0.0959887 0.34258 0.480652
0.0993981 0.342718 0.479683
0.102813 0.342381 0.481366
0.10628 0.342567 0.480255
0.109723 0.342857 0.480384
0.113188 0.342724 0.480241
0.116907 0.342912 0.478263
0.120016 0.343264 0.477495
0.123952 0.343809 0.475646
0.127612 0.344071 0.473606
0.157927 0.416433 0.153999
0.162661 0.415494 0.156959
0.179507 0.448123 0.0140636
0.183223 0.4471 0.0153816
0.187716 0.446895 0.0168108
0.192502 0.44699 0.0185577
0.196981 0.446939 0.0174081
0.201173 0.447053 0.0183108
0.205669 0.446964 0.0183611
0.210257 0.447183 0.0179186
0.214674 0.446856 0.0188823
0.218725 0.447386 0.0178179
0.224065 0.447702 0.0154963
0.228826 0.447922 0.0130659
0.232796 0.448813 0.00928283
0.238638 0.450947 0.00171387
0.24411 0.452237 -0.00643539
-0.0440818 0.450759 0.0197974
