ply
format ascii 1.0
element vertex 1712
property float x
property float y
property float z
end_header
0.0476768 0.143169 0.240271
0.0514913 0.143076 0.2393
0.055588 0.143037 0.23776
0.0595319 0.143423 0.235105
0.0637638 0.143285 0.233113
0.0681729 0.14324 0.231371
0.0718528 0.143695 0.22921
0.075878 0.144442 0.226677
0.0796059 0.144121 0.225564
0.0840845 0.144267 0.222467
0.0888251 0.145063 0.217747
0.0926284 0.144921 0.215414
0.096992 0.145035 0.208855
0.100949 0.146023 0.206765
0.105373 0.145905 0.204936
0.109298 0.145901 0.201988
0.113531 0.146466 0.197815
0.118258 0.146571 0.193249
0.122671 0.147172 0.188926
0.12769 0.148374 0.174418
0.131877 0.148438 0.171226
0.136516 0.148874 0.166416
0.143405 0.151223 0.135268
0.148994 0.152653 0.115133
0.153212 0.153078 0.109933
0.159209 0.154688 0.0949168
0.164213 0.155223 0.0858364
0.168251 0.155654 0.0823858
0.1733 0.155798 0.0791495
0.17778 0.155704 0.079116
0.181715 0.155732 0.0817136
0.186032 0.155838 0.0830036
0.190526 0.155881 0.0830581
0.19396 0.155876 0.0830741
0.19905 0.155144 0.0831252
0.203298 0.155398 0.0840931
0.207315 0.155455 0.0817851
0.211946 0.155811 0.0790869
0.217257 0.156291 0.0741514
0.221717 0.156919 0.0731621
0.226703 0.156732 0.0688298
0.233131 0.158149 0.0497905
0.237742 0.158565 0.0479219
0.242869 0.158368 0.0460424
0.24755 0.158834 0.0416453
0.252423 0.15965 0.0366267
0.256931 0.159533 0.0355649
0.260976 0.159607 0.0355432
-0.247405 0.166021 0.00302541
-0.242519 0.16593 0.00814211
-0.237639 0.16601 0.0126879
-0.232143 0.165233 0.018216
-0.227471 0.165088 0.0206811
-0.223006 0.164958 0.0213065
-0.218648 0.164941 0.0205628
-0.214191 0.165271 0.021167
-0.209827 0.165005 0.021331
-0.205444 0.164716 0.0217385
-0.198737 0.163311 0.0427982
-0.185002 0.155733 0.134344
-0.180396 0.154577 0.142488
-0.175437 0.154531 0.149845
-0.169412 0.153302 0.166335
-0.164757 0.152268 0.173339
-0.159907 0.15192 0.18106
-0.155626 0.151201 0.186967
-0.150991 0.150874 0.193756
-0.14654 0.150373 0.195902
-0.142489 0.150305 0.199658
-0.137112 0.149288 0.21158
-0.133071 0.148876 0.216026
-0.128226 0.148553 0.219665
-0.124043 0.148128 0.22242
-0.119666 0.147925 0.225628
-0.116102 0.147957 0.227773
-0.1119 0.147388 0.229392
-0.107752 0.147639 0.230029
-0.103615 0.147651 0.231515
-0.0989522 0.147252 0.235013
-0.0949542 0.14702 0.237306
-0.0912248 0.14681 0.238494
-0.0870461 0.146573 0.240709
-0.0832805 0.146897 0.241696
-0.0791963 0.146173 0.244298
-0.0746167 0.146237 0.246345
-0.0710806 0.146335 0.24786
-0.067257 0.145895 0.249638
-0.0631524 0.145974 0.249315
-0.0593308 0.146049 0.248899
-0.0558786 0.146618 0.245555
-0.0517991 0.147033 0.236675
-0.0478164 0.146935 0.236532
-0.043564 0.147142 0.236703
-0.0397097 0.146961 0.236708
-0.0359842 0.147201 0.236668
-0.0316677 0.147174 0.237405
-0.0277259 0.147088 0.23732
-0.0238903 0.146726 0.238276
-0.0199445 0.146816 0.238021
-0.0159215 0.146875 0.237489
-0.0118885 0.147079 0.237891
-0.00770299 0.146657 0.238924
-0.00403522 0.146488 0.240925
0.000186389 0.145871 0.251068
0.00411372 0.145841 0.253888
0.00796812 0.145881 0.254291
0.0115647 0.145568 0.254302
0.0159121 0.145646 0.252418
0.0197967 0.145877 0.250344
0.0238552 0.146469 0.247766
0.0279959 0.146255 0.246078
0.0316175 0.146481 0.24397
0.0356095 0.146418 0.243645
0.0395647 0.147058 0.240893
0.0436879 0.146972 0.241312
0.0476837 0.146773 0.241311
0.0515172 0.147106 0.239936
0.0557245 0.147038 0.237994
0.0594276 0.147117 0.23595
0.0636627 0.147614 0.234824
0.0675912 0.147556 0.233389
0.0714028 0.147218 0.231499
0.0758156 0.147871 0.227682
0.0796438 0.14786 0.225099
0.0842334 0.148361 0.223424
0.0884092 0.148607 0.220127
0.0926441 0.148999 0.217252
0.0970465 0.149387 0.211819
0.10083 0.14968 0.209821
0.104938 0.149515 0.208041
0.109112 0.149343 0.205502
0.113388 0.15048 0.201183
0.117989 0.150221 0.196056
0.121873 0.151239 0.191168
0.127491 0.152191 0.176386
0.131225 0.151935 0.174333
0.1363 0.152455 0.168545
0.142257 0.155382 0.139803
0.14833 0.156441 0.120207
0.153177 0.157412 0.11406
0.157583 0.157919 0.109934
0.163206 0.158775 0.0964826
0.167615 0.159448 0.0922272
0.172298 0.159589 0.0890362
0.176807 0.159284 0.0881215
0.180999 0.159621 0.0901393
0.184917 0.159642 0.0914837
0.189427 0.159118 0.0912268
0.194023 0.159428 0.0911143
0.198415 0.159305 0.0911764
0.202204 0.159168 0.0909104
0.207153 0.159064 0.0885971
0.211519 0.159716 0.0874512
0.216313 0.159858 0.0829417
0.220718 0.160153 0.080385
0.225572 0.160524 0.0798583
0.229938 0.160254 0.0771315
0.235158 0.161227 0.0673045
0.240365 0.161633 0.0615106
0.244755 0.162 0.059921
0.249747 0.162156 0.0561404
0.255726 0.16246 0.0443468
0.260202 0.163057 0.0456778
0.264576 0.163028 0.0436096
0.269402 0.163345 0.040687
0.273933 0.163854 0.0413307
-0.258038 0.171801 -0.00328588
-0.251354 0.170438 0.0110759
-0.246286 0.169828 0.0143293
-0.241195 0.169555 0.0180132
-0.236683 0.169674 0.0218886
-0.231308 0.169154 0.0259778
-0.22712 0.168891 0.0267961
-0.222151 0.168842 0.0269848
-0.21797 0.169064 0.0273737
-0.213109 0.169007 0.0312567
-0.208208 0.168382 0.0365366
-0.20212 0.167181 0.0515299
-0.197454 0.166488 0.0577503
-0.184852 0.159552 0.137287
-0.179815 0.158727 0.146037
-0.175182 0.158394 0.152651
-0.169005 0.156667 0.170184
-0.164725 0.156581 0.176063
-0.159711 0.155699 0.183
-0.15532 0.155013 0.18934
-0.150381 0.154815 0.195412
-0.146569 0.154502 0.198584
-0.141356 0.153687 0.206213
-0.136904 0.15313 0.214785
-0.132443 0.152073 0.219948
-0.12835 0.152102 0.222489
-0.12415 0.151861 0.226358
-0.11947 0.15158 0.230331
-0.115662 0.151349 0.23128
-0.111627 0.151717 0.230702
-0.107254 0.151364 0.232072
-0.103413 0.151312 0.233604
-0.099414 0.151105 0.236429
-0.0951471 0.150939 0.239568
-0.091654 0.150537 0.240022
-0.0875711 0.15013 0.241869
-0.0831295 0.150572 0.242567
-0.0788961 0.149971 0.244921
-0.0753497 0.150584 0.245751
-0.071461 0.150014 0.248816
-0.0665452 0.150038 0.250823
-0.0632386 0.150043 0.251653
-0.0593428 0.150175 0.250681
-0.0551276 0.150282 0.250273
-0.0512673 0.149887 0.243953
-0.0477962 0.151032 0.239814
-0.043611 0.15098 0.237389
-0.0397965 0.15092 0.237711
-0.035592 0.150664 0.238322
-0.0319663 0.151108 0.23717
-0.0281162 0.150804 0.23774
-0.0236644 0.150971 0.238724
-0.0199516 0.150336 0.239237
-0.0157753 0.150976 0.239017
-0.0119989 0.151205 0.239387
-0.0082099 0.150852 0.241731
-0.0036846 0.149728 0.252956
6.5678e-05 0.149392 0.256497
0.00416914 0.149543 0.256912
0.00756675 0.149094 0.257536
0.0115101 0.14969 0.256557
0.0159721 0.149758 0.252671
0.0197554 0.149451 0.24959
0.0237745 0.149931 0.248755
0.0276242 0.150372 0.249642
0.0314564 0.150086 0.248133
0.035761 0.150253 0.246244
0.0395385 0.150246 0.242355
0.0436286 0.150478 0.242258
0.047575 0.150794 0.243403
0.0519458 0.150521 0.24186
0.0554567 0.151051 0.239948
0.0595631 0.150816 0.237671
0.0638592 0.151079 0.236146
0.0675221 0.151175 0.233703
0.0721692 0.151608 0.231682
0.076053 0.151568 0.229036
0.0797673 0.151943 0.227546
0.0839524 0.152074 0.224575
0.087864 0.1525 0.222611
0.0921564 0.152682 0.220445
0.0966136 0.153238 0.214802
0.100972 0.153278 0.21115
0.105103 0.153184 0.209537
0.109231 0.153503 0.207284
0.113652 0.154384 0.202536
0.118428 0.154585 0.197068
0.122584 0.15485 0.192321
0.12703 0.155992 0.179658
0.131367 0.156296 0.175787
0.13631 0.156483 0.170639
0.142163 0.159195 0.141373
0.147532 0.160696 0.12791
0.152781 0.161278 0.119148
0.157472 0.161651 0.114666
0.161937 0.161907 0.107836
0.166965 0.162455 0.100178
0.171628 0.163197 0.0972635
0.175606 0.163161 0.0975432
0.180124 0.162929 0.0974324
0.184974 0.163177 0.096874
0.188735 0.162656 0.095819
0.192892 0.162861 0.0961766
0.197159 0.163489 0.0962673
0.201857 0.163296 0.0970466
0.206348 0.163452 0.0959399
0.210429 0.163201 0.0947148
0.215209 0.163606 0.0902483
0.220092 0.163691 0.0867283
0.224404 0.164117 0.0851982
0.228912 0.164087 0.0834116
0.233638 0.164496 0.0798388
0.23921 0.165292 0.0702446
0.244202 0.165455 0.0670124
0.2483 0.165476 0.0669891
0.253917 0.16634 0.0593919
0.258842 0.166729 0.0541128
0.263375 0.166935 0.0547612
0.267729 0.166607 0.0527073
0.272431 0.167014 0.0502002
0.276766 0.166929 0.0497613
0.281224 0.167408 0.0511526
-0.298473 0.181644 -0.0679152
-0.29343 0.1818 -0.0629332
-0.288504 0.1816 -0.059835
-0.28299 0.18084 -0.0585294
-0.278225 0.180671 -0.0564685
-0.266554 0.176555 -0.00559688
-0.26119 0.175818 0.00135219
-0.254774 0.174593 0.0161992
-0.25012 0.174063 0.0195965
-0.244727 0.173702 0.0252444
-0.24006 0.173135 0.0289292
-0.235212 0.173095 0.0320262
-0.230772 0.173122 0.0327152
-0.225606 0.172805 0.0352256
-0.221156 0.172651 0.035709
-0.21694 0.17257 0.0390185
-0.211361 0.171609 0.0486039
-0.206456 0.171158 0.0540577
-0.201566 0.170736 0.0601718
-0.190078 0.164681 0.126675
-0.18426 0.163301 0.142901
-0.179417 0.162632 0.150429
-0.174504 0.161733 0.161504
-0.169152 0.160961 0.171189
-0.164521 0.160346 0.178228
-0.159544 0.159408 0.184885
-0.155292 0.159105 0.19152
-0.150868 0.158336 0.197953
-0.146032 0.157855 0.201774
-0.141304 0.157433 0.211173
-0.136731 0.15675 0.217025
-0.132206 0.156323 0.220974
-0.128131 0.156119 0.224322
-0.124248 0.155589 0.227834
-0.119524 0.155718 0.230447
-0.115476 0.155627 0.232869
-0.111672 0.15562 0.23248
-0.107462 0.155484 0.233621
-0.103484 0.155646 0.236446
-0.0991026 0.154742 0.239085
-0.0948744 0.154475 0.241954
-0.0912271 0.154572 0.242642
-0.0870254 0.154364 0.243764
-0.0832401 0.154542 0.243862
-0.0790008 0.154 0.244815
-0.0747126 0.154251 0.24692
-0.0711405 0.154117 0.248879
-0.0672553 0.153918 0.250668
-0.0628005 0.153512 0.25379
-0.0592672 0.15398 0.253346
-0.0547132 0.153792 0.25388
-0.0513875 0.153602 0.252134
-0.0473777 0.154258 0.243801
-0.0432056 0.154711 0.239266
-0.0395746 0.154894 0.238912
-0.0357463 0.155224 0.237921
-0.0318133 0.155403 0.237721
-0.0276605 0.154815 0.238747
-0.0238169 0.154957 0.239511
-0.0203044 0.15483 0.239494
-0.0157468 0.154964 0.23967
-0.0117936 0.154509 0.241406
-0.0078092 0.153582 0.254554
-0.0040421 0.153314 0.257576
4.94012e-05 0.153302 0.258794
0.00407626 0.152719 0.258687
0.00757166 0.153305 0.258031
0.0119362 0.153544 0.254971
0.0159718 0.153519 0.252179
0.0195867 0.154037 0.250995
0.0236162 0.154352 0.250327
0.0278797 0.153787 0.249762
0.0314723 0.15366 0.250347
0.0355779 0.153765 0.249236
0.0393058 0.154366 0.244962
0.0434509 0.154272 0.244331
0.0476307 0.154242 0.243212
0.0514779 0.154754 0.242689
0.0555224 0.154641 0.240308
0.0594586 0.154831 0.239046
0.0640437 0.15502 0.236711
0.0674358 0.155516 0.235535
0.0716743 0.155576 0.233157
0.075776 0.155759 0.230161
0.0802956 0.156061 0.228217
0.0838933 0.156076 0.227589
0.0882163 0.156128 0.224498
0.0922644 0.156242 0.221949
0.0967433 0.156891 0.215745
0.100897 0.156919 0.212092
0.104651 0.157264 0.212036
0.109035 0.157271 0.209617
0.113061 0.157797 0.206027
0.117806 0.158156 0.200527
0.121878 0.158796 0.195645
0.126966 0.159838 0.182562
0.131883 0.160193 0.178772
0.135741 0.160665 0.173798
0.142384 0.163366 0.144538
0.147228 0.163985 0.13341
0.152413 0.165109 0.123906
0.157223 0.165558 0.11959
0.16131 0.165677 0.113948
0.166102 0.166207 0.109576
0.170388 0.166728 0.105761
0.174954 0.166723 0.102961
0.179481 0.167025 0.104175
0.183826 0.166569 0.10426
0.187847 0.166464 0.105267
0.192503 0.167045 0.104173
0.19686 0.166913 0.102927
0.201392 0.166665 0.102011
0.205269 0.166945 0.102885
0.209406 0.166798 0.103063
0.214082 0.167226 0.100545
0.218721 0.167342 0.0959349
0.224067 0.167434 0.0915982
0.228434 0.167796 0.0912396
0.232624 0.168236 0.0895174
0.238119 0.16852 0.0793821
0.243351 0.16914 0.0722871
0.247512 0.169985 0.0729228
0.253126 0.170223 0.0688038
0.258275 0.170567 0.0605839
0.262234 0.170491 0.0598792
0.266721 0.170702 0.0594184
0.27181 0.171085 0.0571584
0.275955 0.171187 0.0555372
0.280819 0.170817 0.056847
-0.30602 0.185407 -0.0559959
-0.30071 0.185181 -0.0527492
-0.296138 0.184719 -0.0507457
-0.290848 0.184786 -0.0457304
-0.285685 0.184707 -0.0452812
-0.27901 0.182888 -0.0284033
-0.273348 0.182128 -0.0200853
-0.26615 0.180054 0.00260067
-0.259784 0.178474 0.0179255
-0.254396 0.178431 0.0250936
-0.249088 0.177929 0.0290127
-0.243976 0.177124 0.0334413
-0.239215 0.176852 0.0356606
-0.233909 0.177287 0.0388694
-0.230105 0.17693 0.0384427
-0.224846 0.176728 0.0416089
-0.220731 0.175836 0.0456071
-0.215299 0.176025 0.0534325
-0.210678 0.175756 0.0550448
-0.206247 0.175079 0.0582694
-0.200899 0.174571 0.0633541
-0.189216 0.168391 0.134351
-0.183404 0.167074 0.148165
-0.17853 0.166333 0.15302
-0.173269 0.164923 0.166687
-0.168542 0.165056 0.174516
-0.164011 0.164162 0.180399
-0.158892 0.163587 0.188146
-0.154592 0.162788 0.19366
-0.15028 0.162415 0.200369
-0.146126 0.162334 0.202827
-0.14093 0.161393 0.213491
-0.136409 0.160689 0.218599
-0.131953 0.16024 0.223439
-0.128007 0.160326 0.226689
-0.123988 0.159712 0.228812
-0.119572 0.159399 0.231701
-0.115768 0.159231 0.23377
-0.111587 0.159247 0.234947
-0.107475 0.159268 0.234714
-0.103499 0.15914 0.23827
-0.099217 0.158611 0.240758
-0.0948802 0.158168 0.243937
-0.0909697 0.158612 0.245217
-0.0868735 0.158097 0.245284
-0.083671 0.158294 0.247816
-0.0796557 0.1579 0.247156
-0.0751433 0.157904 0.247758
-0.0712238 0.158178 0.24798
-0.0667458 0.157584 0.251369
-0.063024 0.157322 0.254219
-0.059044 0.15736 0.25492
-0.055147 0.157263 0.255804
-0.0513817 0.15738 0.255075
-0.047502 0.157437 0.253057
-0.0438377 0.157981 0.247174
-0.0396169 0.158422 0.242288
-0.0359249 0.15896 0.240428
-0.0317425 0.158288 0.239662
-0.027687 0.158853 0.240047
-0.0235895 0.158844 0.240477
-0.0199028 0.15867 0.240357
-0.0160608 0.158316 0.242022
-0.0119652 0.157509 0.256654
-0.00786305 0.156961 0.258344
-0.00431855 0.156973 0.259757
-0.000180492 0.156774 0.259684
0.00424279 0.157266 0.258751
0.00775318 0.157252 0.256952
0.0115332 0.15749 0.254375
0.0155737 0.157578 0.253573
0.0194758 0.157524 0.251909
0.0236504 0.157955 0.252756
0.027602 0.157866 0.252197
0.0314123 0.157731 0.250796
0.0354552 0.157883 0.250142
0.0393979 0.158363 0.245109
0.0431432 0.158032 0.244675
0.0475216 0.158533 0.244565
0.0515334 0.158616 0.244323
0.0556975 0.158809 0.24205
0.0596077 0.158362 0.239872
0.0633932 0.158969 0.237773
0.0672779 0.158856 0.236692
0.0716805 0.159542 0.234344
0.0758361 0.159477 0.231373
0.0800983 0.159745 0.230479
0.0839458 0.159846 0.228297
0.0877734 0.160111 0.226629
0.0922264 0.160589 0.224886
0.0965369 0.160694 0.218267
0.100752 0.161027 0.214545
0.105009 0.161504 0.213256
0.108553 0.161169 0.212297
0.113348 0.161642 0.207131
0.117435 0.161931 0.203268
0.121881 0.162844 0.197526
0.126272 0.162931 0.191985
0.131152 0.164061 0.179964
0.135651 0.164194 0.176338
0.14096 0.165831 0.160604
0.147496 0.167825 0.136212
0.151738 0.169173 0.129071
0.156417 0.169118 0.124651
0.16105 0.169432 0.121545
0.166132 0.169994 0.1152
0.170064 0.170382 0.111372
0.174883 0.170648 0.110005
0.178832 0.170809 0.110464
0.183158 0.170355 0.110425
0.187573 0.170467 0.110791
0.191869 0.170554 0.108565
0.196149 0.170887 0.108213
0.200655 0.170875 0.107396
0.20476 0.170867 0.107209
0.209199 0.170634 0.106707
0.213619 0.171037 0.105134
0.218614 0.171092 0.101495
0.223718 0.171897 0.0967724
0.227745 0.171535 0.0961729
0.232126 0.171881 0.0936583
0.236912 0.172159 0.0912713
0.242605 0.173461 0.0815141
0.247303 0.173425 0.0767734
0.251767 0.173851 0.0741267
0.256749 0.174162 0.0687473
0.262385 0.174658 0.0638739
0.266223 0.174759 0.064055
0.271071 0.174789 0.0618074
0.275838 0.174805 0.0584738
0.280061 0.174619 0.0595406
0.284169 0.175193 0.0600964
-0.326792 0.197346 -0.132041
-0.309849 0.189443 -0.049418
-0.30475 0.189125 -0.049155
-0.299673 0.189049 -0.0443683
-0.294817 0.189084 -0.0412469
-0.289615 0.188482 -0.0386577
-0.283764 0.187337 -0.0265751
-0.276808 0.186787 -0.0155613
-0.27027 0.184584 0.00367081
-0.263747 0.183724 0.0153706
-0.258335 0.182313 0.0274475
-0.253606 0.182333 0.0299283
-0.248204 0.181698 0.0346127
-0.243207 0.181628 0.0388641
-0.238881 0.181434 0.0421544
-0.233848 0.181068 0.043433
-0.229487 0.180943 0.0445893
-0.224037 0.18046 0.050886
-0.219389 0.18 0.0546405
-0.214704 0.179677 0.0564688
-0.210638 0.179563 0.0584928
-0.20549 0.179206 0.0622776
-0.200765 0.178571 0.0669079
-0.188336 0.171782 0.141307
-0.183468 0.171014 0.150368
-0.178951 0.170902 0.155449
-0.173074 0.169132 0.170079
-0.168817 0.168357 0.17498
-0.163906 0.168241 0.182482
-0.159592 0.166999 0.189653
-0.154983 0.167207 0.195523
-0.149882 0.166004 0.201994
-0.145822 0.165452 0.206681
-0.140832 0.165033 0.21597
-0.13632 0.164482 0.219782
-0.131615 0.164264 0.223998
-0.127589 0.163829 0.228164
-0.123723 0.163473 0.229695
-0.119531 0.163427 0.233589
-0.115545 0.163243 0.234081
-0.111325 0.163305 0.235755
-0.10748 0.162866 0.236022
-0.103038 0.162956 0.238958
-0.0988524 0.162281 0.242173
-0.0949688 0.162708 0.244776
-0.090523 0.162024 0.246375
-0.0869926 0.162242 0.248231
-0.0830532 0.162289 0.248236
-0.0789455 0.161661 0.248664
-0.0750776 0.161697 0.249486
-0.0705506 0.161475 0.250411
-0.0669502 0.161293 0.250882
-0.0629713 0.161653 0.253031
-0.0593912 0.161403 0.254622
-0.05484 0.161111 0.257053
-0.0509761 0.161045 0.258123
-0.0475308 0.161448 0.256579
-0.0432263 0.161519 0.255836
-0.0397134 0.161709 0.248345
-0.0355319 0.162335 0.244963
-0.0315791 0.162646 0.242419
-0.0277786 0.162617 0.240198
-0.0236077 0.162626 0.240076
-0.0198644 0.1626 0.24158
-0.0155182 0.160956 0.256909
-0.0117045 0.160584 0.26019
-0.00803353 0.160655 0.261976
-0.00398658 0.160717 0.260953
0.000130461 0.160732 0.260121
0.00363129 0.161116 0.259045
0.00770043 0.161424 0.25624
0.0116419 0.161395 0.255205
0.0157465 0.161496 0.253728
0.0196621 0.161094 0.254424
0.0237284 0.161449 0.253976
0.027465 0.161656 0.252971
0.0315558 0.16154 0.252604
0.0355676 0.161788 0.250792
0.0393749 0.161883 0.247111
0.0435438 0.162228 0.246448
0.0475659 0.162095 0.245754
0.0516431 0.162405 0.245031
0.0554986 0.162213 0.243921
0.0594259 0.162487 0.241311
0.0633677 0.162915 0.24112
0.067432 0.16289 0.238579
0.0714473 0.163045 0.236696
0.07586 0.163213 0.233071
0.0798406 0.163548 0.231857
0.0843011 0.163721 0.230402
0.0877202 0.163807 0.228539
0.0916989 0.163638 0.226711
0.0963303 0.164883 0.220797
0.100538 0.164762 0.21693
0.10468 0.164767 0.215524
0.108841 0.16508 0.213806
0.113058 0.165577 0.210098
0.117187 0.165896 0.204923
0.121694 0.166217 0.200593
0.126135 0.166966 0.194134
0.131156 0.16822 0.182327
0.13555 0.168432 0.17888
0.140464 0.169391 0.167062
0.146664 0.171825 0.141112
0.151785 0.172818 0.133559
0.156092 0.173385 0.129212
0.160909 0.173229 0.124613
0.165185 0.173918 0.120957
0.169721 0.173974 0.116414
0.174481 0.174462 0.113111
0.178526 0.174406 0.113058
0.182785 0.174451 0.114425
0.18732 0.174594 0.114174
0.191535 0.174232 0.11447
0.195482 0.174543 0.112301
0.200185 0.174851 0.110143
0.204491 0.174295 0.110714
0.208896 0.174867 0.111628
0.213581 0.174482 0.108925
0.217477 0.174792 0.106819
0.222739 0.175444 0.101359
0.226745 0.175989 0.100574
0.231816 0.17572 0.0987141
0.23601 0.17631 0.0950025
0.241872 0.176759 0.0869659
0.246263 0.177005 0.0829297
0.251098 0.177557 0.079863
0.256412 0.177742 0.0751452
0.26132 0.178597 0.0691477
0.265537 0.178502 0.0681072
0.269975 0.178538 0.0676968
0.275246 0.178938 0.0630157
0.279407 0.178884 0.0646191
0.283524 0.178943 0.066179
0.294392 0.182733 0.0240765
0.300067 0.183602 0.0136658
0.312736 0.188388 -0.0375144
0.316556 0.188061 -0.0338569
0.320862 0.18797 -0.0330601
0.326275 0.188449 -0.0378294
0.332945 0.189325 -0.0488641
-0.335418 0.201163 -0.125301
-0.329839 0.201313 -0.122653
-0.325339 0.200982 -0.120145
-0.308823 0.193484 -0.0441144
-0.304552 0.193508 -0.0430176
-0.298741 0.192927 -0.0391979
-0.293772 0.193307 -0.0345864
-0.288497 0.191926 -0.0305047
-0.281955 0.190544 -0.0149999
-0.27514 0.189392 0.000385404
-0.269237 0.188523 0.0101062
-0.262463 0.187015 0.025162
-0.257348 0.186469 0.0319451
-0.252342 0.186006 0.0357791
-0.247625 0.185657 0.0388241
-0.242898 0.185464 0.0429084
-0.238172 0.185411 0.0452485
-0.233783 0.18513 0.0457007
-0.228452 0.184883 0.0504396
-0.223542 0.184127 0.0550348
-0.218933 0.184275 0.0572501
-0.214942 0.183575 0.0590907
-0.210039 0.183157 0.0613039
-0.204717 0.183101 0.0663246
-0.194448 0.177643 0.127391
-0.18785 0.175263 0.147109
-0.183761 0.175139 0.152189
-0.177804 0.174051 0.164093
-0.173129 0.173117 0.171584
-0.168744 0.172761 0.176368
-0.163892 0.17224 0.182553
-0.15937 0.171263 0.190776
-0.154471 0.170585 0.200211
-0.149769 0.16985 0.205245
-0.145019 0.169548 0.209614
-0.140291 0.168772 0.218242
-0.13644 0.168499 0.221418
-0.131747 0.168147 0.225148
-0.127323 0.168136 0.229091
-0.12382 0.16742 0.230554
-0.119168 0.167747 0.235428
-0.115303 0.167096 0.236477
-0.111689 0.167074 0.237449
-0.107275 0.166978 0.237064
-0.103198 0.166997 0.239158
-0.0991153 0.166559 0.242657
-0.0948874 0.166216 0.245376
-0.0910549 0.166224 0.245954
-0.0870793 0.166126 0.248301
-0.0830278 0.165747 0.249737
-0.0788141 0.166097 0.250043
-0.0749822 0.165857 0.251121
-0.0711313 0.165492 0.251866
-0.0669765 0.165488 0.251779
-0.0626336 0.165478 0.253035
-0.0589539 0.165082 0.255297
-0.0552132 0.165173 0.256235
-0.051326 0.164849 0.259349
-0.0471162 0.164587 0.258859
-0.0432942 0.164994 0.258566
-0.0393797 0.165126 0.258273
-0.0351169 0.165292 0.250951
-0.0320465 0.165926 0.249049
-0.0274727 0.166308 0.246068
-0.0239729 0.166275 0.243626
-0.0197154 0.164817 0.25823
-0.0156554 0.16435 0.261763
-0.0116167 0.164745 0.262028
-0.00810037 0.164678 0.261906
-0.00386568 0.164782 0.261156
-0.000571603 0.164705 0.259545
0.00417486 0.165153 0.258603
0.00809329 0.165303 0.256958
0.0117371 0.165173 0.25679
0.015544 0.165295 0.256572
0.0196325 0.165326 0.257749
0.0236977 0.165294 0.255854
0.0274133 0.165674 0.254488
0.0318275 0.165009 0.254569
0.034932 0.165612 0.252328
0.0395308 0.166165 0.247582
0.0432625 0.165828 0.248071
0.0474909 0.165985 0.248021
0.0513196 0.166327 0.247057
0.0555463 0.166534 0.245428
0.0594942 0.166384 0.243033
0.0634206 0.166573 0.242368
0.066921 0.166383 0.240294
0.071522 0.166992 0.237709
0.0753193 0.167248 0.23574
0.0801985 0.167308 0.233478
0.0837002 0.167535 0.231122
0.0881124 0.167848 0.228641
0.0920283 0.167852 0.227964
0.0961463 0.168496 0.224842
0.10034 0.16892 0.218087
0.104408 0.168917 0.216402
0.108686 0.168911 0.214952
0.112659 0.169341 0.212097
0.117461 0.17 0.20703
0.121371 0.17023 0.201956
0.126325 0.170447 0.197808
0.13105 0.171947 0.183779
0.135505 0.172191 0.179278
0.140809 0.173655 0.17014
0.146716 0.175823 0.143042
0.15141 0.176662 0.137316
0.155571 0.176733 0.133671
0.160432 0.177216 0.128246
0.164672 0.177632 0.124478
0.169379 0.178074 0.120514
0.174342 0.178246 0.117702
0.178434 0.17878 0.117661
0.182653 0.178328 0.117902
0.186775 0.178282 0.117369
0.191091 0.178277 0.11804
0.195018 0.17853 0.115173
0.199769 0.178171 0.114315
0.204426 0.178886 0.113708
0.208489 0.17849 0.113905
0.212576 0.178988 0.111494
0.217687 0.178756 0.109665
0.221854 0.179598 0.106076
0.226614 0.179652 0.10262
0.231166 0.179753 0.100903
0.235744 0.179984 0.0982829
0.240778 0.180395 0.0939842
0.246022 0.181484 0.0866653
0.250309 0.181315 0.0842752
0.255426 0.181995 0.0807908
0.260217 0.18224 0.075609
0.265226 0.182469 0.0725462
0.269868 0.182661 0.0711683
0.27457 0.183173 0.0685784
0.279498 0.183094 0.0670677
0.282859 0.182894 0.0685552
0.287577 0.182924 0.0678966
0.298272 0.186933 0.027252
0.304036 0.187902 0.0163418
0.311258 0.189197 -0.00156021
0.319889 0.191546 -0.0255244
0.324317 0.191457 -0.0251591
0.328243 0.191456 -0.0205789
0.335371 0.192775 -0.0362122
0.340562 0.193248 -0.0382822
-0.346959 0.207291 -0.136903
-0.339633 0.205584 -0.120871
-0.334349 0.204997 -0.116063
-0.328464 0.20445 -0.112998
-0.313275 0.19827 -0.0423465
-0.307995 0.197837 -0.0403943
-0.303189 0.197732 -0.0367484
-0.298428 0.197094 -0.0338397
-0.292986 0.196813 -0.0305007
-0.285691 0.195017 -0.0107417
-0.280031 0.194479 -0.00388527
-0.274038 0.193269 0.00776505
-0.268354 0.192427 0.0154045
-0.262259 0.190961 0.0292996
-0.257054 0.190757 0.0346212
-0.251827 0.190386 0.0373054
-0.2471 0.190218 0.0426011
-0.242813 0.189187 0.0443949
-0.237818 0.189502 0.0469431
-0.233341 0.189086 0.0492353
-0.228097 0.188664 0.0551918
-0.223145 0.188346 0.0584306
-0.218546 0.187945 0.0603268
-0.213735 0.187912 0.0625476
-0.209335 0.187681 0.0660186
-0.204607 0.187199 0.0706626
-0.194002 0.181072 0.133331
-0.187702 0.179675 0.150041
-0.18343 0.178947 0.153578
-0.177575 0.177422 0.167484
-0.172788 0.177622 0.173564
-0.168572 0.176649 0.17818
-0.163628 0.175767 0.185373
-0.159037 0.175157 0.193077
-0.154069 0.174377 0.203421
-0.149802 0.17375 0.207787
-0.145462 0.173519 0.210829
-0.140343 0.173056 0.219786
-0.1367 0.171927 0.221872
-0.131959 0.172151 0.225899
-0.127713 0.171734 0.229866
-0.123311 0.171249 0.23356
-0.119496 0.17144 0.235267
-0.115253 0.170676 0.236836
-0.111175 0.171198 0.23831
-0.107264 0.171026 0.238202
-0.103037 0.170811 0.240154
-0.0988787 0.169889 0.244488
-0.0951617 0.170088 0.245235
-0.091111 0.169836 0.247039
-0.0867103 0.16995 0.248732
-0.0832037 0.169757 0.249912
-0.0788826 0.169574 0.252343
-0.0748794 0.169546 0.252184
-0.0706493 0.169551 0.253714
-0.0668953 0.169304 0.253857
-0.0634517 0.169416 0.254374
-0.0587978 0.169256 0.255189
-0.0549809 0.16901 0.256084
-0.0511711 0.168814 0.257897
-0.0470561 0.168208 0.26077
-0.0433366 0.168697 0.260753
-0.0389521 0.168336 0.261413
-0.0350775 0.168759 0.260904
-0.0313931 0.16919 0.259269
-0.0270171 0.169053 0.256162
-0.0234494 0.168769 0.261467
-0.0196061 0.168278 0.262724
-0.0156062 0.16804 0.263688
-0.011779 0.168728 0.263329
-0.0084295 0.168602 0.261968
-0.00373124 0.168905 0.260921
0.000137808 0.168809 0.259008
0.00438755 0.169058 0.257154
0.0081521 0.16883 0.258201
0.011816 0.168693 0.25822
0.0157 0.169004 0.25751
0.0196301 0.168945 0.258077
0.0233381 0.169008 0.256844
0.0276829 0.169369 0.255404
0.0312743 0.169092 0.255969
0.0357678 0.169308 0.254016
0.0396871 0.169141 0.249513
0.0435552 0.169805 0.248519
0.0471284 0.169989 0.24926
0.0513053 0.16975 0.248364
0.0551343 0.169414 0.246825
0.0592865 0.16983 0.244741
0.0636872 0.170067 0.242448
0.0676993 0.170768 0.240377
0.071497 0.170639 0.239061
0.0754144 0.170649 0.237591
0.079457 0.171077 0.235171
0.0837837 0.17138 0.232763
0.087691 0.171564 0.231811
0.0920412 0.17202 0.22931
0.095792 0.171497 0.226901
0.100683 0.172302 0.219478
0.104433 0.172501 0.217523
0.108694 0.173012 0.216612
0.112988 0.173279 0.214338
0.117201 0.173486 0.208921
0.121623 0.174092 0.204735
0.125898 0.174643 0.200146
0.13086 0.175812 0.186812
0.135302 0.176411 0.183188
0.139895 0.177198 0.175856
0.146497 0.179864 0.145455
0.151269 0.180314 0.138274
0.155509 0.18065 0.136127
0.160446 0.181269 0.132013
0.164579 0.181796 0.12805
0.169202 0.181988 0.124663
0.174035 0.18241 0.121387
0.178226 0.182498 0.119404
0.182183 0.182452 0.119775
0.186307 0.182357 0.120287
0.190995 0.182088 0.119433
0.19535 0.182477 0.117052
0.199573 0.182593 0.117352
0.204114 0.182662 0.115973
0.20832 0.182413 0.115627
0.212438 0.183288 0.114123
0.217384 0.183198 0.111828
0.222086 0.183195 0.107927
0.226607 0.183563 0.10484
0.231206 0.184602 0.102798
0.235291 0.184067 0.10084
0.240753 0.184554 0.0961318
0.245567 0.1852 0.0884997
0.249624 0.185333 0.0876495
0.255047 0.185813 0.0838622
0.259961 0.186302 0.079388
0.264693 0.186909 0.0755562
0.269138 0.186646 0.0752026
0.273608 0.18673 0.0722216
0.279054 0.187239 0.0693527
0.282675 0.187113 0.0699486
0.287249 0.187276 0.0705757
0.297102 0.190604 0.0344383
0.302518 0.191762 0.0261912
0.309154 0.192158 0.0148185
0.315241 0.193705 0.00338626
0.322666 0.195715 -0.0156546
0.326668 0.195598 -0.0131669
0.330985 0.195463 -0.010783
0.336453 0.195766 -0.0159261
0.342999 0.196498 -0.0268347
0.347615 0.196814 -0.0272295
-0.352018 0.211851 -0.13611
-0.344266 0.210588 -0.120225
-0.338699 0.209759 -0.114883
-0.332363 0.20948 -0.106557
-0.316871 0.202603 -0.0395617
-0.31264 0.202313 -0.0377843
-0.307687 0.201848 -0.0367711
-0.302597 0.201294 -0.0320251
-0.297679 0.201109 -0.0283022
-0.290093 0.199705 -0.0132532
-0.285452 0.199317 -0.00771499
-0.279924 0.198393 0.00151563
-0.273374 0.197151 0.0118829
-0.268514 0.196276 0.0199122
-0.261895 0.195677 0.0319837
-0.256455 0.194685 0.0362029
-0.251616 0.194663 0.0399067
-0.247048 0.194347 0.0440352
-0.241747 0.193746 0.0473757
-0.237591 0.193588 0.0500429
-0.232832 0.193375 0.0523864
-0.228137 0.192895 0.0569863
-0.222797 0.192486 0.0599331
-0.218856 0.192094 0.0624278
-0.214072 0.192129 0.0644544
-0.209373 0.191838 0.0676856
-0.204194 0.191603 0.0730629
-0.192832 0.184313 0.140116
-0.187633 0.183629 0.150835
-0.182863 0.183195 0.1564
-0.177621 0.181658 0.167518
-0.172715 0.180944 0.174287
-0.168452 0.180281 0.179768
-0.163562 0.180192 0.187216
-0.158401 0.179055 0.197274
-0.153757 0.178127 0.206988
-0.149445 0.178 0.209001
-0.144899 0.177255 0.214704
-0.140031 0.176132 0.221773
-0.136244 0.176187 0.224995
-0.132028 0.175851 0.228604
-0.127775 0.175238 0.231882
-0.123244 0.175365 0.234841
-0.11906 0.17494 0.236753
-0.115363 0.174631 0.239668
-0.111032 0.174659 0.239572
-0.10746 0.175002 0.238909
-0.103395 0.174528 0.239875
-0.0986914 0.173918 0.244872
-0.0951706 0.173931 0.246829
-0.0909249 0.173753 0.247952
-0.0869042 0.173319 0.249851
-0.0832012 0.173256 0.250665
-0.0785222 0.173491 0.253266
-0.0745273 0.173276 0.254857
-0.0710638 0.173267 0.254383
-0.066765 0.17347 0.255868
-0.0631846 0.17317 0.255656
-0.0587845 0.172985 0.256301
-0.054843 0.173042 0.256013
-0.0506714 0.172654 0.258674
-0.0469425 0.172593 0.259786
-0.0433527 0.172713 0.261307
-0.0391023 0.172238 0.26309
-0.0353649 0.17229 0.264587
-0.0314291 0.172336 0.263428
-0.0269312 0.172101 0.264032
-0.0235128 0.172238 0.263689
-0.019563 0.172331 0.263862
-0.0155845 0.172571 0.263966
-0.0118851 0.172326 0.263712
-0.00793238 0.172326 0.262257
-0.00382009 0.172694 0.260021
-0.000346528 0.17239 0.259348
0.0037648 0.172779 0.259403
0.00782952 0.17242 0.260534
0.0117218 0.172686 0.259985
0.0156683 0.172837 0.258671
0.0195632 0.172592 0.258374
0.0234515 0.172663 0.258123
0.027773 0.172791 0.256971
0.0312761 0.172889 0.256826
0.0356857 0.173455 0.255122
0.0395522 0.173691 0.252017
0.0432418 0.173519 0.250952
0.0470849 0.173473 0.250923
0.0514287 0.173856 0.249603
0.0553108 0.173903 0.247351
0.0595876 0.174271 0.245302
0.0631977 0.174452 0.244667
0.0675367 0.174135 0.243051
0.0711762 0.17478 0.241375
0.0754634 0.174942 0.237777
0.0794154 0.174738 0.236049
0.0834288 0.175501 0.234905
0.0876406 0.17511 0.233516
0.0917411 0.175535 0.231398
0.0959245 0.175706 0.228143
0.10038 0.176787 0.221034
0.104487 0.177058 0.218633
0.108265 0.177008 0.217456
0.112474 0.17739 0.21464
0.117166 0.177662 0.209896
0.121516 0.178046 0.205196
0.125925 0.178415 0.201909
0.130851 0.17994 0.189465
0.134793 0.179768 0.184667
0.140018 0.180962 0.176647
0.146924 0.184106 0.147587
0.150768 0.184373 0.141957
0.155578 0.184843 0.13797
0.159899 0.18526 0.135179
0.164356 0.185406 0.131013
0.168661 0.185755 0.128844
0.17362 0.185919 0.125507
0.177585 0.186084 0.122495
0.182383 0.186284 0.120966
0.18678 0.186566 0.122151
0.190827 0.186328 0.121309
0.194759 0.186099 0.120085
0.19969 0.186848 0.118238
0.204049 0.186871 0.117513
0.208223 0.186801 0.117722
0.212355 0.186927 0.115222
0.216935 0.186974 0.113721
0.221508 0.187368 0.109885
0.226048 0.187905 0.105944
0.231175 0.188205 0.104021
0.235253 0.188562 0.101875
0.240114 0.188908 0.0978577
0.24555 0.189378 0.0902704
0.249784 0.189801 0.0884922
0.254798 0.189748 0.0852642
0.260287 0.190328 0.0796638
0.264256 0.19102 0.0776664
0.269146 0.190804 0.0762113
0.27384 0.191362 0.0742593
0.278243 0.191491 0.0726376
0.28248 0.191209 0.0721166
0.287184 0.190953 0.0718575
0.291889 0.191763 0.06761
0.301666 0.194905 0.0330076
0.30757 0.195846 0.0239457
0.313289 0.197024 0.0149715
0.320028 0.198092 0.00331652
0.324857 0.198537 -0.000668764
0.329405 0.198186 -0.00131679
0.334191 0.198858 -0.00135326
0.338836 0.198908 -0.0040772
0.345951 0.200213 -0.019608
0.350806 0.200626 -0.0207503
-0.359532 0.218289 -0.15429
-0.349832 0.215806 -0.125826
-0.342692 0.214431 -0.113009
-0.337904 0.213835 -0.109988
-0.331796 0.213393 -0.102173
-0.317233 0.206422 -0.0366433
-0.312034 0.206779 -0.0345192
-0.306994 0.206223 -0.0312827
-0.301738 0.20574 -0.0269809
-0.296961 0.205303 -0.0232515
-0.289747 0.203516 -0.00918412
-0.284745 0.203344 -0.00292969
-0.278642 0.202701 0.0074873
-0.272728 0.201493 0.0157449
-0.266858 0.200359 0.0281562
-0.261459 0.199583 0.0350823
-0.256656 0.198906 0.0395453
-0.251428 0.198639 0.0427952
-0.24674 0.198308 0.047645
-0.241865 0.197999 0.0509096
-0.237304 0.197474 0.0520844
-0.232984 0.197485 0.0537491
-0.227636 0.196785 0.0599593
-0.222734 0.196508 0.0626202
-0.218399 0.196594 0.0651525
-0.213469 0.196302 0.0664139
-0.208797 0.195972 0.0700387
-0.204279 0.195323 0.0734282
-0.192624 0.188193 0.143607
-0.187616 0.187377 0.153659
-0.182519 0.187197 0.157574
-0.177323 0.186091 0.169092
-0.172485 0.185279 0.175314
-0.168107 0.184362 0.18123
-0.163264 0.18399 0.189425
-0.159154 0.18317 0.197518
-0.153812 0.181806 0.208564
-0.149278 0.181295 0.211025
-0.144706 0.18096 0.218565
-0.140234 0.180026 0.225064
-0.135458 0.179608 0.227919
-0.132007 0.179546 0.230175
-0.12714 0.179394 0.233986
-0.123501 0.178807 0.235495
-0.119159 0.179161 0.238062
-0.115155 0.178387 0.240722
-0.111021 0.178362 0.240982
-0.107267 0.178599 0.240455
-0.102808 0.178544 0.24181
-0.0989734 0.177853 0.245852
-0.0948996 0.178008 0.247429
-0.0909276 0.177584 0.249704
-0.0866623 0.177533 0.25072
-0.0827921 0.177455 0.251497
-0.078512 0.177515 0.253366
-0.0746395 0.177168 0.254213
-0.0707067 0.176729 0.25614
-0.0667526 0.176817 0.257287
-0.0631001 0.176998 0.257013
-0.0590364 0.176634 0.25873
-0.0549378 0.176596 0.256747
-0.0511326 0.176829 0.257886
-0.0467728 0.176738 0.258791
-0.0428667 0.176345 0.260907
-0.0388375 0.176427 0.263144
-0.0352197 0.176147 0.263818
-0.031583 0.176145 0.265459
-0.0274675 0.176027 0.265122
-0.0237169 0.175768 0.264308
-0.0198211 0.176022 0.264788
-0.0159433 0.176543 0.263381
-0.0118719 0.17628 0.262578
-0.0082382 0.17637 0.260626
-0.00373788 0.176281 0.261016
-0.000160264 0.17658 0.260808
0.00387457 0.17601 0.260981
0.00789138 0.176357 0.260657
0.0114841 0.176489 0.261317
0.0156526 0.176311 0.25989
0.0199815 0.176879 0.259463
0.0235973 0.176866 0.257591
0.0276758 0.176873 0.257607
0.0315335 0.177006 0.256891
0.0351143 0.177096 0.255998
0.0394076 0.177403 0.253663
0.0434898 0.177572 0.251973
0.0474685 0.177216 0.252227
0.05117 0.177619 0.250415
0.0549828 0.177767 0.247956
0.0590755 0.178125 0.247301
0.0633629 0.178169 0.245255
0.0672117 0.178183 0.244751
0.0713568 0.178214 0.24174
0.0753912 0.17835 0.23962
0.0790196 0.179036 0.237831
0.083453 0.178999 0.235429
0.0879281 0.179268 0.234166
0.0918257 0.179163 0.232356
0.095907 0.179616 0.229656
0.100542 0.180414 0.221331
0.104496 0.180625 0.220129
0.108943 0.181084 0.218799
0.112925 0.181388 0.216414
0.11671 0.181454 0.212707
0.121558 0.181419 0.208209
0.125583 0.1826 0.203498
0.12986 0.18284 0.198071
0.134318 0.184094 0.18742
0.139236 0.184759 0.180626
0.145449 0.187162 0.152149
0.150635 0.188319 0.144433
0.155341 0.188873 0.140985
0.15993 0.189447 0.137765
0.163934 0.189695 0.133829
0.16825 0.189655 0.131419
0.173402 0.189715 0.127828
0.177211 0.190349 0.125517
0.18159 0.190226 0.124684
0.185811 0.190406 0.125307
0.190392 0.190164 0.124389
0.195058 0.190413 0.122979
0.19914 0.19088 0.121215
0.203647 0.190483 0.120808
0.208536 0.191083 0.118641
0.212587 0.191006 0.11765
0.217026 0.191587 0.114401
0.221279 0.191241 0.112354
0.226184 0.19221 0.107065
0.230913 0.192278 0.104785
0.235235 0.192621 0.103178
0.240495 0.193031 0.0988357
0.244702 0.193142 0.093941
0.250048 0.194351 0.0898223
0.254463 0.194206 0.085699
0.259469 0.194512 0.081642
0.264431 0.194958 0.0781476
0.268689 0.194661 0.0775198
0.273724 0.195172 0.0762202
0.278239 0.195603 0.0739757
0.282641 0.195364 0.0728533
0.286937 0.195486 0.0727649
0.291877 0.195845 0.0693173
0.300836 0.199204 0.0382397
0.306364 0.199906 0.0310074
0.312475 0.200594 0.0218527
0.317996 0.201602 0.0122477
0.324412 0.202487 0.00335538
0.328629 0.202442 0.00249779
0.333086 0.202779 0.00388432
0.337791 0.203019 0.00127983
0.343418 0.202951 -0.00319219
0.348565 0.20334 -0.00756812
0.353922 0.204103 -0.0136905
0.36234 0.206522 -0.0364478
-0.36049 0.221489 -0.13223
-0.354258 0.220299 -0.12339
-0.347254 0.21899 -0.110023
-0.342123 0.218364 -0.107056
-0.337376 0.218354 -0.103501
-0.331239 0.217333 -0.0985689
-0.316349 0.211222 -0.0338933
-0.31191 0.210684 -0.0335591
-0.306211 0.210708 -0.0279529
-0.30175 0.209729 -0.0244946
-0.295904 0.20948 -0.0171022
-0.289118 0.208169 -0.00527072
-0.28401 0.207608 0.000557661
-0.278066 0.206162 0.0115606
-0.271949 0.205467 0.021179
-0.266338 0.203781 0.0338451
-0.260934 0.203677 0.0392737
-0.256185 0.202939 0.042838
-0.251361 0.202705 0.0456167
-0.246656 0.202331 0.0491592
-0.241365 0.201951 0.0533381
-0.236773 0.202301 0.0537142
-0.231833 0.200953 0.0577173
-0.227336 0.201045 0.0621344
-0.222655 0.200779 0.0637947
-0.218583 0.200324 0.0660512
-0.213447 0.200123 0.068851
-0.209058 0.200119 0.070455
-0.197828 0.193524 0.133483
-0.191812 0.192153 0.14906
-0.187412 0.191369 0.154834
-0.183166 0.190566 0.158487
-0.177461 0.189777 0.171129
-0.172885 0.18918 0.176013
-0.168366 0.188545 0.182655
-0.163173 0.187863 0.192073
-0.157764 0.185983 0.204364
-0.153193 0.185621 0.210249
-0.149107 0.18546 0.212785
-0.14422 0.184866 0.221021
-0.139783 0.183837 0.225892
-0.135679 0.183822 0.22876
-0.131692 0.183526 0.232265
-0.127581 0.183276 0.235409
-0.1232 0.182815 0.237667
-0.118957 0.182748 0.240482
-0.115 0.182277 0.242053
-0.11092 0.182571 0.242274
-0.10678 0.182499 0.241421
-0.102993 0.181994 0.243656
-0.0990621 0.181895 0.246701
-0.094884 0.181709 0.250045
-0.0911359 0.18148 0.249751
-0.0867787 0.181334 0.251942
-0.0831035 0.181507 0.252212
-0.0788096 0.181131 0.254538
-0.0748784 0.18055 0.255119
-0.0705531 0.181123 0.256149
-0.0667814 0.180603 0.2584
-0.062788 0.180654 0.259112
-0.0590579 0.18082 0.259367
-0.0548195 0.180434 0.259038
-0.0509263 0.18097 0.259032
-0.0471364 0.180451 0.259117
-0.0430974 0.180354 0.2603
-0.0393486 0.180239 0.262024
-0.0351427 0.18025 0.263646
-0.031252 0.180056 0.263719
-0.0275993 0.179877 0.264341
-0.0231086 0.180386 0.263206
-0.0196068 0.179966 0.263651
-0.015833 0.180515 0.261995
-0.0119602 0.180139 0.262218
-0.00800768 0.18027 0.262146
-0.00398988 0.180188 0.261775
0.000174784 0.180395 0.262801
0.00382416 0.179942 0.262692
0.0076446 0.18024 0.262645
0.0117393 0.180469 0.261858
0.0160601 0.180399 0.260017
0.0194884 0.180714 0.260183
0.0235715 0.180815 0.259159
0.0275541 0.180756 0.258343
0.0317399 0.180745 0.258733
0.0351853 0.180898 0.25723
0.0395301 0.180945 0.253483
0.0436761 0.181162 0.253638
0.0471595 0.181244 0.253287
0.0515744 0.181891 0.251413
0.0554095 0.18128 0.249804
0.0594412 0.181512 0.247665
0.0631476 0.181958 0.246999
0.0674336 0.182133 0.245575
0.0712448 0.182208 0.244173
0.0754735 0.182554 0.240182
0.0791147 0.182801 0.23882
0.0836412 0.183159 0.236553
0.087647 0.183172 0.234434
0.0914958 0.183258 0.232891
0.0960777 0.183059 0.229248
0.100182 0.184439 0.223153
0.104333 0.184269 0.221529
0.108372 0.184573 0.220914
0.112349 0.184784 0.21915
0.116828 0.184765 0.21488
0.121005 0.185607 0.211007
0.125298 0.185918 0.206395
0.129983 0.186685 0.200412
0.134541 0.187889 0.187314
0.139969 0.188836 0.180082
0.14559 0.191591 0.153276
0.150552 0.192444 0.145788
0.155253 0.192563 0.142183
0.159127 0.193236 0.139287
0.163989 0.19306 0.136258
0.168369 0.193574 0.132937
0.173068 0.194148 0.129836
0.176937 0.194478 0.1277
0.181648 0.194682 0.126934
0.185778 0.194024 0.125969
0.190106 0.194408 0.126156
0.194595 0.194283 0.125303
0.199328 0.194734 0.122865
0.203116 0.195014 0.122801
0.207386 0.194726 0.121378
0.212088 0.194963 0.119731
0.216414 0.195079 0.117867
0.220823 0.195637 0.115342
0.225712 0.196557 0.110249
0.23045 0.196481 0.107224
0.235642 0.196512 0.105018
0.239839 0.196973 0.101423
0.244487 0.197593 0.0962051
0.24955 0.198026 0.0913082
0.253975 0.198414 0.0880251
0.259291 0.198841 0.08443
0.264153 0.199001 0.079609
0.26809 0.199475 0.0791941
0.273384 0.199371 0.0769736
0.277519 0.199706 0.0757554
0.282593 0.200099 0.0738184
0.286429 0.199756 0.0738826
0.291445 0.199811 0.0724244
0.299758 0.203043 0.0427957
0.305359 0.203647 0.0365603
0.311235 0.204821 0.0278227
0.318075 0.205686 0.0159665
0.323272 0.206377 0.00874782
0.32797 0.206987 0.00589859
0.333318 0.206688 0.00649917
0.336825 0.20696 0.00616348
0.342598 0.207129 0.00153697
0.348035 0.207786 -0.00353909
0.352479 0.207692 -0.00434256
0.358029 0.2089 -0.010726
0.366686 0.210677 -0.0325413
-0.369682 0.226495 -0.129183
-0.364147 0.225637 -0.123944
-0.358396 0.224681 -0.120041
-0.352556 0.223846 -0.110681
-0.346783 0.222896 -0.10329
-0.340904 0.222672 -0.0998147
-0.335875 0.222418 -0.0966523
-0.33038 0.22147 -0.092083
-0.316642 0.215331 -0.032789
-0.31119 0.215432 -0.0303295
-0.30596 0.214934 -0.0247624
-0.301164 0.214207 -0.0221038
-0.29543 0.213456 -0.0120049
-0.288895 0.212164 -0.00315189
-0.283387 0.21121 0.00580466
-0.277176 0.210221 0.0176451
-0.271676 0.209244 0.026364
-0.265727 0.208028 0.0368237
-0.260765 0.207079 0.0406051
-0.255845 0.207167 0.0448786
-0.250681 0.206996 0.0495999
-0.246107 0.20663 0.0518525
-0.241131 0.205993 0.0538547
-0.23701 0.206452 0.0554475
-0.232116 0.20569 0.0595168
-0.226977 0.205337 0.0630968
-0.222469 0.205038 0.066183
-0.218106 0.204794 0.0677168
-0.213514 0.204685 0.0697713
-0.208705 0.204407 0.072643
-0.197603 0.197259 0.137074
-0.191324 0.195841 0.152257
-0.187446 0.195383 0.155667
-0.182251 0.194786 0.163453
-0.177245 0.193368 0.172846
-0.172457 0.193537 0.177896
-0.167517 0.192699 0.185176
-0.16302 0.191383 0.193693
-0.157904 0.189738 0.2068
-0.153406 0.18978 0.211597
-0.148888 0.189181 0.21501
-0.144186 0.188521 0.223439
-0.14016 0.188172 0.226632
-0.135494 0.187877 0.229815
-0.131385 0.187125 0.233327
-0.12751 0.187424 0.235556
-0.123226 0.186444 0.239015
-0.119128 0.186704 0.240844
-0.114732 0.186089 0.242371
-0.110817 0.186274 0.243135
-0.107364 0.186224 0.243199
-0.103097 0.186091 0.243265
-0.098711 0.185699 0.249081
-0.0946307 0.185323 0.250369
-0.0909277 0.185554 0.250887
-0.0865509 0.185483 0.251939
-0.0828739 0.18553 0.253526
-0.0787372 0.185048 0.254965
-0.0743562 0.184879 0.255883
-0.0705452 0.184962 0.257939
-0.0665117 0.184745 0.258912
-0.0627105 0.184546 0.259506
-0.0591468 0.184442 0.26025
-0.0548191 0.184446 0.259663
-0.0512741 0.184201 0.259771
-0.0471547 0.184723 0.260157
-0.0429988 0.18421 0.25985
-0.0396234 0.184261 0.261276
-0.0354419 0.184347 0.261316
-0.0310896 0.183925 0.263232
-0.0275701 0.184192 0.262517
-0.0237468 0.184074 0.261942
-0.0194105 0.183949 0.262805
-0.0157054 0.184414 0.263184
-0.0120752 0.184097 0.262234
-0.00771741 0.183986 0.263691
-0.00384787 0.183699 0.263583
-6.41415e-06 0.183798 0.264328
0.00380377 0.183953 0.264627
0.00769888 0.184124 0.264227
0.0117487 0.183937 0.263525
0.0157693 0.184375 0.262326
0.0195861 0.184535 0.260359
0.0234711 0.184369 0.260153
0.0271456 0.184498 0.259403
0.0312653 0.184415 0.259457
0.035199 0.184532 0.258646
0.0394344 0.184823 0.254445
0.0435381 0.185541 0.254202
0.0474245 0.185229 0.254632
0.0510843 0.185111 0.253636
0.0550151 0.185621 0.250947
0.0592397 0.185692 0.248223
0.0632565 0.186087 0.246899
0.0674171 0.185856 0.245834
0.0712743 0.186029 0.244741
0.0754306 0.185981 0.241812
0.0794646 0.186932 0.238691
0.0833413 0.186544 0.237597
0.0872775 0.187348 0.235343
0.0917265 0.187061 0.234289
0.0960919 0.18775 0.229253
0.100179 0.188203 0.223686
0.103983 0.188521 0.222846
0.108536 0.188346 0.22292
0.112522 0.188866 0.219405
0.116515 0.189259 0.216628
0.120386 0.18914 0.212593
0.125162 0.190158 0.207629
0.130001 0.190531 0.202064
0.134391 0.19194 0.187698
0.13943 0.19274 0.180135
0.14588 0.195611 0.153819
0.150788 0.19611 0.146958
0.154502 0.196578 0.144281
0.15942 0.197173 0.140286
0.16346 0.197544 0.137516
0.168426 0.197977 0.134441
0.172967 0.198087 0.130783
0.177472 0.198251 0.128797
0.18145 0.19842 0.128244
0.185826 0.198617 0.127447
0.189929 0.198483 0.128823
0.19412 0.198505 0.127981
0.198615 0.199009 0.125285
0.203302 0.198477 0.12379
0.207339 0.199023 0.122867
0.21191 0.199064 0.121313
0.216277 0.198963 0.119762
0.220961 0.19976 0.115273
0.225486 0.2003 0.112103
0.230188 0.200506 0.109103
0.234724 0.20064 0.106634
0.23969 0.201108 0.102238
0.244602 0.201585 0.0984808
0.249414 0.202207 0.0929363
0.254212 0.20222 0.0908374
0.258681 0.202615 0.0874202
0.263657 0.203363 0.0827801
0.268654 0.203853 0.0796021
0.272702 0.203345 0.0786872
0.277042 0.203782 0.0774761
0.282142 0.203683 0.0755655
0.286625 0.20374 0.0748484
0.290807 0.204169 0.0749367
0.299799 0.20752 0.0457956
0.305328 0.207771 0.0388047
0.310554 0.20873 0.03251
0.31656 0.209516 0.0230091
0.322383 0.210569 0.0144414
0.32799 0.211292 0.00982189
0.331971 0.211198 0.0108283
0.336426 0.210902 0.0113202
0.341494 0.211119 0.00664783
0.346955 0.211652 0.00207722
0.352058 0.212196 0.000162959
0.356704 0.212272 -0.00198412
0.363486 0.213288 -0.0131612
0.370978 0.214836 -0.0289609
-0.379409 0.230658 -0.129775
-0.374302 0.229864 -0.12659
-0.368322 0.229125 -0.119623
-0.3626 0.229009 -0.115103
-0.357133 0.228168 -0.110753
-0.350497 0.227344 -0.101979
-0.345819 0.227256 -0.0991254
-0.33989 0.226932 -0.0944719
-0.334675 0.226571 -0.090178
-0.329029 0.225265 -0.0820498
-0.316428 0.219833 -0.0310185
-0.310766 0.219655 -0.0273702
-0.305043 0.218857 -0.0217426
-0.300111 0.218298 -0.0183191
-0.293609 0.217193 -0.0048871
-0.288902 0.216525 -0.000758886
-0.281584 0.214932 0.0134983
-0.276612 0.214146 0.0208991
-0.270262 0.212667 0.0322155
-0.265386 0.212402 0.0385485
-0.260861 0.211711 0.0421286
-0.25529 0.211756 0.0459181
-0.251098 0.21104 0.0493461
-0.245981 0.210593 0.0535065
-0.241408 0.210168 0.0552815
-0.236711 0.210571 0.0571492
-0.232169 0.210431 0.0597113
-0.226765 0.209354 0.0644208
-0.222644 0.209652 0.0663447
-0.2178 0.209087 0.0681555
-0.213227 0.208888 0.0716313
-0.208441 0.208562 0.0735601
-0.196744 0.201253 0.143658
-0.191385 0.200011 0.154136
-0.186972 0.199169 0.157455
-0.181437 0.19858 0.168202
-0.177656 0.198077 0.17267
-0.172615 0.197607 0.177823
-0.167411 0.196394 0.186123
-0.163245 0.195416 0.194717
-0.157195 0.193628 0.209824
-0.153293 0.193269 0.212759
-0.148108 0.192917 0.219625
-0.144584 0.192333 0.224329
-0.139746 0.191587 0.22905
-0.135355 0.191472 0.230913
-0.131251 0.191037 0.23478
-0.127234 0.191164 0.237094
-0.122903 0.1905 0.24021
-0.118747 0.190286 0.242169
-0.11496 0.189836 0.243623
-0.110924 0.190487 0.243155
-0.106808 0.189817 0.244716
-0.102779 0.189835 0.24527
-0.0988531 0.189601 0.248871
-0.0945596 0.189612 0.251714
-0.0908374 0.189551 0.252371
-0.0865013 0.189302 0.253617
-0.0829272 0.188749 0.254349
-0.0784981 0.188849 0.255738
-0.0745705 0.188701 0.257046
-0.0706675 0.188463 0.257803
-0.0667122 0.188375 0.26022
-0.0628168 0.188288 0.261124
-0.0588659 0.188225 0.260393
-0.0552219 0.188275 0.261814
-0.0510895 0.188366 0.26198
-0.0468469 0.187752 0.261633
-0.0432534 0.188451 0.261732
-0.0394864 0.188263 0.261556
-0.0354282 0.188233 0.26141
-0.0313681 0.188423 0.261198
-0.0276407 0.187887 0.261557
-0.0237004 0.188195 0.261329
-0.0197265 0.187903 0.262861
-0.0157967 0.187881 0.264412
-0.0119406 0.187695 0.2641
-0.00771334 0.187679 0.264605
-0.00402975 0.187707 0.265573
-5.72764e-05 0.187693 0.265453
0.00394334 0.187694 0.26493
0.00818029 0.187945 0.264467
0.0118555 0.18782 0.2638
0.015515 0.188532 0.262198
0.0193166 0.188208 0.261191
0.0240138 0.188197 0.261165
0.0277714 0.188624 0.260518
0.031228 0.18876 0.260283
0.0350535 0.188242 0.260079
0.0393173 0.188767 0.256059
0.0432587 0.188672 0.255953
0.0475082 0.189027 0.254911
0.0511829 0.188794 0.255641
0.055216 0.189047 0.252909
0.0593951 0.189365 0.24954
0.063343 0.19014 0.246956
0.0675705 0.189743 0.246783
0.0713448 0.189963 0.244979
0.0753877 0.190222 0.242334
0.0796177 0.190551 0.240269
0.083831 0.190871 0.23723
0.0874001 0.190956 0.235841
0.0915054 0.191174 0.234056
0.0954245 0.191524 0.230786
0.100283 0.192194 0.224512
0.103936 0.192429 0.225046
0.108102 0.192125 0.223482
0.111903 0.192621 0.221841
