ply
format ascii 1.0
element vertex 1657
property float x
property float y
property float z
end_header
-0.0849651 -0.336329 0.20138
-0.0809021 -0.336542 0.201293
-0.0773131 -0.336819 0.202056
-0.0726376 -0.336211 0.202773
-0.069202 -0.336349 0.202643
-0.0649129 -0.33615 0.202862
-0.0608489 -0.33673 0.201551
-0.056793 -0.336905 0.201199
-0.0528066 -0.336387 0.202004
-0.0490909 -0.336864 0.199684
-0.0446324 -0.336704 0.200718
-0.0407412 -0.337186 0.198685
-0.0365651 -0.33724 0.197699
-0.031998 -0.33785 0.19656
-0.0289401 -0.338107 0.19516
-0.0243372 -0.338013 0.193473
-0.0204408 -0.33876 0.191648
-0.0168469 -0.338657 0.190202
-0.0122745 -0.339455 0.188049
-0.00811897 -0.339926 0.184785
-0.00392348 -0.340023 0.183333
0.000118013 -0.340575 0.180218
0.00400463 -0.341288 0.17626
0.00855485 -0.341941 0.173127
0.0124898 -0.342505 0.169599
0.0165525 -0.343597 0.165635
0.0208039 -0.344508 0.161093
0.0250833 -0.344998 0.156804
0.029393 -0.346243 0.151568
0.0334852 -0.347111 0.147283
0.0378628 -0.348066 0.140748
0.0418985 -0.349047 0.134159
0.0463897 -0.350282 0.128058
0.0507402 -0.351141 0.123521
0.0552455 -0.352124 0.118504
0.0594716 -0.352656 0.115827
0.0636081 -0.353324 0.113027
0.0679218 -0.353402 0.11077
0.0723266 -0.353765 0.109938
0.0766919 -0.353334 0.110518
0.081244 -0.353503 0.110582
0.0849799 -0.353339 0.112035
0.0893995 -0.353564 0.113365
0.0933437 -0.352851 0.115366
0.0977112 -0.352516 0.117522
0.101874 -0.352037 0.119602
0.105781 -0.351393 0.122757
0.110094 -0.351228 0.123608
0.114189 -0.350553 0.126755
0.1182 -0.35017 0.128498
0.122228 -0.34992 0.130625
0.126558 -0.349474 0.132566
0.130727 -0.349794 0.133387
0.134746 -0.34919 0.134039
0.138798 -0.349176 0.134343
0.142884 -0.348753 0.134663
0.147487 -0.348938 0.135742
0.150816 -0.34874 0.136677
0.155362 -0.348415 0.13742
0.159497 -0.349036 0.136801
0.163824 -0.348675 0.136858
0.168375 -0.348789 0.136315
0.172424 -0.349326 0.135185
0.176534 -0.348674 0.135248
0.181184 -0.348737 0.134856
0.185279 -0.34897 0.134524
0.189638 -0.34944 0.133441
0.194025 -0.349946 0.131176
0.19867 -0.34966 0.129909
0.203182 -0.350654 0.127972
0.206914 -0.350782 0.126373
0.211541 -0.351116 0.123263
0.216389 -0.352388 0.118921
0.221071 -0.352615 0.115498
0.225966 -0.353366 0.111037
0.230617 -0.354387 0.106321
0.235693 -0.355547 0.100993
0.240981 -0.356635 0.0937825
0.246409 -0.358404 0.0830432
0.268736 -0.38418 -0.0532386
0.27408 -0.385584 -0.059783
0.279808 -0.387315 -0.067225
0.285278 -0.388313 -0.0745249
0.291007 -0.389857 -0.0812304
0.296575 -0.391177 -0.0888276
0.302452 -0.392127 -0.0956366
0.308494 -0.393347 -0.102578
0.313969 -0.394449 -0.108807
0.319789 -0.395746 -0.11572
0.325779 -0.397076 -0.122558
0.331608 -0.399434 -0.131507
-0.384856 -0.394939 -0.135895
-0.379039 -0.393282 -0.126482
-0.372015 -0.391157 -0.117118
-0.366878 -0.390776 -0.112215
-0.360733 -0.389547 -0.10684
-0.35586 -0.389322 -0.10348
-0.350705 -0.388714 -0.100487
-0.345737 -0.387542 -0.0972278
-0.339825 -0.387159 -0.0940814
-0.335196 -0.386847 -0.091635
-0.329616 -0.385988 -0.0883868
-0.309165 -0.366953 0.014269
-0.302328 -0.364601 0.0281456
-0.295797 -0.361699 0.0436544
-0.289175 -0.359179 0.0575225
-0.283377 -0.356999 0.0669793
-0.277913 -0.356807 0.0728256
-0.273123 -0.355794 0.0779688
-0.268207 -0.354755 0.0819662
-0.263378 -0.353702 0.0864689
-0.258433 -0.352974 0.0904285
-0.253542 -0.35235 0.0944413
-0.249062 -0.35174 0.0981467
-0.244124 -0.35112 0.102955
-0.239073 -0.350161 0.107524
-0.234032 -0.349027 0.110999
-0.229872 -0.348836 0.114042
-0.225172 -0.348132 0.117792
-0.219902 -0.347207 0.121898
-0.216252 -0.347342 0.122929
-0.211207 -0.346836 0.126245
-0.206941 -0.346258 0.127495
-0.202639 -0.345592 0.130577
-0.197695 -0.345289 0.133476
-0.193297 -0.344445 0.136331
-0.18857 -0.343838 0.140125
-0.183947 -0.343223 0.144269
-0.179676 -0.342914 0.146734
-0.175162 -0.342452 0.149451
-0.1708 -0.341891 0.15276
-0.166374 -0.340696 0.157035
-0.16183 -0.340229 0.160137
-0.15755 -0.339644 0.162769
-0.152902 -0.339013 0.167025
-0.148917 -0.3385 0.16997
-0.144202 -0.337987 0.172167
-0.13985 -0.337596 0.175235
-0.135869 -0.33764 0.177106
-0.131334 -0.336091 0.180707
-0.127037 -0.33573 0.183986
-0.122944 -0.335773 0.184855
-0.118463 -0.335172 0.187892
-0.114149 -0.334532 0.190488
-0.109976 -0.333978 0.192961
-0.105936 -0.333909 0.194995
-0.101751 -0.333381 0.19793
-0.0970288 -0.332749 0.200218
-0.0932903 -0.332942 0.200387
-0.0894975 -0.332629 0.201994
-0.0848306 -0.332267 0.203035
-0.0812626 -0.332074 0.203807
-0.0769425 -0.33208 0.204131
-0.0732534 -0.331758 0.204682
-0.0688443 -0.331833 0.203613
-0.0649495 -0.332191 0.204085
-0.0608358 -0.332231 0.20407
-0.0567307 -0.332162 0.203702
-0.0529756 -0.332457 0.202671
-0.0486906 -0.332744 0.20169
-0.0448016 -0.33244 0.201777
-0.040977 -0.332842 0.20025
-0.0366353 -0.333493 0.198596
-0.0328072 -0.333548 0.19767
-0.0286575 -0.333689 0.197292
-0.0243346 -0.333906 0.195855
-0.0201492 -0.334169 0.193498
-0.0163456 -0.334759 0.191622
-0.0124123 -0.334581 0.191167
-0.00824408 -0.335483 0.186634
-0.00421756 -0.335931 0.18474
0.000351397 -0.336615 0.180414
0.00446546 -0.336971 0.176201
0.00838475 -0.337767 0.173555
0.0128753 -0.338653 0.16942
0.0162311 -0.33964 0.16619
0.0213752 -0.340069 0.160884
0.0252044 -0.341193 0.156284
0.0292908 -0.341745 0.152134
0.0334443 -0.342259 0.14665
0.0375953 -0.344115 0.141152
0.0421064 -0.345138 0.134509
0.0464871 -0.346369 0.128295
0.0506274 -0.347062 0.123531
0.0551962 -0.347967 0.118849
0.0592111 -0.348608 0.11561
0.0638015 -0.348488 0.113559
0.068228 -0.349294 0.110429
0.0724518 -0.349566 0.110474
0.0759434 -0.349379 0.110782
0.0808705 -0.349279 0.110294
0.0850512 -0.348999 0.112153
0.0894161 -0.34842 0.114807
0.0935811 -0.348417 0.115363
0.0973886 -0.348619 0.117307
0.101518 -0.347882 0.12078
0.105721 -0.347093 0.122648
0.109813 -0.347113 0.123866
0.114021 -0.346715 0.126571
0.117814 -0.345674 0.130059
0.122113 -0.345741 0.130175
0.126411 -0.345744 0.131416
0.130542 -0.345355 0.133188
0.134383 -0.34502 0.134532
0.138289 -0.344964 0.135124
0.142571 -0.344294 0.137111
0.147143 -0.344531 0.137108
0.151061 -0.344266 0.138241
0.154911 -0.344098 0.138524
0.159286 -0.344386 0.137886
0.164019 -0.344343 0.138301
0.16796 -0.344404 0.137371
0.172406 -0.344476 0.138252
0.17627 -0.344068 0.137305
0.180618 -0.345591 0.135077
0.184792 -0.344475 0.135608
0.189076 -0.345098 0.133872
0.193377 -0.345406 0.132874
0.198166 -0.345667 0.130158
0.202656 -0.346284 0.128216
0.20746 -0.34618 0.125943
0.211879 -0.347047 0.123028
0.21645 -0.348036 0.119223
0.220887 -0.348487 0.116055
0.225984 -0.349918 0.110255
0.230698 -0.350131 0.106339
0.235386 -0.351377 0.100448
0.241245 -0.352889 0.0928664
0.246396 -0.354587 0.0833296
0.268874 -0.380086 -0.0552914
0.274942 -0.382166 -0.0635409
0.280915 -0.383033 -0.0722947
0.286401 -0.384929 -0.082428
0.291842 -0.386803 -0.0899847
0.298144 -0.388378 -0.101125
0.305138 -0.391004 -0.114324
0.311034 -0.393078 -0.123881
-0.390623 -0.390891 -0.139734
-0.383497 -0.388829 -0.127394
-0.377757 -0.387831 -0.120252
-0.371626 -0.385811 -0.112987
-0.366086 -0.38478 -0.107767
-0.361188 -0.384698 -0.10523
-0.355629 -0.38391 -0.101432
-0.349646 -0.382959 -0.0976336
-0.344972 -0.382347 -0.0953085
-0.339848 -0.382032 -0.0921657
-0.334598 -0.381786 -0.0899639
-0.329367 -0.381511 -0.0878086
-0.307851 -0.361926 0.0195279
-0.301939 -0.359753 0.0317301
-0.294634 -0.355786 0.0511972
-0.288622 -0.353701 0.0622305
-0.283021 -0.353157 0.0696976
-0.277602 -0.351597 0.075282
-0.272921 -0.350685 0.0801499
-0.267662 -0.350123 0.0844893
-0.263213 -0.349356 0.087764
-0.258118 -0.348213 0.0919684
-0.253473 -0.347284 0.0966213
-0.248497 -0.346483 0.100991
-0.24394 -0.346084 0.104414
-0.238685 -0.345559 0.108821
-0.23413 -0.344461 0.113412
-0.22988 -0.344 0.116205
-0.225484 -0.343756 0.118362
-0.220134 -0.343439 0.121548
-0.215682 -0.342252 0.124847
-0.211465 -0.341936 0.126828
-0.206542 -0.341385 0.1305
-0.202546 -0.341637 0.131646
-0.197528 -0.340806 0.134862
-0.192964 -0.339928 0.138783
-0.188642 -0.339156 0.142065
-0.184258 -0.338616 0.145595
-0.179467 -0.33829 0.148213
-0.17519 -0.337972 0.151409
-0.170776 -0.337133 0.154277
-0.166366 -0.3365 0.158217
-0.161681 -0.335833 0.161725
-0.157374 -0.335528 0.164714
-0.15308 -0.334903 0.167349
-0.148377 -0.333943 0.171197
-0.144247 -0.333561 0.173487
-0.139765 -0.333026 0.176338
-0.135455 -0.332751 0.17933
-0.131297 -0.332156 0.181812
-0.126749 -0.33114 0.184161
-0.122528 -0.331161 0.187605
-0.118573 -0.330739 0.189618
-0.114122 -0.330384 0.191961
-0.110209 -0.32996 0.194351
-0.105253 -0.329241 0.197381
-0.101599 -0.328773 0.199628
-0.09686 -0.328632 0.200995
-0.0931423 -0.32802 0.202705
-0.0892743 -0.327819 0.203457
-0.0849703 -0.327869 0.205194
-0.0809878 -0.32782 0.205233
-0.0765817 -0.328092 0.205703
-0.072632 -0.327227 0.206662
-0.0686347 -0.327792 0.206125
-0.0648101 -0.327907 0.205436
-0.0604266 -0.327501 0.206664
-0.0564745 -0.328037 0.204644
-0.0526269 -0.328191 0.204115
-0.0487137 -0.327899 0.204208
-0.0441422 -0.328155 0.202903
-0.0404467 -0.328308 0.201877
-0.0363741 -0.328464 0.201351
-0.0325786 -0.328854 0.2008
-0.0288183 -0.329278 0.199367
-0.0241793 -0.329202 0.197141
-0.0202378 -0.329537 0.195176
-0.0160525 -0.329969 0.193529
-0.0122858 -0.330307 0.191002
-0.00817909 -0.331088 0.188532
-0.00395221 -0.331928 0.184758
6.7427e-05 -0.332175 0.18129
0.00429248 -0.332853 0.178287
0.00809225 -0.333762 0.174018
0.0123492 -0.334028 0.171231
0.0164102 -0.334806 0.166118
0.0206953 -0.335676 0.161808
0.0253256 -0.336644 0.156372
0.0295651 -0.337629 0.152587
0.0332822 -0.338102 0.148144
0.0374178 -0.339492 0.14134
0.0417566 -0.341009 0.135103
0.0466199 -0.341524 0.128679
0.0508026 -0.342867 0.123969
0.0554177 -0.343897 0.119429
0.0590784 -0.344138 0.115622
0.0637287 -0.344559 0.113618
0.0684287 -0.344734 0.110784
0.0724274 -0.344993 0.110835
0.0765997 -0.345089 0.110442
0.0811816 -0.345067 0.111139
0.0853153 -0.344909 0.112044
0.0892088 -0.344676 0.113256
0.0932814 -0.344095 0.116079
0.0975199 -0.343922 0.118381
0.101739 -0.343677 0.119912
0.105625 -0.342947 0.122575
0.109809 -0.342576 0.124492
0.113994 -0.342179 0.12748
0.118027 -0.34168 0.128842
0.122047 -0.341115 0.131048
0.126289 -0.341342 0.132429
0.130379 -0.340753 0.13397
0.134867 -0.340591 0.135372
0.138976 -0.340623 0.136438
0.142638 -0.3401 0.138014
0.147148 -0.339545 0.139071
0.151098 -0.340252 0.13824
0.155158 -0.33998 0.139588
0.159394 -0.339665 0.140089
0.16387 -0.339366 0.139739
0.167949 -0.339939 0.138453
0.172225 -0.34017 0.138238
0.176518 -0.340126 0.137944
0.180433 -0.339859 0.137212
0.184825 -0.34038 0.1354
0.189207 -0.341035 0.134286
0.19352 -0.341058 0.133646
0.198073 -0.340931 0.1316
0.202711 -0.341835 0.129014
0.206352 -0.341479 0.127918
0.211465 -0.342589 0.124326
0.216056 -0.343554 0.119834
0.221229 -0.343947 0.11593
0.225804 -0.345388 0.111671
0.231021 -0.346052 0.105092
0.235626 -0.347112 0.100374
0.240371 -0.348026 0.0942395
0.246549 -0.350326 0.082497
0.269408 -0.375869 -0.0579369
0.274707 -0.377187 -0.0655985
0.281347 -0.379375 -0.0775409
0.287505 -0.382114 -0.0895829
0.294736 -0.384989 -0.108872
-0.397098 -0.387131 -0.145854
-0.389279 -0.384842 -0.131828
-0.382996 -0.383405 -0.12277
-0.377118 -0.381993 -0.115354
-0.371177 -0.381357 -0.110534
-0.365553 -0.380104 -0.106041
-0.360237 -0.379513 -0.101995
-0.355237 -0.379367 -0.0993323
-0.350176 -0.37824 -0.0970182
-0.34476 -0.378234 -0.0943286
-0.339659 -0.3775 -0.0916429
-0.334724 -0.376963 -0.0896132
-0.329494 -0.376674 -0.0864561
-0.307657 -0.357209 0.021692
-0.301544 -0.354018 0.0363122
-0.293696 -0.350285 0.0566763
-0.287439 -0.348609 0.0664196
-0.282796 -0.347456 0.0728836
-0.277062 -0.346884 0.0783081
-0.272581 -0.346088 0.0816129
-0.267341 -0.345181 0.0861638
-0.262134 -0.344597 0.0901763
-0.258387 -0.343879 0.0928806
-0.252724 -0.343304 0.0978709
-0.24815 -0.342737 0.101817
-0.243444 -0.341942 0.105751
-0.238795 -0.341049 0.108696
-0.234007 -0.340174 0.113786
-0.228977 -0.339913 0.116542
-0.224894 -0.339917 0.118488
-0.220567 -0.339067 0.121419
-0.216089 -0.338578 0.124378
-0.211096 -0.337838 0.127327
-0.206744 -0.337409 0.129905
-0.202327 -0.336814 0.132424
-0.197913 -0.336393 0.13569
-0.193108 -0.335256 0.140848
-0.188185 -0.335125 0.144015
-0.183846 -0.33433 0.147872
-0.179351 -0.33413 0.150051
-0.175401 -0.332872 0.152305
-0.170393 -0.332264 0.157224
-0.166208 -0.332142 0.159641
-0.16137 -0.331496 0.163488
-0.157237 -0.330898 0.166277
-0.152809 -0.330191 0.169751
-0.148359 -0.329602 0.172358
-0.143823 -0.32952 0.174567
-0.139782 -0.328727 0.176459
-0.135214 -0.328303 0.180948
-0.130903 -0.327501 0.182974
-0.126856 -0.32742 0.185112
-0.122555 -0.32651 0.189059
-0.118014 -0.326164 0.190494
-0.114422 -0.325445 0.192693
-0.109761 -0.325244 0.197241
-0.105981 -0.324907 0.198147
-0.101571 -0.324489 0.201235
-0.0972229 -0.323633 0.203143
-0.093034 -0.323402 0.204692
-0.0889144 -0.323569 0.206086
-0.085358 -0.323922 0.205791
-0.0809073 -0.323356 0.207638
-0.0767945 -0.322827 0.208338
-0.0723353 -0.32359 0.208471
-0.0687886 -0.323398 0.207704
-0.0645837 -0.323385 0.207837
-0.0607055 -0.323326 0.207773
-0.0564579 -0.323208 0.207671
-0.0525804 -0.323237 0.206694
-0.0487063 -0.323321 0.206188
-0.0448137 -0.324025 0.204821
-0.0400981 -0.324596 0.203042
-0.0364287 -0.324561 0.202457
-0.0325145 -0.324444 0.202317
-0.0288407 -0.324542 0.200974
-0.024354 -0.32499 0.1993
-0.0201584 -0.325557 0.196485
-0.0162569 -0.325624 0.195579
-0.0121561 -0.325963 0.193025
-0.00869507 -0.32633 0.190581
-0.00425483 -0.327132 0.186929
4.46091e-05 -0.327477 0.183457
0.00414416 -0.328846 0.178767
0.00871665 -0.329611 0.175044
0.0124171 -0.329999 0.171443
0.01635 -0.330676 0.166521
0.0208658 -0.331904 0.161937
0.0247935 -0.332292 0.158331
0.028919 -0.332716 0.154309
0.0334899 -0.333977 0.147843
0.0379083 -0.335093 0.141854
0.0421094 -0.336337 0.135449
0.0462884 -0.337029 0.131298
0.0503786 -0.337939 0.126838
0.0553966 -0.338775 0.120987
0.0597464 -0.339814 0.116835
0.0633922 -0.340128 0.114411
0.0682347 -0.340223 0.112108
0.0721535 -0.340531 0.111149
0.0765321 -0.340932 0.111089
0.0808173 -0.340764 0.11242
0.0850355 -0.340631 0.11296
0.0890461 -0.340043 0.115119
0.0934413 -0.33987 0.116814
0.0974807 -0.339329 0.118896
0.101522 -0.339127 0.1213
0.106248 -0.338944 0.122716
0.110001 -0.338375 0.125446
0.113846 -0.337917 0.127534
0.118031 -0.33769 0.130224
0.122162 -0.337232 0.131103
0.126438 -0.336673 0.133649
0.130555 -0.336692 0.135476
0.134224 -0.33624 0.136431
0.138881 -0.335981 0.137854
0.142888 -0.335565 0.138934
0.146389 -0.33593 0.139514
0.150848 -0.335499 0.139609
0.155015 -0.335356 0.141038
0.159669 -0.335844 0.139949
0.163188 -0.335155 0.140472
0.168078 -0.33568 0.139787
0.171951 -0.335554 0.140229
0.176075 -0.335877 0.138286
0.180479 -0.336013 0.138182
0.184845 -0.336299 0.136533
0.189241 -0.336442 0.135353
0.193366 -0.336725 0.133957
0.197992 -0.337017 0.13219
0.202278 -0.337239 0.130089
0.206776 -0.337701 0.128527
0.211854 -0.338618 0.12456
0.216353 -0.339291 0.121551
0.220858 -0.339781 0.11614
0.225603 -0.340785 0.112002
0.230616 -0.341331 0.107073
0.235474 -0.342373 0.101495
0.240368 -0.343777 0.0948297
0.246023 -0.345729 0.0845741
0.269179 -0.371087 -0.0584052
0.275434 -0.373133 -0.0686424
0.282054 -0.375604 -0.0830452
-0.404218 -0.384817 -0.156779
-0.394762 -0.380527 -0.13559
-0.388838 -0.378802 -0.127317
-0.382065 -0.377346 -0.11821
-0.376402 -0.376333 -0.112332
-0.370923 -0.375446 -0.108202
-0.365873 -0.375346 -0.104492
-0.360123 -0.374984 -0.101573
-0.355039 -0.373784 -0.0991178
-0.350381 -0.373322 -0.096338
-0.34447 -0.373562 -0.0938568
-0.339413 -0.372367 -0.0912232
-0.335399 -0.372236 -0.0893357
-0.314554 -0.354914 0.00620317
-0.30799 -0.352013 0.0222253
-0.299444 -0.34811 0.0465047
-0.292802 -0.345614 0.0612363
-0.287784 -0.344171 0.067723
-0.28235 -0.343358 0.07449
-0.277342 -0.342525 0.0793693
-0.272224 -0.341647 0.0839285
-0.267589 -0.341027 0.0869226
-0.262592 -0.340123 0.0911785
-0.257598 -0.339322 0.0945039
-0.25287 -0.338555 0.098971
-0.247973 -0.338097 0.102958
-0.242892 -0.337553 0.106937
-0.23865 -0.336506 0.11005
-0.234164 -0.336483 0.11267
-0.229548 -0.335925 0.116567
-0.224824 -0.334828 0.119081
-0.220283 -0.334465 0.122068
-0.215581 -0.333965 0.125681
-0.211063 -0.333969 0.128473
-0.206157 -0.332815 0.131948
-0.201836 -0.332098 0.134975
-0.197635 -0.331756 0.138309
-0.192948 -0.33097 0.142395
-0.188467 -0.330219 0.145817
-0.18369 -0.330224 0.148911
-0.178687 -0.328925 0.15315
-0.174393 -0.328785 0.15554
-0.170264 -0.327821 0.158593
-0.165712 -0.327202 0.162193
-0.16183 -0.327222 0.164836
-0.157386 -0.326222 0.168127
-0.152822 -0.326001 0.171065
-0.148272 -0.325729 0.173183
-0.143947 -0.325037 0.17629
-0.139312 -0.32464 0.178927
-0.135543 -0.324312 0.181213
-0.131213 -0.323574 0.183923
-0.12652 -0.32255 0.187134
-0.122256 -0.322537 0.189739
-0.118417 -0.322169 0.192028
-0.113868 -0.321459 0.195666
-0.109543 -0.320889 0.198497
-0.105664 -0.320384 0.200559
-0.101321 -0.320051 0.202736
-0.0974184 -0.319867 0.204352
-0.0932363 -0.319402 0.206186
-0.0889335 -0.319165 0.208072
-0.0850315 -0.319134 0.20892
-0.0807746 -0.318897 0.209059
-0.0770411 -0.318919 0.209075
-0.0723695 -0.318872 0.210104
-0.0687008 -0.319038 0.209674
-0.0647688 -0.318785 0.209275
-0.0604197 -0.318928 0.209323
-0.056372 -0.319308 0.209756
-0.0525821 -0.319317 0.207618
-0.0485839 -0.319771 0.206239
-0.0445151 -0.319206 0.207075
-0.0402222 -0.319656 0.20576
-0.0362288 -0.319841 0.205489
-0.0327889 -0.319874 0.204144
-0.028597 -0.320125 0.203022
-0.0241595 -0.320813 0.19982
-0.0206154 -0.321077 0.19894
-0.016287 -0.32093 0.19756
-0.0120561 -0.321693 0.194333
-0.00787067 -0.322331 0.190876
-0.00421411 -0.322891 0.187802
-0.000278348 -0.323273 0.185739
0.00388599 -0.32385 0.181215
0.00871845 -0.325144 0.17544
0.0123806 -0.326091 0.171804
0.01641 -0.326397 0.168039
0.0205433 -0.327475 0.163792
0.025209 -0.328111 0.15828
0.0287057 -0.328509 0.155123
0.0333724 -0.329814 0.148236
0.0375542 -0.330669 0.143849
0.0420579 -0.331555 0.136895
0.0462974 -0.333009 0.131683
0.0508807 -0.334135 0.125976
0.0549867 -0.334574 0.121448
0.0594441 -0.335367 0.11719
0.0637422 -0.335877 0.114929
0.0679916 -0.335902 0.113306
0.0723126 -0.3359 0.112496
0.0763835 -0.336443 0.112574
0.0806933 -0.336362 0.112132
0.0851734 -0.336158 0.113354
0.0894943 -0.335803 0.114813
0.0928898 -0.335456 0.117431
0.0973059 -0.334642 0.119465
0.101457 -0.334466 0.122087
0.105826 -0.334556 0.123092
0.109882 -0.334106 0.126856
0.113875 -0.333266 0.128635
0.117951 -0.333047 0.130185
0.122193 -0.33258 0.132359
0.126334 -0.332684 0.134419
0.130052 -0.331736 0.136669
0.134777 -0.331789 0.137154
0.138954 -0.331604 0.138834
0.142453 -0.331384 0.140088
0.146729 -0.331403 0.140983
0.150862 -0.33103 0.140566
0.154963 -0.330879 0.141226
0.159112 -0.330932 0.141622
0.163776 -0.331429 0.141244
0.167509 -0.331193 0.141715
0.171825 -0.331094 0.140617
0.176255 -0.331268 0.140636
0.180274 -0.331354 0.138935
0.184892 -0.332108 0.137443
0.188832 -0.332106 0.137474
0.192747 -0.332314 0.135706
0.197876 -0.332922 0.133726
0.202428 -0.332955 0.130894
0.206766 -0.333228 0.12872
0.211311 -0.334077 0.125392
0.216017 -0.334427 0.122829
0.22065 -0.335004 0.118435
0.225396 -0.336185 0.113074
0.23063 -0.337284 0.108077
0.235549 -0.337894 0.102469
0.240653 -0.339467 0.09545
0.245968 -0.340934 0.0871347
0.269774 -0.367094 -0.0598676
0.275537 -0.369088 -0.0711074
0.282658 -0.372591 -0.0903788
-0.41004 -0.380789 -0.165154
-0.400975 -0.376601 -0.140999
-0.393926 -0.374713 -0.130594
-0.387733 -0.373484 -0.122356
-0.381782 -0.372333 -0.116493
-0.376464 -0.371692 -0.111599
-0.370714 -0.370701 -0.107055
-0.365248 -0.370039 -0.104231
-0.36034 -0.369606 -0.100405
-0.35514 -0.369342 -0.0982492
-0.349975 -0.368584 -0.0965784
-0.344759 -0.368724 -0.0937564
-0.33964 -0.36786 -0.0917342
-0.334079 -0.367353 -0.0879576
-0.314422 -0.350656 0.00775838
-0.307386 -0.347496 0.0251447
-0.298273 -0.34247 0.0528357
-0.29281 -0.34106 0.0627291
-0.287186 -0.339606 0.0692507
-0.28229 -0.338696 0.0752336
-0.27689 -0.337774 0.0803298
-0.272362 -0.337163 0.0840057
-0.267437 -0.336237 0.0880159
-0.262666 -0.335613 0.0917102
-0.257322 -0.334989 0.095642
-0.252814 -0.334069 0.0995574
-0.247879 -0.334186 0.103297
-0.243631 -0.332984 0.106221
-0.238633 -0.332305 0.109745
-0.234255 -0.331981 0.113941
-0.229557 -0.330962 0.116601
-0.22475 -0.33101 0.119735
-0.220072 -0.330531 0.121392
-0.215793 -0.329982 0.12483
-0.211383 -0.329381 0.128507
-0.20624 -0.328457 0.132319
-0.201714 -0.327854 0.135403
-0.197238 -0.327129 0.140289
-0.192806 -0.326397 0.143704
-0.188054 -0.325847 0.147848
-0.183707 -0.325177 0.150925
-0.178908 -0.324033 0.155169
-0.174502 -0.32431 0.157931
-0.169897 -0.323168 0.160658
-0.165599 -0.323227 0.164049
-0.161182 -0.322269 0.167482
-0.15679 -0.322154 0.169664
-0.152431 -0.3213 0.173253
-0.147408 -0.320553 0.177012
-0.143627 -0.320508 0.177886
-0.139503 -0.320061 0.17989
-0.13543 -0.319408 0.183392
-0.130555 -0.319494 0.185542
-0.12667 -0.318591 0.188695
-0.122103 -0.318161 0.191404
-0.118048 -0.317771 0.194059
-0.113986 -0.317328 0.196413
-0.109304 -0.316533 0.199904
-0.105106 -0.31625 0.202931
-0.100859 -0.315317 0.205976
-0.0969718 -0.315771 0.205954
-0.0931644 -0.315281 0.207527
-0.0889713 -0.315405 0.208395
-0.0846283 -0.314856 0.210334
-0.0804727 -0.314465 0.210645
-0.0765744 -0.31446 0.211276
-0.0727015 -0.314678 0.211081
-0.068796 -0.314589 0.210894
-0.0643327 -0.314668 0.211637
-0.0605065 -0.314968 0.210468
-0.0568967 -0.314887 0.20969
-0.0526574 -0.314685 0.209607
-0.048401 -0.31512 0.208418
-0.0445086 -0.315305 0.208687
-0.0406348 -0.315519 0.207226
-0.0361311 -0.315791 0.205421
-0.03254 -0.315501 0.206454
-0.0283262 -0.315996 0.203391
-0.0243132 -0.31635 0.202366
-0.0203273 -0.316573 0.20074
-0.016248 -0.317164 0.197973
-0.0120032 -0.317508 0.196396
-0.00783766 -0.317876 0.192919
-0.004382 -0.318477 0.189842
-7.44292e-05 -0.319283 0.185007
0.00410598 -0.320011 0.181059
0.00843465 -0.320787 0.177639
0.0123477 -0.320964 0.174161
0.0165546 -0.322477 0.169032
0.0208303 -0.32297 0.163564
0.0250308 -0.3234 0.16032
0.0289811 -0.32496 0.154837
0.0333362 -0.325616 0.149177
0.0372177 -0.326059 0.145017
0.0418043 -0.327658 0.139756
0.0464401 -0.328467 0.133377
0.0508123 -0.329393 0.127765
0.0552786 -0.330693 0.122803
0.0595157 -0.331158 0.118189
0.0636096 -0.331369 0.115899
0.0684577 -0.331984 0.113368
0.0720209 -0.331853 0.112547
0.0766945 -0.332178 0.112953
0.0807419 -0.331432 0.114031
0.0847911 -0.331738 0.113918
0.0891574 -0.33118 0.116555
0.0929104 -0.330901 0.118809
0.0974166 -0.330889 0.11967
0.101411 -0.330287 0.122224
0.10611 -0.330017 0.124049
0.10998 -0.329987 0.126635
0.114073 -0.329315 0.128726
0.118051 -0.329008 0.130674
0.122589 -0.328363 0.13388
0.126021 -0.328104 0.135693
0.13024 -0.32743 0.1379
0.133735 -0.326983 0.138815
0.138669 -0.327601 0.139278
0.142612 -0.327139 0.141294
0.146611 -0.326997 0.141924
0.150682 -0.326792 0.143616
0.154942 -0.326434 0.142977
0.159531 -0.326767 0.143139
0.163193 -0.32696 0.143345
0.167709 -0.326072 0.143212
0.171937 -0.326925 0.141714
0.175692 -0.326515 0.140912
0.180207 -0.327254 0.140175
0.184901 -0.32782 0.13838
0.189149 -0.32735 0.138809
0.193477 -0.32797 0.135917
0.197952 -0.327866 0.134498
0.201828 -0.327927 0.132961
0.206545 -0.329091 0.130729
0.211079 -0.32944 0.127132
0.215754 -0.330312 0.12341
0.220662 -0.33085 0.119225
0.22541 -0.331438 0.115401
0.230299 -0.332312 0.109435
0.235079 -0.333786 0.104091
0.239967 -0.334185 0.0995294
0.245833 -0.336174 0.0896089
0.250931 -0.33801 0.0791745
0.276248 -0.365252 -0.0746212
-0.407395 -0.373239 -0.149279
-0.399168 -0.370927 -0.135365
-0.393045 -0.369248 -0.126298
-0.387253 -0.367963 -0.119361
-0.381714 -0.367272 -0.114309
-0.375709 -0.366702 -0.110614
-0.370655 -0.365979 -0.105871
-0.365285 -0.365198 -0.103869
-0.360223 -0.365074 -0.0998788
-0.355117 -0.364672 -0.0983689
-0.349882 -0.36387 -0.0961261
-0.344675 -0.363691 -0.0940433
-0.339794 -0.362307 -0.0897067
-0.333916 -0.362395 -0.0870843
-0.314382 -0.34579 0.00896513
-0.305727 -0.340915 0.0341873
-0.298928 -0.338366 0.0531573
-0.292519 -0.336075 0.0636764
-0.287363 -0.335074 0.0708715
-0.282176 -0.334199 0.0752388
-0.276921 -0.333596 0.0801197
-0.271997 -0.332254 0.0850385
-0.26731 -0.331968 0.0878545
-0.262718 -0.331698 0.0912212
-0.257506 -0.330625 0.0964013
-0.252776 -0.329828 0.0995129
-0.248266 -0.329134 0.102915
-0.243358 -0.328908 0.106849
-0.238429 -0.327819 0.111158
-0.233643 -0.327282 0.114737
-0.229779 -0.327231 0.115679
-0.224733 -0.326263 0.119938
-0.220102 -0.325885 0.122916
-0.21516 -0.325316 0.126084
-0.211278 -0.325069 0.12904
-0.205967 -0.323972 0.133476
-0.201421 -0.323502 0.137731
-0.197357 -0.323023 0.141201
-0.192394 -0.32187 0.145862
-0.187891 -0.321211 0.14851
-0.182799 -0.320764 0.152718
-0.178605 -0.32 0.156085
-0.174282 -0.319695 0.159281
-0.169819 -0.318875 0.162235
-0.165617 -0.318516 0.16535
-0.161226 -0.317642 0.168796
-0.156591 -0.317288 0.172307
-0.152357 -0.31676 0.175209
-0.148218 -0.317162 0.176186
-0.144001 -0.31589 0.179479
-0.139214 -0.315513 0.181945
-0.134824 -0.315305 0.183998
-0.131122 -0.314857 0.185999
-0.12692 -0.314457 0.188948
-0.122057 -0.31354 0.192784
-0.117893 -0.313384 0.195791
-0.113446 -0.312524 0.19997
-0.109235 -0.312173 0.202009
-0.105076 -0.311483 0.205071
-0.10125 -0.311441 0.205912
-0.0971501 -0.31096 0.20838
-0.0929414 -0.3108 0.209544
-0.0887596 -0.310875 0.210655
-0.085028 -0.310617 0.211387
-0.0807128 -0.31076 0.212139
-0.0766242 -0.310616 0.211835
-0.0723459 -0.310291 0.212978
-0.0683416 -0.310362 0.2126
-0.0643741 -0.31068 0.211802
-0.0604025 -0.310177 0.213075
-0.0564915 -0.310281 0.2122
-0.0523173 -0.31094 0.212154
-0.0483535 -0.310485 0.211014
-0.0440042 -0.310514 0.21012
-0.040652 -0.31112 0.209731
-0.0366759 -0.310904 0.207916
-0.0323108 -0.31142 0.206083
-0.0283186 -0.311847 0.204773
-0.0244014 -0.311956 0.202656
-0.0199039 -0.311858 0.202188
-0.0161311 -0.312803 0.200375
-0.0124261 -0.312824 0.197896
-0.00817616 -0.313012 0.195042
-0.0044006 -0.314121 0.192217
-0.000124461 -0.314641 0.187409
0.00460052 -0.315405 0.183565
0.00813977 -0.316287 0.178874
0.0124593 -0.317131 0.174394
0.0165337 -0.317631 0.170397
0.0204901 -0.318213 0.165599
0.0251705 -0.319575 0.159825
0.0294794 -0.320167 0.155508
0.0332504 -0.321261 0.150968
0.0374877 -0.322026 0.145902
0.0418039 -0.322615 0.14094
0.0465085 -0.323973 0.133778
0.0507293 -0.325158 0.129096
0.0547552 -0.325693 0.124529
0.0590355 -0.326258 0.122018
0.0637685 -0.326937 0.11792
0.0680838 -0.326699 0.115972
0.0718264 -0.327421 0.114969
0.0763909 -0.327615 0.113956
0.0805606 -0.327529 0.114642
0.0850466 -0.327139 0.115954
0.0887095 -0.326409 0.11873
0.0934517 -0.326667 0.119496
0.0971225 -0.325846 0.121616
0.102123 -0.325978 0.123912
0.105594 -0.325966 0.125065
0.109766 -0.324894 0.126871
0.113865 -0.324831 0.129734
0.117744 -0.324089 0.132027
0.121654 -0.323798 0.13375
0.126239 -0.323733 0.136313
0.130514 -0.323444 0.13732
0.134126 -0.323196 0.139437
0.138448 -0.322752 0.140366
0.141973 -0.322712 0.142404
0.146215 -0.322033 0.143241
0.150688 -0.322043 0.143825
0.154699 -0.32278 0.143838
0.159005 -0.322635 0.143768
0.162633 -0.322154 0.144787
0.167403 -0.322633 0.143581
0.171696 -0.322564 0.143152
0.176267 -0.322561 0.142666
0.180249 -0.322813 0.141005
0.184399 -0.322941 0.140055
0.188875 -0.323215 0.138455
0.193348 -0.323503 0.137574
0.197666 -0.323618 0.135609
0.202129 -0.323884 0.134316
0.206725 -0.324564 0.131529
0.211148 -0.324942 0.128419
0.215438 -0.325132 0.126177
0.220661 -0.325941 0.121912
0.224944 -0.326766 0.117266
0.229336 -0.328017 0.112769
0.234928 -0.328678 0.106881
0.239867 -0.3296 0.101459
0.245075 -0.331062 0.0939026
0.250748 -0.332132 0.0856974
0.25685 -0.334972 0.07074
-0.41479 -0.371007 -0.163178
-0.405908 -0.367303 -0.142948
-0.399405 -0.365641 -0.132869
-0.392477 -0.363697 -0.123438
-0.386854 -0.363373 -0.117459
-0.381177 -0.362185 -0.112848
-0.375447 -0.361622 -0.109132
-0.370574 -0.360981 -0.105751
-0.365262 -0.360775 -0.104178
-0.359924 -0.360042 -0.101198
-0.355668 -0.359678 -0.0987446
-0.350186 -0.359351 -0.0964222
-0.345031 -0.359427 -0.0949662
-0.339499 -0.358305 -0.09045
-0.334091 -0.357103 -0.0849192
-0.313577 -0.34082 0.0124496
-0.305419 -0.335742 0.0383871
-0.297497 -0.332503 0.0578754
-0.292581 -0.331689 0.0641446
-0.2874 -0.330694 0.0698581
-0.282207 -0.329986 0.0744901
-0.277112 -0.32905 0.0795761
-0.272492 -0.328382 0.0835354
-0.267057 -0.327684 0.0888913
-0.262281 -0.327021 0.092503
-0.257523 -0.326203 0.0951188
-0.252597 -0.326131 0.0995308
-0.248014 -0.3249 0.10389
-0.243369 -0.324241 0.107214
-0.238612 -0.323944 0.110318
-0.233833 -0.323473 0.113842
-0.229703 -0.322951 0.115774
-0.224537 -0.322292 0.119252
-0.219882 -0.321663 0.123507
-0.21545 -0.321396 0.125808
-0.210555 -0.320451 0.129963
-0.206095 -0.319934 0.134119
-0.201774 -0.319354 0.137301
-0.196561 -0.317975 0.144033
-0.192447 -0.317553 0.146646
-0.18797 -0.317117 0.150934
-0.183115 -0.31609 0.154612
-0.178968 -0.315933 0.157285
-0.174123 -0.31517 0.160704
-0.169384 -0.314408 0.164538
-0.16519 -0.314304 0.167183
-0.160996 -0.313801 0.170851
-0.156988 -0.313031 0.172921
-0.152188 -0.31213 0.176763
-0.147805 -0.312281 0.178531
-0.143246 -0.311532 0.181358
-0.139358 -0.31119 0.183962
-0.135104 -0.310541 0.186584
-0.130827 -0.310622 0.188645
-0.126638 -0.310176 0.191069
-0.122366 -0.309818 0.193296
-0.117971 -0.30903 0.197833
-0.113725 -0.308296 0.200429
-0.109428 -0.307816 0.203434
-0.105103 -0.307592 0.206196
-0.101035 -0.306941 0.208723
-0.0970853 -0.306724 0.209756
-0.0924264 -0.306693 0.211501
-0.0888704 -0.307004 0.211726
-0.0845925 -0.306828 0.212763
-0.0806389 -0.30661 0.213861
-0.0765654 -0.306217 0.214409
-0.072426 -0.305856 0.21448
-0.0683463 -0.3059 0.214586
-0.0643381 -0.306227 0.215017
-0.060364 -0.306036 0.214875
-0.0564446 -0.305778 0.214297
-0.0525196 -0.305993 0.212779
-0.0481504 -0.3064 0.212032
-0.0443121 -0.306948 0.211507
-0.0404783 -0.306782 0.210608
-0.0365171 -0.307055 0.209237
-0.0320362 -0.307122 0.208191
-0.0284038 -0.307593 0.205868
-0.0242663 -0.307772 0.205279
-0.0202636 -0.307916 0.2038
-0.015895 -0.308286 0.200902
-0.0120827 -0.308452 0.20008
-0.00815601 -0.309031 0.195883
-0.00419378 -0.309457 0.193581
2.86892e-05 -0.310067 0.19051
0.00420108 -0.31087 0.186156
0.00837454 -0.311793 0.180645
0.0118672 -0.312778 0.176125
0.0165493 -0.313496 0.171205
0.021089 -0.314544 0.165221
0.0244569 -0.314563 0.162721
0.0292579 -0.315608 0.157296
0.0335189 -0.316794 0.150783
0.0379685 -0.317784 0.146137
0.0420059 -0.318665 0.14116
0.0463186 -0.319263 0.135643
0.0507322 -0.320606 0.130395
0.0547615 -0.321428 0.126355
0.05908 -0.321759 0.122547
0.0639022 -0.322516 0.119933
0.0677967 -0.322516 0.11679
0.0725289 -0.322947 0.115903
0.0764007 -0.323016 0.115052
0.0806455 -0.323017 0.117047
0.0848808 -0.322565 0.117842
0.0889321 -0.322474 0.11822
0.0931493 -0.321816 0.121305
0.0975035 -0.322146 0.122546
0.101694 -0.321157 0.124631
0.105437 -0.321453 0.125162
0.109635 -0.32056 0.129143
0.113713 -0.320366 0.130886
0.117612 -0.320159 0.132013
0.122175 -0.31952 0.135284
0.126073 -0.319378 0.136553
0.129975 -0.318851 0.139088
0.134424 -0.318547 0.140418
0.138294 -0.318308 0.142399
0.142798 -0.318068 0.143553
0.146454 -0.318552 0.143368
0.150578 -0.318023 0.145187
0.154609 -0.317938 0.145535
0.159013 -0.317844 0.145971
0.162691 -0.317647 0.145328
0.167462 -0.318023 0.144864
0.172143 -0.318168 0.143693
0.175857 -0.318157 0.143738
0.179936 -0.318109 0.142594
0.184624 -0.318772 0.140966
0.188343 -0.318663 0.140394
0.193072 -0.318896 0.138385
0.197538 -0.319163 0.137755
0.202088 -0.319636 0.135109
0.206001 -0.319891 0.133141
0.211318 -0.320516 0.130039
0.215385 -0.321128 0.127289
0.220132 -0.321569 0.123474
0.224611 -0.322183 0.119269
0.229918 -0.323351 0.114974
0.234633 -0.323901 0.110488
0.239585 -0.324757 0.105302
0.244261 -0.32567 0.10033
0.249298 -0.327304 0.0931852
0.254801 -0.328539 0.0845952
0.260705 -0.329981 0.0742027
-0.411601 -0.363605 -0.14911
-0.404795 -0.361556 -0.137278
-0.399294 -0.360625 -0.130065
-0.392464 -0.359376 -0.12254
-0.386903 -0.357929 -0.11706
-0.381337 -0.357384 -0.11243
-0.375967 -0.357152 -0.110046
-0.370628 -0.356239 -0.107061
-0.365168 -0.356079 -0.104795
-0.360051 -0.35502 -0.100894
-0.355284 -0.354866 -0.0993865
-0.350188 -0.354847 -0.0978465
-0.345168 -0.354707 -0.0937927
-0.339188 -0.353343 -0.0893121
-0.333002 -0.352382 -0.0820212
-0.312127 -0.335157 0.01968
-0.305299 -0.331652 0.0409102
-0.298095 -0.328695 0.0566751
-0.293252 -0.327144 0.0632179
-0.287012 -0.32671 0.0696204
-0.282077 -0.325465 0.0750178
-0.277142 -0.324515 0.0792482
-0.272058 -0.324313 0.0834486
-0.267689 -0.323081 0.0880535
-0.262045 -0.322329 0.0928264
-0.258075 -0.322406 0.0950993
-0.253115 -0.321482 0.0992608
-0.248412 -0.321129 0.102607
-0.243056 -0.32031 0.107609
-0.238992 -0.319742 0.110362
-0.234296 -0.319057 0.112971
-0.229404 -0.318832 0.116131
-0.224599 -0.318135 0.12004
-0.220011 -0.317415 0.124015
-0.215413 -0.317208 0.1268
-0.210234 -0.316118 0.131339
-0.206302 -0.315795 0.133636
-0.201389 -0.3145 0.140394
-0.197116 -0.31396 0.144041
-0.192187 -0.313318 0.148589
-0.18739 -0.312505 0.152623
-0.182778 -0.312005 0.156898
-0.178629 -0.311233 0.158824
-0.174156 -0.310962 0.162409
-0.169415 -0.310555 0.16561
-0.165202 -0.309525 0.16983
-0.160611 -0.309048 0.172335
-0.156411 -0.30829 0.175597
-0.152075 -0.307864 0.178711
-0.14797 -0.30745 0.180794
-0.143674 -0.307296 0.181985
-0.138766 -0.306574 0.185392
-0.13509 -0.306917 0.187546
-0.130409 -0.306337 0.190254
-0.126099 -0.305249 0.194035
-0.12148 -0.305113 0.196833
-0.117832 -0.304744 0.199129
-0.113842 -0.304037 0.203132
-0.109265 -0.303662 0.205154
-0.104853 -0.303082 0.208058
-0.101059 -0.302753 0.209879
-0.0967725 -0.302268 0.21133
-0.0928952 -0.302376 0.212727
-0.0886861 -0.301732 0.213172
-0.0843596 -0.302271 0.214595
-0.0806746 -0.301878 0.215554
-0.076289 -0.301701 0.215521
-0.072493 -0.302191 0.214701
-0.0683798 -0.302187 0.215255
-0.0642628 -0.301703 0.215474
-0.0603795 -0.301912 0.215293
-0.0563535 -0.301573 0.215323
-0.0523158 -0.302306 0.214224
-0.0484286 -0.301794 0.214679
-0.0441952 -0.302473 0.21306
-0.0404419 -0.302479 0.212199
-0.0363967 -0.302539 0.210405
-0.0324279 -0.302711 0.209703
-0.0281013 -0.302876 0.208504
-0.0240735 -0.303806 0.205697
-0.0199879 -0.303984 0.204712
-0.0161031 -0.30361 0.203142
-0.0118989 -0.304813 0.200098
-0.00768595 -0.304932 0.197579
-0.00428985 -0.305204 0.195474
-0.000362082 -0.305691 0.192044
0.00398516 -0.306768 0.187294
0.00827063 -0.307192 0.182224
0.0123189 -0.308277 0.177673
0.0162537 -0.308983 0.172893
0.0201864 -0.310036 0.167953
0.0249133 -0.310439 0.163747
0.0289429 -0.311611 0.158443
0.033482 -0.312428 0.152527
0.0374967 -0.313383 0.147643
0.0417367 -0.313699 0.143945
0.0462325 -0.315096 0.137834
0.0505502 -0.315788 0.13292
0.0547078 -0.316557 0.128283
0.0593507 -0.317274 0.123449
0.0636242 -0.317795 0.120743
0.0678014 -0.31856 0.119511
0.0718297 -0.318395 0.118133
0.076619 -0.317994 0.118631
0.0804397 -0.318228 0.118295
0.0846726 -0.318386 0.119382
0.088986 -0.317893 0.120934
0.0935528 -0.317472 0.121891
0.0975467 -0.317755 0.123389
0.101186 -0.317186 0.125279
0.105641 -0.316785 0.127995
0.109899 -0.316221 0.129775
0.113672 -0.315759 0.132428
0.117434 -0.315456 0.134663
0.122122 -0.314894 0.136657
0.12615 -0.314916 0.138624
0.130146 -0.315026 0.139731
0.133906 -0.314053 0.141257
0.138481 -0.314027 0.143456
0.141837 -0.31414 0.144824
0.146606 -0.313865 0.145292
0.150461 -0.31357 0.146324
0.154699 -0.313292 0.14698
0.158963 -0.313404 0.146006
0.163177 -0.313718 0.145822
0.167246 -0.313371 0.145784
0.171117 -0.313569 0.1463
0.175775 -0.31407 0.144136
0.179775 -0.313585 0.143981
0.184561 -0.314221 0.142371
0.188901 -0.314088 0.141795
0.19282 -0.315015 0.139538
0.197225 -0.3151 0.138555
0.202028 -0.315045 0.136838
0.206024 -0.315099 0.135083
0.210685 -0.315952 0.131759
0.215487 -0.316659 0.128513
0.219945 -0.31753 0.125062
0.223951 -0.317574 0.122164
0.22906 -0.31811 0.118531
0.233938 -0.31852 0.114424
0.23858 -0.319289 0.111037
0.242907 -0.320221 0.107179
0.247822 -0.320664 0.103809
0.253974 -0.323306 0.0934249
0.258659 -0.323529 0.0881859
0.264137 -0.324792 0.0797675
0.270944 -0.327635 0.0635432
-0.421068 -0.362582 -0.170954
-0.411063 -0.357992 -0.14481
-0.404735 -0.356226 -0.13464
-0.397672 -0.354956 -0.126635
-0.39237 -0.354433 -0.121744
-0.387216 -0.353305 -0.117439
-0.381665 -0.35297 -0.112816
-0.375636 -0.352104 -0.109332
-0.370961 -0.351514 -0.108032
-0.365203 -0.351287 -0.104887
-0.360078 -0.350822 -0.10228
-0.355156 -0.35059 -0.100599
-0.350125 -0.350031 -0.0972717
-0.344928 -0.349499 -0.094516
-0.339326 -0.348888 -0.0891356
-0.32379 -0.336924 -0.0198898
-0.312937 -0.33068 0.0201814
-0.303801 -0.325981 0.0471624
-0.298226 -0.32423 0.0568217
-0.29281 -0.323165 0.063928
-0.287314 -0.322736 0.0692281
-0.282292 -0.321433 0.0742155
-0.276841 -0.320904 0.0792351
-0.272311 -0.319584 0.0832666
-0.267402 -0.318925 0.0883723
-0.262161 -0.31842 0.0926855
-0.257471 -0.317816 0.0964751
-0.252694 -0.317356 0.0994796
-0.247722 -0.316507 0.103669
-0.243161 -0.315379 0.107684
-0.238265 -0.315067 0.110602
-0.233903 -0.314677 0.114016
-0.229488 -0.314125 0.116909
-0.224812 -0.313499 0.120607
-0.219633 -0.313437 0.123734
-0.215301 -0.312566 0.12782
-0.21027 -0.311903 0.131984
-0.206229 -0.311606 0.135501
-0.201307 -0.310151 0.14133
-0.196138 -0.309675 0.146232
-0.192307 -0.30884 0.149835
-0.187101 -0.308111 0.153511
-0.182984 -0.307652 0.157125
-0.178214 -0.306811 0.161248
-0.173752 -0.306951 0.163625
-0.16942 -0.30598 0.167532
-0.164786 -0.305181 0.171294
-0.160639 -0.304655 0.173816
-0.156326 -0.304243 0.176927
-0.152222 -0.303801 0.179575
-0.147536 -0.303423 0.182662
-0.14279 -0.30292 0.18523
-0.139064 -0.303029 0.186172
-0.134846 -0.302533 0.188236
-0.130467 -0.302179 0.191563
-0.126533 -0.301811 0.194233
-0.121972 -0.300715 0.198123
-0.11759 -0.300304 0.201272
-0.113388 -0.299509 0.204025
-0.109176 -0.299659 0.206514
-0.105359 -0.29894 0.208615
-0.100971 -0.298339 0.210901
-0.0967627 -0.298694 0.212282
-0.0930034 -0.298168 0.212166
-0.0882412 -0.298111 0.214588
-0.0848972 -0.297614 0.215741
-0.080402 -0.297736 0.216859
-0.0762643 -0.297435 0.216801
-0.0721012 -0.297495 0.216971
-0.068431 -0.297436 0.217397
-0.0643547 -0.29731 0.217563
-0.0600985 -0.297669 0.216681
-0.0560445 -0.29801 0.216414
-0.0524801 -0.297779 0.215078
-0.0481442 -0.298039 0.214085
-0.0440788 -0.298038 0.214021
-0.0403495 -0.29806 0.212705
-0.0361529 -0.298235 0.212176
-0.0324883 -0.298466 0.211361
-0.0282975 -0.298305 0.210153
-0.0242601 -0.299237 0.208696
-0.0204782 -0.299279 0.206238
-0.0160571 -0.299503 0.204087
-0.0118506 -0.299563 0.202151
-0.00876419 -0.300423 0.199733
-0.00411772 -0.300934 0.196338
-0.000325191 -0.301601 0.193441
0.0040632 -0.302346 0.188724
0.00828588 -0.303172 0.183583
0.0121615 -0.304043 0.179972
0.0171231 -0.304909 0.17341
0.0206858 -0.305453 0.169856
0.0252095 -0.306741 0.16371
0.0293042 -0.307153 0.159757
0.0332066 -0.30779 0.155155
0.0374578 -0.308897 0.149116
0.0418004 -0.309666 0.145146
0.0460573 -0.310348 0.13961
0.0508823 -0.310819 0.135798
0.0549096 -0.311926 0.130612
0.0593038 -0.312629 0.126592
0.0633452 -0.312991 0.124525
0.0679579 -0.313939 0.121073
0.0718276 -0.313327 0.120889
0.0762605 -0.313878 0.11964
0.0803683 -0.313547 0.119845
0.0847942 -0.313551 0.121192
0.0891093 -0.31382 0.121913
0.0932409 -0.312977 0.123545
0.0975275 -0.31324 0.124486
0.101263 -0.312371 0.12736
0.105859 -0.31227 0.129596
0.109711 -0.311985 0.130774
0.113544 -0.311331 0.133797
0.117812 -0.311247 0.1355
0.121506 -0.311067 0.138102
0.125856 -0.310777 0.140464
0.129714 -0.309785 0.14143
0.133838 -0.309511 0.143334
0.1382 -0.309663 0.143994
0.142386 -0.308916 0.146499
0.14669 -0.309552 0.146157
0.150579 -0.309606 0.146773
0.154382 -0.30925 0.147909
0.158457 -0.309415 0.147497
0.162775 -0.309355 0.147044
0.167561 -0.30919 0.147084
0.17159 -0.309663 0.146181
0.175695 -0.309204 0.146174
0.179505 -0.309344 0.145189
0.183628 -0.309969 0.144321
0.188426 -0.31015 0.142416
0.192992 -0.310152 0.141263
0.197541 -0.310604 0.139202
0.201757 -0.310415 0.138544
0.205883 -0.311125 0.135657
0.210872 -0.311662 0.13362
0.214714 -0.311979 0.13107
0.219269 -0.311887 0.129003
0.223867 -0.312502 0.125959
0.228432 -0.312909 0.122673
0.233105 -0.313983 0.118893
0.237766 -0.314163 0.11775
0.242478 -0.314773 0.114352
0.24723 -0.315314 0.110733
0.251782 -0.31644 0.106078
0.256218 -0.316223 0.104777
0.261175 -0.316362 0.102368
0.266243 -0.317729 0.0957142
0.271461 -0.318875 0.0892948
0.276613 -0.319927 0.0821067
0.282935 -0.321799 0.0716035
0.2892 -0.323926 0.0589553
-0.418267 -0.354729 -0.155664
-0.410379 -0.352593 -0.141282
-0.403867 -0.351173 -0.132583
-0.398033 -0.349945 -0.12571
-0.391988 -0.349594 -0.120834
-0.387102 -0.348433 -0.117296
-0.382185 -0.348131 -0.114786
-0.375886 -0.347519 -0.111149
-0.370483 -0.347077 -0.107683
-0.365607 -0.346958 -0.105361
-0.360281 -0.346683 -0.103605
-0.355978 -0.346038 -0.102099
-0.350227 -0.345359 -0.0985239
-0.344891 -0.344795 -0.0951397
-0.338556 -0.343488 -0.0864584
-0.319947 -0.328718 0.000841498
-0.311344 -0.324569 0.0285965
-0.303946 -0.322009 0.0470855
-0.297496 -0.319732 0.0581169
-0.292842 -0.31893 0.0633401
-0.287182 -0.317732 0.0697894
-0.28226 -0.317394 0.0739288
-0.277276 -0.316323 0.0788934
-0.272179 -0.315585 0.0834416
-0.267393 -0.315378 0.0873494
-0.262868 -0.313973 0.0920784
-0.257623 -0.313618 0.0963281
-0.252809 -0.312998 0.0991689
-0.248239 -0.31252 0.102648
-0.243598 -0.311153 0.106998
-0.238166 -0.311204 0.111102
-0.233997 -0.310506 0.114171
-0.229249 -0.309733 0.117516
-0.224039 -0.309093 0.122511
-0.220083 -0.309202 0.123674
-0.215022 -0.307869 0.129365
-0.210766 -0.307341 0.132607
-0.205447 -0.306212 0.139443
-0.201028 -0.305764 0.142963
-0.196268 -0.304756 0.148311
-0.191465 -0.304308 0.152339
-0.187611 -0.303689 0.155247
-0.182281 -0.302994 0.159927
-0.178349 -0.302867 0.161765
-0.173768 -0.301979 0.165603
-0.169163 -0.301768 0.167861
-0.165053 -0.301196 0.171786
-0.160663 -0.300542 0.174883
-0.156014 -0.299977 0.177826
-0.151901 -0.299092 0.18031
-0.147316 -0.298959 0.18357
-0.143275 -0.298627 0.185651
-0.139076 -0.298303 0.188081
-0.134177 -0.297758 0.191019
-0.130578 -0.297659 0.192039
-0.126115 -0.296652 0.1966
-0.121879 -0.296707 0.198887
-0.117734 -0.295611 0.20234
-0.11366 -0.295486 0.204877
-0.109108 -0.295035 0.207968
-0.105337 -0.294379 0.210052
-0.100545 -0.294327 0.212484
-0.0967431 -0.294059 0.213105
-0.0924357 -0.294148 0.21508
-0.0882114 -0.293298 0.216899
-0.0844045 -0.293678 0.216964
-0.0802655 -0.29329 0.21752
-0.0767172 -0.293476 0.217948
-0.0726808 -0.292912 0.218165
-0.0681478 -0.293066 0.218569
-0.064454 -0.293743 0.217663
-0.0602991 -0.293193 0.219024
-0.0560493 -0.293682 0.217736
-0.0518445 -0.294145 0.21671
-0.048475 -0.29391 0.21574
-0.0442516 -0.293654 0.21564
-0.0404948 -0.294268 0.213542
-0.0364097 -0.294323 0.213293
-0.0324633 -0.294349 0.212418
-0.0282307 -0.294728 0.210396
-0.0240135 -0.29462 0.209341
-0.0201635 -0.295387 0.206878
-0.0158782 -0.295182 0.205918
-0.0121319 -0.295665 0.202905
-0.00803876 -0.296209 0.201328
-0.00404544 -0.296898 0.198076
-6.75792e-05 -0.297565 0.194601
0.00436141 -0.297568 0.191221
0.00815425 -0.298425 0.186275
0.0124728 -0.299589 0.180928
0.0164661 -0.300321 0.176503
0.0204975 -0.301458 0.171277
0.024681 -0.30233 0.166207
0.0288616 -0.302638 0.160423
0.0332647 -0.303516 0.155932
0.0373086 -0.304568 0.151568
0.0421077 -0.305324 0.146208
0.0462785 -0.306131 0.141236
0.0506051 -0.306717 0.137135
0.0550281 -0.30719 0.131786
0.0590182 -0.307686 0.129293
0.0634691 -0.308487 0.125204
0.0677266 -0.309434 0.122691
0.071848 -0.309017 0.122198
0.0761642 -0.309156 0.121539
0.0806378 -0.309376 0.121822
0.0850162 -0.309228 0.122256
0.088586 -0.308656 0.124635
0.0932483 -0.308425 0.125602
0.0970474 -0.308301 0.127003
0.101079 -0.308017 0.12844
0.104928 -0.30747 0.130779
0.109645 -0.307866 0.132874
0.113297 -0.30696 0.135172
0.117281 -0.306488 0.13744
0.121615 -0.306144 0.139565
0.125549 -0.305968 0.141742
0.129717 -0.305823 0.142953
0.13377 -0.305348 0.144873
0.138137 -0.304928 0.14597
0.141894 -0.304281 0.147329
0.146113 -0.304769 0.147995
0.15027 -0.304908 0.148256
0.154068 -0.30473 0.148279
0.158597 -0.304881 0.148792
0.162736 -0.305234 0.147923
0.167125 -0.305016 0.147537
0.171525 -0.304587 0.147274
0.175975 -0.305348 0.146504
0.180005 -0.305414 0.145279
0.184295 -0.30505 0.145493
0.188495 -0.30525 0.143836
0.19273 -0.305263 0.143596
0.197077 -0.305893 0.141024
0.201646 -0.306588 0.139148
0.205825 -0.306614 0.137911
0.210419 -0.306955 0.13522
0.21475 -0.307057 0.134452
0.219111 -0.307665 0.131402
0.223834 -0.308313 0.128492
0.228329 -0.30804 0.126642
0.23269 -0.308718 0.124942
0.237318 -0.309058 0.122247
0.241493 -0.309274 0.12109
0.245746 -0.309575 0.120199
0.250529 -0.310152 0.118267
0.254788 -0.309614 0.118491
0.259425 -0.310513 0.11521
0.263362 -0.310163 0.115487
0.267513 -0.310357 0.113344
0.272736 -0.31136 0.109383
0.277675 -0.311785 0.105571
0.282766 -0.312683 0.100292
0.287667 -0.313959 0.0940917
0.29289 -0.313954 0.0906019
0.298689 -0.315912 0.0805974
0.304098 -0.317471 0.0710412
-0.416501 -0.348921 -0.149143
-0.40963 -0.347348 -0.137923
-0.402991 -0.345887 -0.13011
-0.396972 -0.344777 -0.124666
-0.392275 -0.34426 -0.12123
-0.387553 -0.343801 -0.118068
-0.381293 -0.343478 -0.114655
-0.375951 -0.342769 -0.111714
-0.371358 -0.342713 -0.110142
-0.365765 -0.341979 -0.107919
-0.361198 -0.342127 -0.105711
-0.356027 -0.341647 -0.102968
-0.350809 -0.341511 -0.100791
-0.344657 -0.340051 -0.0954792
-0.331466 -0.331507 -0.03949
-0.319325 -0.323803 0.00580573
-0.310415 -0.319058 0.0340781
-0.303879 -0.317058 0.0473924
-0.298317 -0.315862 0.0558252
-0.292789 -0.314098 0.063167
-0.287729 -0.313322 0.0690905
-0.282396 -0.312725 0.0734309
-0.277456 -0.311958 0.0789483
-0.27281 -0.311178 0.082818
-0.267462 -0.310722 0.0874043
-0.261953 -0.309871 0.0926894
-0.257831 -0.308836 0.0962095
-0.252755 -0.308642 0.100333
-0.247427 -0.307604 0.104025
-0.243604 -0.307416 0.106789
-0.238904 -0.306474 0.112048
-0.234052 -0.306433 0.114708
-0.22914 -0.3054 0.11848
-0.224336 -0.305441 0.122246
-0.219661 -0.304501 0.12561
-0.214877 -0.303199 0.130384
-0.210329 -0.302692 0.134822
-0.205202 -0.302108 0.139881
-0.200786 -0.301335 0.144427
-0.196013 -0.300649 0.148767
-0.19143 -0.300166 0.153292
-0.186948 -0.29943 0.156613
-0.182288 -0.298538 0.160653
-0.177803 -0.297966 0.163494
-0.173273 -0.297924 0.167032
-0.169404 -0.297256 0.168823
-0.164399 -0.296628 0.17272
-0.16061 -0.296309 0.175906
-0.155932 -0.29589 0.178705
-0.151891 -0.295149 0.180717
-0.147535 -0.295092 0.183936
-0.143293 -0.294486 0.186695
-0.138608 -0.293909 0.188931
-0.134391 -0.293432 0.191312
-0.130463 -0.292937 0.194026
-0.125873 -0.293183 0.196994
-0.122061 -0.292152 0.200613
-0.117407 -0.291323 0.204155
-0.113574 -0.291443 0.206203
-0.109144 -0.290678 0.209051
-0.104865 -0.290398 0.211931
-0.100879 -0.290155 0.213428
-0.0963653 -0.290164 0.215616
-0.092713 -0.289635 0.216009
-0.088839 -0.289318 0.216632
-0.0846413 -0.289904 0.21687
-0.0801426 -0.289306 0.218848
-0.0763738 -0.288885 0.219599
-0.0725851 -0.288903 0.219017
-0.0679952 -0.28903 0.219789
-0.0641454 -0.288919 0.220305
-0.0605002 -0.289125 0.220136
-0.0559942 -0.289701 0.218152
-0.0518204 -0.289048 0.218671
-0.0483553 -0.289085 0.218421
-0.0441885 -0.289074 0.217963
-0.0403089 -0.289705 0.215824
-0.0363737 -0.290264 0.214789
-0.0321986 -0.289803 0.213402
-0.0283082 -0.290563 0.211403
-0.0240532 -0.290644 0.210615
-0.0202564 -0.290908 0.20836
-0.0162555 -0.290934 0.206247
-0.0117206 -0.291449 0.204076
-0.00800907 -0.291829 0.201255
-0.00376707 -0.292567 0.198785
-0.000120816 -0.293066 0.196665
0.0041339 -0.293277 0.192458
0.00815582 -0.294191 0.188857
0.0126726 -0.295074 0.182721
0.0164597 -0.295194 0.17909
0.020553 -0.296476 0.173399
0.0247198 -0.297571 0.168011
0.0292445 -0.298354 0.162406
0.0334699 -0.299317 0.157884
0.037501 -0.299749 0.153498
0.0419394 -0.300776 0.148207
