ply
format ascii 1.0
element vertex 1672
property float x
property float y
property float z
end_header
-0.10517 -0.452447 0.327948
-0.101737 -0.451507 0.331771
-0.0979638 -0.450494 0.335926
-0.0933834 -0.449191 0.339966
-0.089645 -0.44903 0.341622
-0.0857392 -0.447764 0.345276
-0.0821923 -0.447187 0.348387
-0.0779949 -0.446404 0.350767
-0.0740383 -0.445388 0.353958
-0.0703889 -0.445069 0.355297
-0.0668391 -0.444932 0.356191
-0.0633376 -0.444902 0.357119
-0.0591752 -0.444322 0.359537
-0.0554495 -0.443745 0.360467
-0.0516912 -0.443644 0.36116
-0.0478747 -0.443685 0.361043
-0.0445634 -0.44358 0.360915
-0.0406226 -0.443687 0.360413
-0.0367384 -0.443892 0.359738
-0.0330603 -0.44405 0.359811
-0.0296605 -0.444329 0.359288
-0.0258539 -0.444504 0.358349
-0.0223299 -0.444254 0.357746
-0.018559 -0.444331 0.3571
-0.0147156 -0.445359 0.354458
-0.0107332 -0.445379 0.354052
-0.00767417 -0.44585 0.352764
-0.00366522 -0.445795 0.351681
6.14038e-05 -0.446292 0.349062
0.00363511 -0.446846 0.348579
0.00725116 -0.447526 0.34601
0.0112415 -0.44772 0.345664
0.0146361 -0.448107 0.344077
0.0185835 -0.448549 0.342357
0.0226135 -0.448877 0.34117
0.0260722 -0.449406 0.339137
0.0299581 -0.450161 0.337027
0.0339136 -0.450244 0.33728
0.0373149 -0.450489 0.335327
0.0411313 -0.450826 0.334151
0.0453213 -0.451579 0.332152
0.048953 -0.451627 0.331585
0.0524529 -0.451881 0.330005
0.0566422 -0.451999 0.328269
0.0602167 -0.452635 0.32753
0.064491 -0.453048 0.326202
0.0675728 -0.452884 0.325312
0.0718475 -0.45357 0.323802
0.0754823 -0.453749 0.322712
0.0793293 -0.454513 0.321376
0.0833645 -0.454386 0.321168
0.0870148 -0.45464 0.319246
0.0910847 -0.455349 0.318332
0.0954571 -0.456107 0.315851
0.0987117 -0.455835 0.315687
0.102701 -0.456556 0.313797
0.106661 -0.456227 0.312717
0.110375 -0.45676 0.312379
0.114616 -0.457256 0.310134
0.11806 -0.457403 0.309031
0.121757 -0.458136 0.307837
0.125713 -0.458602 0.306568
0.129992 -0.45834 0.306246
0.133935 -0.458268 0.305573
0.137465 -0.458765 0.304572
0.141604 -0.458823 0.304347
0.144793 -0.458972 0.303188
0.149337 -0.459423 0.302362
0.152926 -0.459662 0.301781
0.15706 -0.459687 0.301142
0.161323 -0.460146 0.299938
0.16506 -0.460298 0.299025
0.168967 -0.460932 0.297813
0.172888 -0.460605 0.297801
0.176916 -0.461356 0.29622
0.180503 -0.461042 0.295853
0.184761 -0.461583 0.294816
0.188636 -0.461882 0.293834
0.192792 -0.462214 0.292518
0.196321 -0.462076 0.29199
0.200957 -0.46345 0.288418
0.204962 -0.464284 0.286331
0.209011 -0.464204 0.284036
0.213984 -0.465823 0.279726
0.217367 -0.466042 0.277619
0.222488 -0.468617 0.268573
-0.303802 -0.463145 0.272593
-0.298492 -0.460736 0.28288
-0.29265 -0.458859 0.290835
-0.288221 -0.45753 0.294976
-0.283409 -0.456329 0.299818
-0.279265 -0.455156 0.304083
-0.275038 -0.454711 0.305926
-0.270391 -0.453774 0.310513
-0.266049 -0.452871 0.312712
-0.262528 -0.452391 0.314144
-0.258394 -0.452256 0.315506
-0.25456 -0.451534 0.316913
-0.25088 -0.451579 0.316915
-0.246434 -0.451424 0.318794
-0.242918 -0.451411 0.317773
-0.239109 -0.451343 0.317735
-0.235322 -0.451502 0.317923
-0.231515 -0.451154 0.3181
-0.227605 -0.452019 0.315937
-0.223847 -0.451832 0.316801
-0.220418 -0.451953 0.315694
-0.216856 -0.452286 0.314301
-0.213058 -0.453037 0.312765
-0.209359 -0.453176 0.311836
-0.205499 -0.453411 0.310867
-0.201749 -0.453405 0.309483
-0.198321 -0.453606 0.309131
-0.194893 -0.453846 0.30769
-0.191295 -0.454217 0.306573
-0.1872 -0.4547 0.30536
-0.183532 -0.455034 0.303956
-0.179909 -0.455695 0.302388
-0.176191 -0.455651 0.30148
-0.172653 -0.456433 0.299929
-0.168521 -0.456269 0.299116
-0.16521 -0.457106 0.296781
-0.161643 -0.457492 0.296062
-0.157629 -0.457577 0.295254
-0.153949 -0.457527 0.29399
-0.15036 -0.45848 0.292079
-0.14632 -0.458607 0.291644
-0.142486 -0.458199 0.293059
-0.13877 -0.45779 0.293587
-0.134406 -0.456964 0.296596
-0.130674 -0.456405 0.298954
-0.126166 -0.455331 0.303703
-0.121765 -0.454053 0.308396
-0.117808 -0.453009 0.312507
-0.113958 -0.451666 0.317333
-0.109474 -0.449753 0.323238
-0.105713 -0.448716 0.32771
-0.101563 -0.447822 0.332255
-0.097301 -0.446125 0.337126
-0.0936077 -0.445314 0.340285
-0.0897378 -0.444692 0.342661
-0.0857341 -0.444193 0.344426
-0.0818404 -0.443324 0.347796
-0.0781499 -0.442731 0.350492
-0.0743923 -0.441844 0.352091
-0.0704611 -0.441675 0.354087
-0.0665823 -0.441042 0.356992
-0.0628954 -0.440652 0.357261
-0.0593286 -0.439912 0.359199
-0.0554249 -0.440479 0.359064
-0.0515518 -0.440091 0.359785
-0.0480982 -0.439588 0.360983
-0.0444503 -0.439935 0.36025
-0.0402903 -0.439923 0.360557
-0.0367625 -0.439835 0.360547
-0.0334665 -0.440411 0.359698
-0.0297306 -0.440541 0.35907
-0.0259442 -0.440389 0.358507
-0.0223102 -0.440294 0.358091
-0.0182205 -0.441056 0.357107
-0.0149567 -0.441408 0.355713
-0.0109474 -0.441821 0.354506
-0.00729733 -0.442113 0.353653
-0.00352205 -0.442312 0.350634
-0.000171527 -0.443402 0.349914
0.00399273 -0.443541 0.348205
0.00742319 -0.443932 0.346033
0.0111366 -0.443991 0.345624
0.0145259 -0.444251 0.343931
0.0187227 -0.444802 0.342141
0.0225163 -0.445529 0.341237
0.0262889 -0.445895 0.339692
0.0298158 -0.445986 0.339081
0.0335353 -0.446077 0.336787
0.0376659 -0.446656 0.335094
0.04091 -0.44664 0.335244
0.0452137 -0.447521 0.332484
0.0490362 -0.447338 0.33212
0.0525544 -0.448118 0.329829
0.0563991 -0.448383 0.32905
0.060463 -0.448924 0.327374
0.0641307 -0.449148 0.326597
0.0679417 -0.449182 0.325722
0.0717328 -0.449699 0.324339
0.0759108 -0.450092 0.322959
0.0795248 -0.450371 0.321401
0.0833494 -0.450284 0.321008
0.0867659 -0.450777 0.320322
0.0910417 -0.451814 0.318424
0.0951824 -0.451885 0.316629
0.0987197 -0.451928 0.315297
0.10284 -0.452493 0.313579
0.106628 -0.452674 0.312855
0.110434 -0.453029 0.312201
0.114599 -0.453386 0.310692
0.11778 -0.4535 0.309896
0.12224 -0.454056 0.308611
0.126013 -0.454497 0.307771
0.129635 -0.453914 0.30777
0.134031 -0.454399 0.306704
0.13805 -0.455185 0.304732
0.141634 -0.455334 0.303591
0.145094 -0.454939 0.304248
0.149303 -0.455775 0.303472
0.153125 -0.455148 0.302239
0.156968 -0.455639 0.302375
0.160745 -0.455982 0.301352
0.164833 -0.455262 0.302045
0.16878 -0.456473 0.300151
0.172447 -0.456592 0.299646
0.176608 -0.456646 0.297761
0.180187 -0.456665 0.29826
0.184044 -0.457104 0.297471
0.188148 -0.457323 0.295759
0.192364 -0.457678 0.295449
0.196566 -0.457858 0.293297
0.200183 -0.4582 0.292965
0.203981 -0.458698 0.291124
0.208297 -0.459211 0.289171
0.212841 -0.459662 0.287305
0.216816 -0.460476 0.28483
0.221012 -0.461345 0.280774
0.225121 -0.462392 0.276797
0.230831 -0.465716 0.265649
-0.302528 -0.458478 0.277904
-0.298335 -0.456614 0.284027
-0.293582 -0.455279 0.289966
-0.287767 -0.453515 0.295823
-0.283737 -0.452677 0.299599
-0.279187 -0.451782 0.303226
-0.275042 -0.450602 0.306315
-0.270717 -0.449819 0.309735
-0.266317 -0.449098 0.312081
-0.262488 -0.448703 0.313287
-0.258309 -0.448434 0.315409
-0.253862 -0.447725 0.317012
-0.250538 -0.447663 0.317465
-0.246758 -0.447423 0.318442
-0.242924 -0.447243 0.317868
-0.239128 -0.447474 0.317926
-0.235161 -0.447629 0.318016
-0.231323 -0.448185 0.317036
-0.227698 -0.448526 0.315886
-0.224203 -0.448304 0.316045
-0.220156 -0.44852 0.315702
-0.216806 -0.44869 0.314742
-0.213275 -0.449271 0.312533
-0.209579 -0.449401 0.311515
-0.205713 -0.449177 0.310973
-0.201735 -0.449935 0.309743
-0.198546 -0.450308 0.308772
-0.194475 -0.450792 0.307634
-0.190918 -0.45093 0.305439
-0.187556 -0.451195 0.304224
-0.183182 -0.451451 0.303733
-0.179471 -0.451625 0.303496
-0.176016 -0.451742 0.30194
-0.172351 -0.452071 0.300724
-0.168842 -0.452908 0.298184
-0.164923 -0.453262 0.297786
-0.16141 -0.453386 0.296196
-0.157504 -0.453579 0.295508
-0.153692 -0.454019 0.293307
-0.150651 -0.454332 0.292459
-0.146247 -0.454454 0.292686
-0.142472 -0.454141 0.293202
-0.138479 -0.453863 0.293606
-0.134568 -0.45364 0.295554
-0.130177 -0.452615 0.299829
-0.126505 -0.451368 0.303431
-0.122389 -0.450118 0.308383
-0.117951 -0.449309 0.312336
-0.113765 -0.447554 0.31759
-0.109455 -0.446393 0.323385
-0.105592 -0.444885 0.327865
-0.101587 -0.44364 0.33218
-0.09762 -0.442735 0.335595
-0.0936732 -0.441996 0.33867
-0.089652 -0.4413 0.342742
-0.0860186 -0.440882 0.343774
-0.0823157 -0.440105 0.346267
-0.0781902 -0.439491 0.349122
-0.0743869 -0.438708 0.351607
-0.07044 -0.438042 0.353173
-0.0666187 -0.437635 0.355371
-0.0631173 -0.437167 0.356252
-0.0590283 -0.437072 0.357215
-0.0554865 -0.437046 0.358284
-0.0517418 -0.436996 0.358929
-0.0483949 -0.436524 0.359998
-0.0441065 -0.436266 0.359971
-0.0409833 -0.436102 0.36022
-0.036756 -0.436898 0.359587
-0.0335856 -0.436572 0.35949
-0.0294404 -0.43705 0.358858
-0.026146 -0.436999 0.358672
-0.0219505 -0.437273 0.356782
-0.0185821 -0.437423 0.355837
-0.0147741 -0.43744 0.355876
-0.011572 -0.43815 0.353993
-0.00753024 -0.438035 0.352118
-0.00362158 -0.438782 0.350707
0.0002491 -0.439267 0.349446
0.00394058 -0.439841 0.34753
0.00739866 -0.440429 0.346888
0.0108453 -0.440667 0.344996
0.0148994 -0.440402 0.344035
0.0184907 -0.440841 0.343113
0.0221345 -0.44152 0.341187
0.0264923 -0.441594 0.340053
0.02979 -0.442375 0.338716
0.0334148 -0.442772 0.336853
0.0372774 -0.442698 0.335532
0.0409595 -0.44307 0.334924
0.0448149 -0.443461 0.332935
0.0489905 -0.44414 0.331824
0.0527811 -0.444696 0.33119
0.0564326 -0.444513 0.328622
0.0606178 -0.444922 0.328132
0.064043 -0.445142 0.326121
0.0679116 -0.445424 0.326305
0.0717641 -0.445714 0.32425
0.0756115 -0.44617 0.323131
0.0793476 -0.446816 0.320916
0.0835392 -0.446881 0.320799
0.087053 -0.447611 0.319971
0.091246 -0.447745 0.317692
0.0949709 -0.447852 0.316988
0.0985909 -0.44812 0.316498
0.102714 -0.447881 0.315585
0.106519 -0.448924 0.313537
0.110583 -0.449361 0.312096
0.114244 -0.449499 0.311439
0.117935 -0.449732 0.310332
0.122096 -0.450251 0.308326
0.126061 -0.450116 0.308589
0.129543 -0.450662 0.306508
0.134032 -0.450645 0.306325
0.137789 -0.450782 0.305623
0.141275 -0.451307 0.304961
0.145269 -0.451127 0.304788
0.149373 -0.45114 0.304165
0.153029 -0.451487 0.303421
0.157233 -0.451901 0.302741
0.160667 -0.451678 0.30195
0.164434 -0.452067 0.301481
0.168755 -0.452263 0.301193
0.17247 -0.452389 0.300115
0.176241 -0.452248 0.299829
0.180106 -0.452344 0.299294
0.184178 -0.453385 0.296982
0.188066 -0.453201 0.297173
0.192039 -0.453424 0.29621
0.195769 -0.453859 0.295622
0.199795 -0.453935 0.294451
0.204182 -0.454165 0.293259
0.208395 -0.454783 0.290784
0.212067 -0.454594 0.291084
0.216341 -0.455744 0.287789
0.220775 -0.456906 0.284012
0.224792 -0.456944 0.282049
0.229126 -0.458427 0.277931
0.233819 -0.459262 0.272848
0.239389 -0.46243 0.261389
-0.310094 -0.45877 0.260123
-0.303446 -0.454959 0.275484
-0.298039 -0.452642 0.283711
-0.293085 -0.451458 0.289979
-0.288431 -0.450254 0.295366
-0.28378 -0.448961 0.299174
-0.279533 -0.448112 0.302094
-0.274849 -0.447005 0.306189
-0.271225 -0.446393 0.308685
-0.266572 -0.445482 0.311343
-0.262585 -0.445318 0.313388
-0.258907 -0.444477 0.314888
-0.254316 -0.444332 0.31628
-0.250539 -0.443907 0.317587
-0.246793 -0.443967 0.317838
-0.242831 -0.443892 0.318446
-0.238768 -0.443431 0.317709
-0.235275 -0.444052 0.317278
-0.231672 -0.44394 0.317124
-0.227838 -0.443987 0.317722
-0.223892 -0.444251 0.316352
-0.220364 -0.444846 0.31537
-0.216918 -0.445064 0.313622
-0.21316 -0.445206 0.31228
-0.209327 -0.44556 0.311942
-0.205795 -0.445594 0.310729
-0.202088 -0.446445 0.309009
-0.198251 -0.446515 0.30817
-0.194667 -0.446619 0.307447
-0.19144 -0.446946 0.305529
-0.187531 -0.447118 0.304768
-0.18348 -0.447683 0.303218
-0.179718 -0.447798 0.302865
-0.176389 -0.448023 0.301733
-0.172481 -0.448728 0.300002
-0.168598 -0.44915 0.298902
-0.165266 -0.448795 0.298289
-0.16143 -0.449579 0.296285
-0.157909 -0.449483 0.295252
-0.153544 -0.450198 0.294345
-0.150388 -0.450745 0.292883
-0.146641 -0.450766 0.292667
-0.142396 -0.450569 0.293086
-0.138324 -0.449992 0.294292
-0.134158 -0.448676 0.297819
-0.130219 -0.4484 0.300263
-0.12615 -0.44774 0.303971
-0.122311 -0.446518 0.307417
-0.117922 -0.445285 0.313261
-0.113689 -0.443931 0.317754
-0.109467 -0.442639 0.322756
-0.10578 -0.441813 0.326375
-0.101755 -0.440445 0.331347
-0.0978606 -0.43926 0.335818
-0.0933972 -0.438335 0.338806
-0.0897601 -0.437486 0.34063
-0.0861698 -0.436879 0.343251
-0.0819411 -0.436678 0.345923
-0.0785453 -0.435913 0.34802
-0.0744015 -0.435206 0.350372
-0.0709408 -0.434647 0.352838
-0.0669311 -0.434279 0.35424
-0.0631222 -0.434223 0.354846
-0.0592418 -0.433279 0.357283
-0.0552802 -0.433111 0.358284
-0.0518063 -0.433212 0.358695
-0.0481835 -0.433067 0.358704
-0.044672 -0.43281 0.359112
-0.0410702 -0.432946 0.360021
-0.0369095 -0.433004 0.359597
-0.0333372 -0.433075 0.359566
-0.0296637 -0.433084 0.359158
-0.025922 -0.433423 0.357556
-0.0223314 -0.433178 0.357869
-0.0183761 -0.433597 0.356279
-0.0147681 -0.433739 0.355993
-0.0114214 -0.434646 0.353387
-0.00744925 -0.434926 0.351087
-0.00380113 -0.435205 0.35009
0.000199925 -0.43526 0.349317
0.00353777 -0.435368 0.348437
0.00746834 -0.436456 0.346774
0.0112297 -0.436807 0.345229
0.015108 -0.437199 0.343812
0.0183353 -0.437184 0.342629
0.0224542 -0.437554 0.340897
0.026184 -0.438356 0.339526
0.0304521 -0.438733 0.337376
0.0336527 -0.439007 0.336891
0.0376481 -0.439656 0.335467
0.0413618 -0.439852 0.334086
0.0452356 -0.439782 0.33241
0.0487931 -0.440551 0.330562
0.0526744 -0.440638 0.330702
0.0566425 -0.440953 0.328473
0.0604732 -0.441399 0.327777
0.0642482 -0.441634 0.326482
0.068102 -0.441838 0.32592
0.0715243 -0.442145 0.324264
0.0754778 -0.442604 0.323331
0.0794058 -0.442756 0.321699
0.0835693 -0.44305 0.320894
0.086925 -0.443539 0.319444
0.0910034 -0.443629 0.318898
0.0950157 -0.444512 0.316784
0.0987917 -0.444561 0.315692
0.102341 -0.444416 0.315033
0.106226 -0.444701 0.314373
0.110534 -0.445574 0.311967
0.114233 -0.445732 0.311599
0.11801 -0.445765 0.310572
0.121982 -0.446107 0.310079
0.125847 -0.446445 0.308463
0.129619 -0.446871 0.307373
0.133482 -0.446886 0.306892
0.137399 -0.447083 0.3058
0.14136 -0.447029 0.305355
0.145239 -0.447394 0.30489
0.149125 -0.447368 0.304852
0.153265 -0.447723 0.302633
0.157632 -0.447815 0.302249
0.160755 -0.447833 0.302921
0.16459 -0.448151 0.302107
0.168348 -0.448007 0.301841
0.1724 -0.448747 0.300745
0.17638 -0.448595 0.299973
0.179839 -0.448753 0.299353
0.18408 -0.448508 0.299377
0.188045 -0.449395 0.297873
0.192254 -0.449537 0.296628
0.196109 -0.449831 0.296167
0.200033 -0.44968 0.295799
0.204052 -0.450261 0.294399
0.207927 -0.45046 0.292845
0.212407 -0.450827 0.290937
0.216053 -0.451253 0.289415
0.219947 -0.451436 0.288532
0.224341 -0.45248 0.285058
0.228615 -0.453209 0.282806
0.233157 -0.454386 0.278107
0.237616 -0.455773 0.273003
0.242615 -0.457484 0.265926
-0.309926 -0.455398 0.261026
-0.303483 -0.451603 0.274661
-0.298516 -0.449486 0.282278
-0.293495 -0.447895 0.288632
-0.288292 -0.446392 0.293743
-0.283717 -0.444991 0.297799
-0.279615 -0.444325 0.301422
-0.275239 -0.443428 0.304528
-0.270845 -0.442625 0.307705
-0.266969 -0.442054 0.309941
-0.262501 -0.441146 0.313111
-0.258461 -0.440563 0.314634
-0.254487 -0.440464 0.315029
-0.250741 -0.440523 0.315953
-0.246629 -0.440026 0.317463
-0.242608 -0.440023 0.317048
-0.238549 -0.440277 0.317513
-0.235255 -0.440231 0.318042
-0.231489 -0.440376 0.317105
-0.228057 -0.440746 0.315816
-0.224429 -0.441073 0.314928
-0.220583 -0.440866 0.314168
-0.217182 -0.441635 0.313219
-0.212877 -0.441707 0.312107
-0.209148 -0.441672 0.312327
-0.205928 -0.442082 0.309669
-0.202277 -0.442642 0.308401
-0.198874 -0.442551 0.308027
-0.194435 -0.443142 0.30603
-0.190857 -0.443608 0.304208
-0.18712 -0.443786 0.30473
-0.183316 -0.443973 0.303275
-0.179834 -0.443881 0.302026
-0.176396 -0.444637 0.300342
-0.172872 -0.444898 0.299371
-0.168549 -0.445207 0.29865
-0.165558 -0.445464 0.296025
-0.161698 -0.446121 0.29464
-0.157752 -0.446188 0.293801
-0.153691 -0.446644 0.292915
-0.149656 -0.446559 0.293292
-0.14622 -0.446478 0.29231
-0.142617 -0.446669 0.292923
-0.138147 -0.446508 0.294411
-0.134479 -0.445634 0.296695
-0.130488 -0.445051 0.298949
-0.126564 -0.443833 0.302746
-0.122263 -0.442934 0.307248
-0.117992 -0.441439 0.311483
-0.114047 -0.440429 0.31645
-0.109923 -0.439183 0.321023
-0.105426 -0.437481 0.327378
-0.102009 -0.437161 0.330032
-0.0976009 -0.435675 0.334392
-0.0936784 -0.435309 0.337618
-0.089654 -0.434268 0.340162
-0.0860866 -0.433907 0.342085
-0.0822485 -0.432897 0.345823
-0.0783199 -0.432477 0.347
-0.0741458 -0.431872 0.349638
-0.0705291 -0.431979 0.350007
-0.0665749 -0.430688 0.352813
-0.0631642 -0.430549 0.354207
-0.0592835 -0.430394 0.355001
-0.0554395 -0.429551 0.356816
-0.0517283 -0.429504 0.357787
-0.047903 -0.429458 0.358051
-0.044524 -0.429337 0.358217
-0.0406816 -0.429394 0.358664
-0.0369077 -0.429227 0.359062
-0.0334027 -0.429318 0.358788
-0.0296343 -0.429358 0.358833
-0.0261074 -0.429763 0.35788
-0.0220218 -0.429979 0.35732
-0.0181133 -0.430215 0.355396
-0.0145265 -0.430677 0.35399
-0.0112689 -0.430323 0.354251
-0.00737558 -0.431077 0.352482
-0.00359267 -0.431625 0.349988
0.000191586 -0.432085 0.348263
0.00377365 -0.432244 0.347395
0.00786037 -0.432535 0.346268
0.0112579 -0.432758 0.345045
0.0150394 -0.433204 0.343425
0.0189483 -0.433477 0.342306
0.0226861 -0.434022 0.341108
0.0261485 -0.434504 0.339417
0.0298945 -0.434946 0.338448
0.0340352 -0.435003 0.33652
0.0380222 -0.435817 0.334597
0.0412545 -0.435722 0.334877
0.0455033 -0.436253 0.332354
0.0489016 -0.436436 0.331207
0.052507 -0.436524 0.330449
0.0562181 -0.436948 0.328674
0.0604718 -0.43782 0.327786
0.064363 -0.437857 0.325624
0.0682879 -0.438141 0.325611
0.0716697 -0.438222 0.324465
0.0758604 -0.438724 0.323254
0.0793969 -0.439039 0.321591
0.0834798 -0.439455 0.320347
0.0872068 -0.439662 0.319102
0.0909108 -0.439932 0.318494
0.0952949 -0.440247 0.3169
0.0989172 -0.440737 0.315344
0.102487 -0.440549 0.315586
0.106562 -0.44109 0.31375
0.110336 -0.441548 0.312194
0.113953 -0.442279 0.310521
0.118069 -0.441727 0.311006
0.122177 -0.442021 0.309128
0.125987 -0.442307 0.309002
0.129787 -0.443165 0.30688
0.133962 -0.443501 0.306336
0.137691 -0.443244 0.30562
0.141425 -0.443354 0.305712
0.145113 -0.443541 0.304747
0.149527 -0.443523 0.304167
0.153115 -0.443655 0.304119
0.156807 -0.443858 0.303018
0.160632 -0.444373 0.302247
0.164299 -0.443844 0.302274
0.168053 -0.444537 0.301567
0.172337 -0.444336 0.300766
0.17675 -0.444456 0.299442
0.180559 -0.44496 0.299504
0.184129 -0.445003 0.299572
0.188056 -0.445271 0.298313
0.191645 -0.445084 0.297252
0.195828 -0.445612 0.296464
0.19997 -0.445849 0.295868
0.203722 -0.446202 0.294801
0.208378 -0.44695 0.292741
0.212132 -0.446817 0.292034
0.215863 -0.447157 0.291306
0.219981 -0.447757 0.289158
0.223915 -0.448202 0.287419
0.22824 -0.448779 0.284814
0.232179 -0.449364 0.282179
0.237313 -0.450698 0.277421
0.241462 -0.451651 0.273336
0.246254 -0.453457 0.265478
-0.31003 -0.451748 0.258769
-0.303984 -0.447863 0.271527
-0.298516 -0.445852 0.280675
-0.293482 -0.444111 0.287359
-0.288558 -0.442604 0.292822
-0.284096 -0.441497 0.296717
-0.279446 -0.440444 0.300787
-0.27514 -0.439702 0.30412
-0.270837 -0.4386 0.307365
-0.267068 -0.438594 0.30866
-0.262939 -0.437968 0.31138
-0.258104 -0.437331 0.31368
-0.254663 -0.437189 0.314597
-0.250865 -0.437268 0.31474
-0.246823 -0.436718 0.315562
-0.242879 -0.436648 0.315866
-0.239298 -0.436773 0.316201
-0.235512 -0.436599 0.316249
-0.231672 -0.436608 0.316582
-0.228073 -0.436803 0.315216
-0.224129 -0.437298 0.314369
-0.220704 -0.437503 0.313736
-0.216683 -0.437785 0.312992
-0.213475 -0.437816 0.311559
-0.209425 -0.438358 0.310574
-0.206238 -0.438654 0.308606
-0.20173 -0.439114 0.3078
-0.19864 -0.439219 0.306097
-0.194751 -0.439156 0.306175
-0.191463 -0.439968 0.304285
-0.187484 -0.440195 0.302991
-0.183811 -0.4404 0.301986
-0.180152 -0.440573 0.301486
-0.176713 -0.440802 0.300025
-0.172343 -0.440864 0.298933
-0.169116 -0.441252 0.297454
-0.16532 -0.441863 0.296438
-0.161282 -0.44167 0.295523
-0.158041 -0.442565 0.294234
-0.154156 -0.442504 0.293742
-0.150195 -0.443095 0.292089
-0.146426 -0.44308 0.291534
-0.142558 -0.442856 0.291838
-0.138157 -0.44253 0.293145
-0.13483 -0.44219 0.295949
-0.130842 -0.441253 0.298468
-0.126571 -0.440149 0.302095
-0.121907 -0.438901 0.30709
-0.11821 -0.438061 0.310922
-0.114015 -0.436968 0.315282
-0.109906 -0.435795 0.320117
-0.105633 -0.434205 0.325156
-0.101702 -0.433357 0.330122
-0.0978183 -0.432161 0.333564
-0.093595 -0.431453 0.33693
-0.0897891 -0.431164 0.338692
-0.0858239 -0.430002 0.342479
-0.0823108 -0.429574 0.343549
-0.0783599 -0.428661 0.345931
-0.0747016 -0.428703 0.346868
-0.0707029 -0.428035 0.349578
-0.0670044 -0.427963 0.35096
-0.0633601 -0.427694 0.352853
-0.0594149 -0.426612 0.353817
-0.0555013 -0.426505 0.35502
-0.0521778 -0.426796 0.355929
-0.0481636 -0.426167 0.356999
-0.0444795 -0.42626 0.356056
-0.0405643 -0.42593 0.35797
-0.036999 -0.425621 0.358186
-0.0335772 -0.425804 0.357768
-0.0295456 -0.426273 0.357283
-0.0257737 -0.426405 0.356625
-0.0221966 -0.426027 0.356226
-0.0185592 -0.426618 0.355504
-0.0150501 -0.4268 0.354537
-0.0108576 -0.427378 0.352179
-0.00736823 -0.427578 0.351624
-0.00361979 -0.428247 0.349817
-0.000178591 -0.42856 0.34826
0.0039873 -0.428311 0.347193
0.00716011 -0.428629 0.346547
0.0112306 -0.429587 0.344334
0.0146456 -0.429593 0.343472
0.0186802 -0.43017 0.341474
0.0224988 -0.430518 0.339767
0.026183 -0.430592 0.33958
0.0301864 -0.430848 0.338002
0.0335209 -0.4312 0.337391
0.0374551 -0.432204 0.334509
0.0411806 -0.432226 0.333529
0.0451254 -0.43268 0.332303
0.0489251 -0.433148 0.331081
0.0526416 -0.432803 0.33019
0.0566571 -0.433479 0.327894
0.0604711 -0.433682 0.327851
0.0642376 -0.434038 0.326519
0.0675045 -0.434386 0.324297
0.0717498 -0.434575 0.324445
0.0757383 -0.435022 0.322086
0.0796101 -0.435282 0.321506
0.0830232 -0.435901 0.319854
0.0866509 -0.435791 0.318544
0.0905738 -0.435993 0.318624
0.0950684 -0.436653 0.31626
0.0988775 -0.437049 0.315232
0.102921 -0.437316 0.313815
0.106295 -0.437671 0.312959
0.110008 -0.43803 0.311659
0.114287 -0.43815 0.31113
0.118188 -0.437741 0.310598
0.122345 -0.438986 0.30795
0.125848 -0.43862 0.309044
0.129771 -0.439238 0.306826
0.133691 -0.43947 0.306498
0.137163 -0.439089 0.30597
0.141573 -0.439786 0.304865
0.14509 -0.439199 0.305477
0.149246 -0.43986 0.30334
0.15291 -0.439992 0.303815
0.157143 -0.44015 0.303303
0.161052 -0.440258 0.302257
0.164634 -0.440384 0.302707
0.168809 -0.440826 0.301185
0.17185 -0.440667 0.300732
0.176511 -0.440566 0.299997
0.180409 -0.44127 0.299107
0.184204 -0.4411 0.298697
0.188208 -0.441621 0.298085
0.19181 -0.441385 0.297955
0.195983 -0.441739 0.296358
0.200041 -0.441971 0.295677
0.20359 -0.442274 0.295057
0.207643 -0.442176 0.294191
0.211786 -0.442784 0.29359
0.215578 -0.443246 0.292088
0.219839 -0.443426 0.290034
0.223435 -0.443332 0.289264
0.227747 -0.444376 0.28648
0.232297 -0.445166 0.283384
0.236047 -0.445682 0.281405
0.240713 -0.447187 0.276898
0.245618 -0.448303 0.271588
0.250744 -0.450705 0.263148
-0.310473 -0.448316 0.255709
-0.304493 -0.445164 0.269587
-0.29903 -0.442689 0.2776
-0.293647 -0.440936 0.285539
-0.2888 -0.43938 0.291223
-0.285096 -0.438685 0.293766
-0.279979 -0.43766 0.298789
-0.275823 -0.436133 0.30214
-0.271224 -0.436093 0.305232
-0.267486 -0.435081 0.307108
-0.262819 -0.434406 0.310672
-0.259074 -0.434311 0.311428
-0.254825 -0.433304 0.313613
-0.250904 -0.433422 0.314111
-0.246413 -0.433153 0.315104
-0.242934 -0.432941 0.315459
-0.239488 -0.432869 0.315219
-0.235835 -0.433081 0.314738
-0.232131 -0.433317 0.314216
-0.228235 -0.433432 0.313992
-0.224305 -0.433603 0.312958
-0.220583 -0.43453 0.311757
-0.217049 -0.434039 0.31182
-0.213321 -0.434635 0.309985
-0.209641 -0.434711 0.307915
-0.206107 -0.435015 0.307815
-0.202329 -0.435023 0.307567
-0.198749 -0.436218 0.305293
-0.195509 -0.435874 0.304153
-0.191306 -0.436334 0.302034
-0.187648 -0.436467 0.302487
-0.183922 -0.437001 0.300858
-0.18024 -0.43726 0.299101
-0.176485 -0.437025 0.298558
-0.172659 -0.437629 0.298158
-0.168979 -0.437578 0.295853
-0.165393 -0.438119 0.29579
-0.161398 -0.438581 0.293823
-0.157646 -0.438816 0.292755
-0.154251 -0.439102 0.291896
-0.150231 -0.439218 0.291428
-0.146363 -0.439361 0.290888
-0.142664 -0.439333 0.29123
-0.138689 -0.43909 0.292465
-0.13444 -0.438445 0.294312
-0.130572 -0.437025 0.298173
-0.12678 -0.436415 0.301386
-0.122331 -0.435941 0.305715
-0.118565 -0.434642 0.309518
-0.113959 -0.433548 0.314047
-0.110273 -0.431952 0.31821
-0.105883 -0.431019 0.32341
-0.101605 -0.42991 0.32741
-0.0975561 -0.428811 0.331731
-0.0939394 -0.427985 0.334206
-0.0901896 -0.427625 0.336694
-0.0864144 -0.427298 0.338817
-0.0826245 -0.426401 0.340732
-0.0782642 -0.425826 0.343529
-0.0747027 -0.425694 0.34567
-0.0707073 -0.425006 0.347014
-0.0668905 -0.424651 0.348894
-0.0634062 -0.424505 0.349818
-0.0594582 -0.424124 0.351897
-0.0560121 -0.423209 0.353454
-0.0522013 -0.423389 0.354207
-0.0484157 -0.422775 0.355573
-0.04431 -0.422865 0.355757
-0.0406422 -0.422091 0.357162
-0.0369037 -0.422524 0.356642
-0.0334025 -0.421916 0.357105
-0.0297285 -0.422524 0.35686
-0.0261849 -0.422278 0.357241
-0.022213 -0.422744 0.355664
-0.0186077 -0.422814 0.354255
-0.0148318 -0.423879 0.35295
-0.0113326 -0.423491 0.352178
-0.00733657 -0.424349 0.350965
-0.00364551 -0.424297 0.349486
-0.000381008 -0.424651 0.348256
0.00367419 -0.424818 0.347116
0.00736255 -0.42523 0.345791
0.0111027 -0.426114 0.343751
0.0152067 -0.425807 0.343616
0.0187175 -0.426539 0.340811
0.0227739 -0.426741 0.340456
0.026176 -0.427331 0.337889
0.0303741 -0.427555 0.337035
0.0338029 -0.427721 0.336663
0.0373861 -0.428243 0.334277
0.0413518 -0.428402 0.332786
0.0451472 -0.429076 0.3314
0.0489009 -0.429213 0.33032
0.0529767 -0.429892 0.328962
0.056329 -0.430062 0.328746
0.0600448 -0.429981 0.327331
0.0644031 -0.430531 0.325411
0.0677897 -0.430563 0.325245
0.0719022 -0.430657 0.323667
0.0754879 -0.430935 0.323107
0.0797019 -0.431446 0.321156
0.0832538 -0.431831 0.320237
0.0873639 -0.43235 0.319414
0.0912352 -0.432627 0.317128
0.094566 -0.432805 0.31675
0.0990298 -0.433373 0.314904
0.102841 -0.433639 0.313586
0.106158 -0.43351 0.312502
0.110554 -0.43429 0.311562
0.113886 -0.434004 0.311612
0.118012 -0.434148 0.31031
0.121832 -0.43433 0.309744
0.125862 -0.434922 0.308187
0.129755 -0.43512 0.306684
0.133605 -0.435628 0.306337
0.137561 -0.435634 0.305958
0.141696 -0.435586 0.305115
0.145143 -0.436149 0.304462
0.149493 -0.435892 0.303518
0.153228 -0.436428 0.303223
0.156952 -0.436072 0.303307
0.160829 -0.436002 0.30278
0.164303 -0.43633 0.302819
0.168754 -0.436427 0.30132
0.172343 -0.436693 0.30122
0.175904 -0.436839 0.300596
0.180487 -0.436857 0.299867
0.18355 -0.437264 0.299799
0.187727 -0.437321 0.299093
0.191859 -0.437666 0.298015
0.195866 -0.437872 0.296973
0.19981 -0.437964 0.296484
0.203653 -0.437885 0.296307
0.207394 -0.438472 0.294365
0.211756 -0.438623 0.293942
0.215677 -0.438653 0.292545
0.219689 -0.439413 0.290983
0.223715 -0.439733 0.289743
0.228019 -0.440578 0.286804
0.232768 -0.441377 0.284541
0.23635 -0.441918 0.281883
0.240125 -0.442433 0.279885
0.245434 -0.443455 0.274458
0.249736 -0.444518 0.270328
0.254902 -0.446734 0.261319
-0.30522 -0.442381 0.265368
-0.300173 -0.439931 0.273809
-0.294408 -0.437654 0.282348
-0.289791 -0.436486 0.286987
-0.28506 -0.435031 0.292796
-0.280411 -0.434382 0.296443
-0.276569 -0.433423 0.299348
-0.271652 -0.432435 0.30389
-0.267583 -0.431788 0.305701
-0.26336 -0.431174 0.307137
-0.259409 -0.430348 0.309861
-0.254823 -0.42979 0.311552
-0.251423 -0.430394 0.312451
-0.247163 -0.430109 0.312848
-0.243132 -0.429387 0.314006
-0.239306 -0.429776 0.313452
-0.235918 -0.429446 0.313762
-0.232076 -0.429506 0.31362
-0.2281 -0.430203 0.312289
-0.22474 -0.430241 0.312015
-0.220743 -0.430411 0.310723
-0.216945 -0.430455 0.310699
-0.213561 -0.430762 0.30957
-0.209807 -0.431475 0.306905
-0.206099 -0.431803 0.306602
-0.202412 -0.431922 0.304855
-0.198825 -0.432119 0.303474
-0.195335 -0.43277 0.30213
-0.191408 -0.43294 0.300789
-0.187912 -0.432796 0.300165
-0.184019 -0.433302 0.299401
-0.180641 -0.433677 0.298877
-0.176355 -0.433631 0.298124
-0.172623 -0.433805 0.297577
-0.16919 -0.434746 0.295435
-0.165489 -0.434773 0.294212
-0.161333 -0.435042 0.293427
-0.157953 -0.435494 0.291872
-0.154037 -0.435238 0.291737
-0.150595 -0.435833 0.290116
-0.146429 -0.436158 0.289655
-0.14303 -0.43571 0.290005
-0.138942 -0.435295 0.291269
-0.134282 -0.435214 0.293393
-0.130762 -0.434569 0.295691
-0.126803 -0.433422 0.298425
-0.122622 -0.432412 0.303618
-0.118218 -0.431143 0.308992
-0.114194 -0.430226 0.31208
-0.109999 -0.428855 0.316072
-0.10566 -0.427843 0.321545
-0.102267 -0.426662 0.325737
-0.0978905 -0.425947 0.329196
-0.0941879 -0.424947 0.332028
-0.0901347 -0.424287 0.334871
-0.0859765 -0.424171 0.338004
-0.0823646 -0.423409 0.339907
-0.0788616 -0.422515 0.340727
-0.0744947 -0.422139 0.342954
-0.0708913 -0.421735 0.344866
-0.0669635 -0.421424 0.346315
-0.0634195 -0.420811 0.348474
-0.0593938 -0.420678 0.350338
-0.0557004 -0.419933 0.351798
-0.0519186 -0.419974 0.353017
-0.0485176 -0.419266 0.353654
-0.0444938 -0.419284 0.354264
-0.0406346 -0.419312 0.355012
-0.0371059 -0.419396 0.354964
-0.0334315 -0.41925 0.355562
-0.0297121 -0.419167 0.356631
-0.0261308 -0.419411 0.355418
-0.0221493 -0.419344 0.354817
-0.0185491 -0.419743 0.352416
-0.0147656 -0.420367 0.351594
-0.0114198 -0.420442 0.351779
-0.00769998 -0.419867 0.350853
-0.00379952 -0.420566 0.349077
2.36336e-06 -0.420846 0.347893
0.0033605 -0.421609 0.346242
0.00748782 -0.421596 0.345431
0.0111914 -0.422021 0.342941
0.0147486 -0.422673 0.341155
0.0189864 -0.423101 0.340407
0.0224175 -0.423026 0.3389
0.0261827 -0.423766 0.337602
0.0300684 -0.423674 0.33655
0.0336859 -0.424408 0.335057
0.0376068 -0.424328 0.334035
0.0415758 -0.425 0.332354
0.0452733 -0.425015 0.331788
0.0493677 -0.425235 0.331144
0.0531849 -0.425853 0.328179
0.0567933 -0.425619 0.328727
0.060403 -0.426935 0.326375
0.0643806 -0.426877 0.325097
0.0678796 -0.427419 0.323489
0.0717273 -0.427344 0.322515
0.0757678 -0.427483 0.322513
0.0794066 -0.427655 0.321415
0.0832785 -0.428443 0.31971
0.0871044 -0.428384 0.318832
0.0911391 -0.428921 0.317177
0.0948803 -0.42917 0.315861
0.0992623 -0.429589 0.313756
0.102863 -0.429901 0.314106
0.106816 -0.430044 0.312128
0.110852 -0.430218 0.311406
0.113848 -0.430147 0.310878
0.118062 -0.430808 0.309349
0.12219 -0.430923 0.308772
0.125499 -0.430718 0.308617
0.130111 -0.431495 0.306937
0.133592 -0.431386 0.307602
0.137557 -0.431728 0.306062
0.141129 -0.431982 0.305139
0.14529 -0.431753 0.305037
0.148927 -0.432061 0.305072
0.153038 -0.432591 0.304187
0.156869 -0.432445 0.302936
0.160676 -0.433037 0.302569
0.164952 -0.432391 0.301892
0.168402 -0.432806 0.301958
0.172302 -0.433061 0.301237
0.176406 -0.433277 0.300233
0.18032 -0.433497 0.299584
0.184056 -0.433776 0.298329
0.18776 -0.433398 0.298778
0.192194 -0.433401 0.297814
0.195861 -0.433988 0.29739
0.199777 -0.434073 0.296952
0.203538 -0.434399 0.295458
0.207247 -0.434686 0.295247
0.211389 -0.43475 0.293878
0.215257 -0.435076 0.292675
0.219442 -0.43529 0.291222
0.223712 -0.435878 0.290462
0.228097 -0.436127 0.288793
0.232083 -0.436867 0.28605
0.235942 -0.437196 0.283649
0.240557 -0.438737 0.280235
0.24434 -0.438777 0.278371
0.248999 -0.439653 0.274359
0.254018 -0.441434 0.267585
0.259178 -0.444108 0.25729
-0.305464 -0.439098 0.261888
-0.299958 -0.436371 0.271614
-0.294647 -0.43438 0.27978
-0.289914 -0.432937 0.286152
-0.285026 -0.431791 0.29092
-0.280467 -0.430398 0.295518
-0.27624 -0.429777 0.299101
-0.272271 -0.428844 0.300387
-0.26779 -0.428722 0.303941
-0.263391 -0.427619 0.306758
-0.259117 -0.427321 0.308201
-0.255406 -0.427093 0.309456
-0.25152 -0.426344 0.310624
-0.247546 -0.426213 0.311931
-0.243498 -0.426368 0.312265
-0.239449 -0.426476 0.311945
-0.236075 -0.426322 0.311622
-0.231938 -0.426697 0.312413
-0.228647 -0.426331 0.311622
-0.224902 -0.426701 0.31032
-0.221263 -0.426868 0.309729
-0.217611 -0.427268 0.308021
-0.213737 -0.427772 0.306974
-0.210294 -0.427663 0.305306
-0.206663 -0.428126 0.305017
-0.202581 -0.428418 0.303918
-0.198988 -0.428793 0.302726
-0.194999 -0.428592 0.302199
-0.192193 -0.42966 0.299259
-0.188141 -0.429365 0.299395
-0.184297 -0.4298 0.299306
-0.1808 -0.429839 0.297722
-0.177112 -0.430207 0.296496
-0.173211 -0.430378 0.295803
-0.169261 -0.430891 0.294626
-0.165775 -0.431191 0.293318
-0.161663 -0.43113 0.292187
-0.157981 -0.431593 0.291367
-0.154279 -0.431833 0.290191
-0.1503 -0.431957 0.289967
-0.146732 -0.432038 0.289431
-0.142579 -0.43145 0.289942
-0.139072 -0.431734 0.290542
-0.134868 -0.431184 0.292337
-0.130882 -0.43117 0.29391
-0.126584 -0.429747 0.297813
-0.122525 -0.428345 0.302002
-0.118325 -0.427725 0.306684
-0.114449 -0.426395 0.310544
-0.110145 -0.425718 0.314219
-0.106139 -0.424401 0.31909
-0.10215 -0.423907 0.322811
-0.098461 -0.422667 0.32645
-0.0939871 -0.421666 0.330224
-0.0904972 -0.421059 0.332918
-0.0863277 -0.420433 0.33497
-0.082979 -0.419858 0.337296
-0.0787619 -0.419918 0.339011
-0.0747195 -0.4189 0.341725
-0.0707002 -0.418369 0.343227
-0.0671593 -0.417841 0.345025
-0.0632355 -0.417726 0.34614
-0.0595518 -0.417444 0.348562
-0.05591 -0.416941 0.349654
-0.052155 -0.416434 0.350235
-0.0483198 -0.416558 0.351027
-0.0444895 -0.416492 0.351868
-0.0408258 -0.415889 0.353772
-0.037253 -0.415745 0.354427
-0.033363 -0.415685 0.354359
-0.0295521 -0.415696 0.353158
-0.0259349 -0.415911 0.353572
-0.0223214 -0.416011 0.353609
-0.0187448 -0.415833 0.352078
-0.0147576 -0.416676 0.351063
-0.0116683 -0.416354 0.350317
-0.00767707 -0.417323 0.348634
-0.00366157 -0.417046 0.348008
-0.000317147 -0.417668 0.346536
0.00375682 -0.418312 0.344478
0.00729258 -0.41804 0.34462
0.0114982 -0.418656 0.342604
0.0149246 -0.419315 0.340556
0.0186453 -0.41923 0.34076
0.0225018 -0.419519 0.338597
0.0258569 -0.419848 0.337193
0.0300227 -0.420163 0.336339
0.0338232 -0.420728 0.334635
0.0377068 -0.421002 0.333301
0.0414153 -0.42162 0.3315
0.0451033 -0.421991 0.330545
0.0491633 -0.422124 0.329019
0.0527795 -0.42196 0.328172
0.0568074 -0.422425 0.327067
0.060451 -0.423044 0.325336
0.0640732 -0.42336 0.324824
0.0679079 -0.42372 0.323619
0.0717908 -0.42391 0.322745
0.0754308 -0.423864 0.321589
0.0795597 -0.424183 0.320532
0.083456 -0.424738 0.318663
0.0870849 -0.424875 0.318077
0.0913458 -0.425289 0.316156
0.0950575 -0.425404 0.315297
0.0987683 -0.426039 0.313973
0.102689 -0.425863 0.313904
0.106424 -0.426309 0.312569
0.110139 -0.426641 0.311643
0.114126 -0.426707 0.310643
0.118052 -0.427117 0.309365
0.122211 -0.427395 0.309094
0.125506 -0.427369 0.308597
0.129445 -0.427119 0.307731
0.134076 -0.427549 0.306871
0.137309 -0.427738 0.306712
0.141165 -0.42803 0.305509
0.145796 -0.428127 0.305035
0.149239 -0.428341 0.304426
0.152647 -0.428433 0.304366
0.15697 -0.428243 0.303608
0.16088 -0.42825 0.303087
0.164559 -0.428658 0.303189
0.168337 -0.428315 0.302356
0.172409 -0.428819 0.301225
0.176318 -0.429473 0.300389
0.180383 -0.429557 0.299847
0.184098 -0.429297 0.299597
0.188068 -0.43007 0.298548
0.191739 -0.429751 0.29863
0.195543 -0.429902 0.297893
0.200176 -0.430323 0.295474
0.203754 -0.430111 0.295972
0.207752 -0.430939 0.294878
0.211773 -0.43075 0.294952
0.215272 -0.43091 0.293344
0.219695 -0.43168 0.290958
0.22396 -0.431815 0.29088
0.228044 -0.432288 0.288546
0.23204 -0.432655 0.286737
0.236331 -0.433689 0.284074
0.240682 -0.434246 0.281444
0.24441 -0.434569 0.278909
0.248988 -0.435562 0.274953
0.253131 -0.436488 0.271227
0.259281 -0.438798 0.262241
0.264531 -0.44174 0.250117
0.279699 -0.460915 0.17572
0.286389 -0.464154 0.161524
0.291684 -0.466599 0.151873
-0.307237 -0.436982 0.254192
-0.301307 -0.433979 0.266547
-0.295386 -0.431789 0.276842
-0.290095 -0.429331 0.284244
-0.285501 -0.428521 0.288555
-0.281156 -0.427288 0.292616
-0.276316 -0.426621 0.29693
-0.272492 -0.425801 0.299164
-0.267904 -0.425197 0.301934
-0.264005 -0.424658 0.304221
-0.260119 -0.423789 0.306386
-0.25526 -0.423188 0.308672
-0.251631 -0.423492 0.30895
-0.247958 -0.423036 0.310351
-0.243719 -0.423424 0.310337
-0.240198 -0.422503 0.310367
-0.236264 -0.42307 0.310109
-0.232607 -0.423121 0.309784
-0.229038 -0.423086 0.308651
-0.224617 -0.423034 0.308505
-0.221255 -0.423804 0.306782
-0.217384 -0.423964 0.306826
-0.213433 -0.424212 0.306202
-0.210274 -0.424392 0.304333
-0.206518 -0.424764 0.303505
-0.203165 -0.424892 0.301915
-0.199609 -0.425314 0.301164
-0.195496 -0.425437 0.300349
-0.191669 -0.425576 0.298947
-0.187971 -0.426048 0.298365
-0.184397 -0.426389 0.296857
-0.1804 -0.426344 0.296669
-0.176839 -0.427074 0.295468
-0.173332 -0.427328 0.293639
-0.169619 -0.427292 0.293003
-0.16594 -0.427286 0.293259
-0.161793 -0.427767 0.290618
-0.157968 -0.428051 0.290206
-0.154658 -0.428155 0.288824
-0.15045 -0.428116 0.2894
-0.146488 -0.428774 0.288426
-0.14274 -0.42818 0.288038
-0.138967 -0.428434 0.288939
-0.134829 -0.428254 0.29063
-0.130644 -0.427434 0.293323
-0.126846 -0.426454 0.296059
-0.122452 -0.425568 0.299873
-0.118631 -0.424792 0.303668
-0.11438 -0.423624 0.307636
-0.110223 -0.422486 0.311745
-0.106411 -0.421648 0.315962
-0.102106 -0.420404 0.320245
-0.0980722 -0.419181 0.325304
-0.0946949 -0.41866 0.327019
-0.090642 -0.41806 0.330034
-0.0862592 -0.417338 0.332808
-0.0824156 -0.416489 0.336229
-0.078969 -0.415976 0.338046
-0.0748551 -0.416044 0.339116
-0.0705554 -0.415129 0.341501
-0.0672353 -0.414837 0.34234
-0.0632541 -0.414429 0.34369
-0.0597738 -0.414358 0.345409
-0.056013 -0.414141 0.34641
-0.0521147 -0.413659 0.348783
-0.0485673 -0.413399 0.349469
-0.044585 -0.412901 0.350083
-0.0410784 -0.413117 0.351122
-0.0372794 -0.412593 0.352307
-0.0336248 -0.412299 0.352482
-0.0294527 -0.412187 0.352031
-0.0259339 -0.412247 0.352475
-0.0222024 -0.412594 0.352172
-0.0187569 -0.412662 0.351003
-0.0150214 -0.413107 0.350138
-0.0111948 -0.413384 0.348647
-0.00777191 -0.413623 0.347222
-0.00351893 -0.41412 0.346928
8.7388e-05 -0.414244 0.345229
0.00360532 -0.414436 0.344177
0.0076035 -0.414981 0.342702
0.0110895 -0.415383 0.340908
0.0148009 -0.415874 0.340605
0.0186905 -0.415739 0.338206
0.0225123 -0.41641 0.336693
0.026548 -0.416715 0.335582
0.0300504 -0.416773 0.334627
0.0338887 -0.417012 0.333221
0.0373515 -0.417504 0.332275
0.0415758 -0.417468 0.330886
0.0450852 -0.418523 0.329135
0.0489071 -0.418604 0.328618
0.0527798 -0.418598 0.327341
0.0565262 -0.418921 0.326092
0.0608445 -0.419639 0.32427
0.0643389 -0.419662 0.323375
0.0680382 -0.419601 0.322628
0.0723271 -0.420126 0.321454
0.0753729 -0.420491 0.320694
0.0795495 -0.421063 0.318188
0.0833897 -0.420522 0.31933
0.0873182 -0.421666 0.316684
0.0911927 -0.421841 0.315323
0.0949299 -0.421289 0.315825
0.0988803 -0.421897 0.314805
0.103062 -0.422336 0.312839
0.106674 -0.42235 0.313027
0.110605 -0.422987 0.31081
0.114033 -0.422698 0.311765
0.118124 -0.423365 0.309652
0.122182 -0.423363 0.308702
0.125524 -0.423313 0.30932
0.12996 -0.423856 0.307301
0.13367 -0.42411 0.306754
0.137514 -0.423822 0.306732
0.141394 -0.423748 0.306164
0.145121 -0.424412 0.30638
0.149316 -0.424033 0.304904
0.152954 -0.424486 0.304528
0.156638 -0.424596 0.304207
0.160901 -0.424547 0.302972
0.164362 -0.424789 0.302801
0.168294 -0.42516 0.301824
0.17222 -0.425537 0.300325
0.176414 -0.425505 0.300749
0.18018 -0.425582 0.300215
0.184009 -0.425835 0.299253
0.187906 -0.425976 0.298509
0.191908 -0.426217 0.298477
0.195975 -0.426303 0.296846
0.200075 -0.426599 0.296164
0.20376 -0.426834 0.295363
0.207674 -0.426686 0.295066
0.211365 -0.427074 0.294811
0.215846 -0.427331 0.293195
0.219733 -0.427353 0.291752
0.223326 -0.427659 0.290805
0.227632 -0.428023 0.290122
0.23193 -0.429026 0.286562
0.235639 -0.429589 0.285193
0.240619 -0.429508 0.282063
0.244681 -0.430839 0.279604
0.248986 -0.430986 0.277115
0.253639 -0.432554 0.271387
0.257934 -0.43359 0.267896
0.262957 -0.435954 0.259086
0.27014 -0.440888 0.239639
0.279968 -0.450855 0.197666
0.287321 -0.455842 0.179104
0.293444 -0.458233 0.169179
0.298723 -0.460505 0.160918
0.304349 -0.462231 0.153321
0.309898 -0.464072 0.144458
-0.338149 -0.476388 0.0797552
-0.301659 -0.430745 0.262848
-0.295803 -0.428219 0.272818
-0.290624 -0.426399 0.280993
-0.285977 -0.425561 0.285652
-0.281525 -0.424083 0.29022
-0.276823 -0.422982 0.294215
-0.272375 -0.422526 0.297062
-0.268474 -0.421878 0.299024
-0.264547 -0.421702 0.301023
-0.259719 -0.420584 0.304401
-0.256051 -0.420636 0.304796
-0.252096 -0.420074 0.305901
-0.247877 -0.42014 0.306983
-0.243946 -0.420096 0.308168
-0.240402 -0.419773 0.308475
-0.236369 -0.419784 0.308086
-0.232537 -0.41951 0.307901
-0.229263 -0.419656 0.309057
-0.225096 -0.419934 0.306943
-0.221505 -0.420112 0.305805
-0.218332 -0.420642 0.304979
-0.214406 -0.420732 0.303527
-0.210518 -0.421138 0.303224
-0.206927 -0.421452 0.301909
-0.203036 -0.421726 0.300061
-0.199677 -0.421749 0.299467
-0.19569 -0.422404 0.29853
-0.192235 -0.422676 0.296798
-0.188212 -0.422739 0.296234
-0.184335 -0.422805 0.295553
-0.180587 -0.423149 0.294906
-0.177018 -0.423191 0.293963
-0.173381 -0.423757 0.291938
-0.169496 -0.424028 0.290838
-0.165848 -0.423895 0.291098
-0.162011 -0.424346 0.289666
-0.157791 -0.424615 0.289224
-0.154327 -0.42475 0.288298
-0.150458 -0.425087 0.287151
-0.146849 -0.425008 0.2863
-0.14322 -0.425383 0.286524
-0.139441 -0.425087 0.287083
-0.134989 -0.424401 0.288935
-0.130786 -0.423799 0.290426
-0.12718 -0.423472 0.293494
-0.122966 -0.422322 0.298185
-0.118884 -0.421058 0.302526
-0.114877 -0.420394 0.30455
-0.110577 -0.41982 0.309038
-0.106528 -0.418699 0.313329
-0.10257 -0.417098 0.318923
-0.0983904 -0.416336 0.321763
-0.0943116 -0.415559 0.324963
-0.0905798 -0.41509 0.32701
-0.0864898 -0.413975 0.331236
-0.08227 -0.413687 0.333347
-0.0787976 -0.41325 0.333891
-0.0750468 -0.412683 0.336768
-0.0712203 -0.41214 0.338916
-0.0673199 -0.411619 0.340327
-0.0638753 -0.411608 0.341259
-0.0598762 -0.410947 0.342879
-0.0559435 -0.410821 0.344757
-0.0521664 -0.410281 0.345268
-0.0486224 -0.410019 0.346801
-0.0449513 -0.409861 0.348255
-0.0411092 -0.409523 0.349657
-0.0372375 -0.409245 0.349967
-0.0336105 -0.409061 0.350562
-0.0297848 -0.409218 0.350892
-0.026172 -0.409614 0.350513
-0.0225692 -0.409396 0.350205
-0.018833 -0.409563 0.349654
-0.0148532 -0.409946 0.347814
-0.0113223 -0.409854 0.347492
-0.0075313 -0.410175 0.346149
-0.00394407 -0.410848 0.344991
0.000202192 -0.410935 0.343644
0.00399273 -0.411069 0.342481
0.00729636 -0.411858 0.340843
0.0112061 -0.41185 0.33974
0.0150688 -0.412066 0.338726
0.0184296 -0.4127 0.337073
0.0224894 -0.412579 0.336009
0.0264508 -0.413182 0.333483
0.0299169 -0.413564 0.332696
0.033707 -0.413535 0.332802
0.037619 -0.414489 0.330682
0.0416498 -0.414569 0.329401
0.0454719 -0.414671 0.328416
0.0491148 -0.415056 0.327123
0.0528352 -0.414993 0.326561
0.056648 -0.415322 0.325188
0.0605119 -0.415805 0.324783
0.0641468 -0.415846 0.32392
0.0681876 -0.41603 0.322377
0.0717073 -0.416542 0.321527
0.0758639 -0.416793 0.320005
0.0794393 -0.416539 0.319407
0.0832148 -0.416966 0.318953
0.0870605 -0.417788 0.317228
0.0911427 -0.417993 0.315196
0.0949587 -0.417839 0.31504
0.0992949 -0.418759 0.313851
0.102847 -0.418258 0.314231
0.106552 -0.418957 0.312505
0.110696 -0.419298 0.311032
0.114323 -0.418766 0.31119
0.117915 -0.418901 0.310737
0.122024 -0.419193 0.309588
0.125476 -0.419389 0.309117
0.129542 -0.41893 0.3101
0.133483 -0.419366 0.309754
0.137412 -0.419426 0.308817
0.141091 -0.419605 0.308023
0.14512 -0.419775 0.308458
0.149342 -0.420323 0.306236
0.153112 -0.420319 0.306301
0.156711 -0.420475 0.304791
0.160315 -0.420756 0.304151
0.164931 -0.420993 0.303817
0.168387 -0.421487 0.302374
0.172435 -0.421417 0.301356
0.176252 -0.421475 0.300876
0.18067 -0.421942 0.299724
0.183721 -0.421849 0.29977
0.188208 -0.422166 0.298166
0.191571 -0.422666 0.297104
0.196137 -0.422583 0.296802
0.199859 -0.42274 0.29653
0.204001 -0.423394 0.295594
0.207647 -0.422853 0.294326
0.211832 -0.423517 0.29395
0.215642 -0.423537 0.292839
0.21999 -0.423908 0.291344
0.223738 -0.424392 0.289794
0.22764 -0.424769 0.288482
0.231659 -0.424911 0.287477
0.235792 -0.425255 0.285077
0.240414 -0.426574 0.28262
0.244481 -0.426714 0.279963
0.248545 -0.427399 0.27718
0.252738 -0.428014 0.274472
0.257964 -0.429821 0.268815
0.261979 -0.43064 0.264405
0.268074 -0.433575 0.253277
0.275266 -0.438655 0.232036
0.283221 -0.444982 0.204697
0.28994 -0.449071 0.189124
0.295801 -0.452457 0.178189
0.300485 -0.452272 0.175607
0.306068 -0.454839 0.167327
0.31093 -0.455796 0.162947
0.316144 -0.457784 0.15541
0.32172 -0.460408 0.144919
-0.341554 -0.471742 0.0806154
-0.336044 -0.469552 0.0894907
-0.303033 -0.428752 0.256372
-0.296903 -0.425718 0.267832
-0.291776 -0.423933 0.275568
-0.286501 -0.42239 0.282896
-0.282267 -0.420927 0.286952
-0.277349 -0.419632 0.292051
-0.273227 -0.419524 0.294616
-0.268844 -0.418905 0.296899
-0.264774 -0.41805 0.299709
-0.260664 -0.417879 0.301206
-0.256588 -0.417451 0.302604
-0.252431 -0.416846 0.303744
-0.248311 -0.416851 0.304671
-0.244373 -0.416592 0.306175
-0.240441 -0.416626 0.306056
-0.237095 -0.416527 0.305501
-0.233331 -0.416594 0.305702
-0.229462 -0.416754 0.30494
-0.225313 -0.416815 0.304778
-0.222219 -0.417334 0.302832
-0.21825 -0.417259 0.303095
-0.214406 -0.417536 0.301234
-0.211105 -0.417586 0.301211
-0.206907 -0.417952 0.300335
-0.203247 -0.418389 0.298254
-0.199822 -0.418659 0.296701
-0.195885 -0.419015 0.29592
-0.192115 -0.419472 0.294571
-0.188471 -0.419016 0.294617
-0.184788 -0.419586 0.294197
-0.181169 -0.419569 0.292311
-0.176855 -0.419584 0.292508
-0.173389 -0.420106 0.291858
-0.169365 -0.420417 0.290197
-0.165925 -0.420348 0.28877
-0.162405 -0.420842 0.288277
-0.158584 -0.421302 0.287024
-0.154653 -0.421119 0.286262
-0.15049 -0.421662 0.28642
-0.147176 -0.421004 0.286215
-0.143361 -0.421525 0.286164
-0.138771 -0.420891 0.285893
-0.135176 -0.420897 0.287288
-0.131306 -0.420835 0.287979
-0.12687 -0.419776 0.291407
-0.122973 -0.418766 0.295777
-0.119149 -0.418349 0.29856
-0.114787 -0.417358 0.302874
-0.110872 -0.416065 0.306266
-0.106366 -0.415237 0.310683
-0.102546 -0.414561 0.313257
-0.0984881 -0.41327 0.318165
-0.0945823 -0.412535 0.321255
-0.0908575 -0.412047 0.323856
-0.0868333 -0.411441 0.328019
-0.0828787 -0.410608 0.329685
-0.0789588 -0.410112 0.33185
-0.0753646 -0.409515 0.334174
-0.0711603 -0.408883 0.336025
-0.0674522 -0.408672 0.337529
-0.0634735 -0.408362 0.338993
-0.0597397 -0.40769 0.341109
-0.0560317 -0.407392 0.342444
-0.0520283 -0.407093 0.343775
-0.0484862 -0.407044 0.344782
-0.0448291 -0.406574 0.346865
-0.0409648 -0.406323 0.346924
-0.0371009 -0.405806 0.348159
-0.0337986 -0.405826 0.348664
-0.0296115 -0.40587 0.349
-0.0261697 -0.406051 0.349169
-0.0224405 -0.406104 0.347688
-0.0185935 -0.406617 0.346479
-0.0150209 -0.40658 0.346271
-0.0115433 -0.406851 0.345818
-0.00740481 -0.407218 0.344191
-0.00371886 -0.407135 0.343017
-0.000214938 -0.407936 0.341279
0.00358527 -0.407602 0.340939
0.00781225 -0.407943 0.339274
0.0113045 -0.408504 0.337006
0.0150705 -0.408938 0.336677
0.0190493 -0.409189 0.335829
0.0224842 -0.409632 0.333591
0.0266504 -0.409913 0.333351
0.0299339 -0.410119 0.331671
0.0339454 -0.410428 0.330148
0.0377864 -0.411115 0.329204
0.0410684 -0.411172 0.32926
0.0449203 -0.411097 0.327346
0.0489337 -0.411373 0.326135
0.0528057 -0.411688 0.325043
0.0564305 -0.411855 0.324662
0.0605093 -0.41213 0.323844
0.064195 -0.412069 0.322721
0.0678374 -0.412446 0.321468
0.0720387 -0.41298 0.320696
0.0760965 -0.413043 0.319971
0.0797816 -0.413529 0.317563
0.0832371 -0.413458 0.319034
0.0872668 -0.413669 0.317927
0.0912064 -0.414038 0.316535
0.0950581 -0.413831 0.316606
0.0984995 -0.414065 0.314986
0.102349 -0.414472 0.313868
0.10639 -0.414435 0.313519
0.110423 -0.414636 0.313116
0.114234 -0.415119 0.311731
0.117481 -0.415293 0.310971
0.121834 -0.415154 0.311264
0.125617 -0.415404 0.311444
0.129201 -0.415403 0.310482
0.133387 -0.415104 0.311587
0.137731 -0.415406 0.310441
0.141227 -0.415114 0.310428
0.145282 -0.415584 0.310144
0.148862 -0.415551 0.309406
0.152383 -0.415912 0.30873
0.156311 -0.416277 0.306737
0.160541 -0.416166 0.306684
0.16398 -0.41677 0.304724
0.168521 -0.417242 0.303905
0.172113 -0.417043 0.302943
0.176472 -0.417702 0.301783
0.180296 -0.417735 0.3007
0.184355 -0.418026 0.299373
0.188077 -0.417685 0.298826
0.191934 -0.418219 0.297951
0.195931 -0.418572 0.296757
