ply
format ascii 1.0
element vertex 1668
property float x
property float y
property float z
end_header
-0.0286926 -0.213721 0.394701
-0.0253112 -0.213662 0.393624
-0.0218449 -0.213715 0.392418
-0.0185215 -0.213822 0.39117
-0.0143598 -0.214309 0.38965
-0.0110176 -0.214091 0.38899
-0.00716648 -0.214656 0.387684
-0.00361349 -0.214705 0.385676
-1.09811e-05 -0.214746 0.383933
0.00347018 -0.215468 0.383767
0.00705238 -0.215374 0.381848
0.0112296 -0.215621 0.379563
0.0142376 -0.21596 0.377943
0.0182653 -0.216298 0.375182
0.0219644 -0.216432 0.374151
0.025988 -0.216513 0.371491
0.029301 -0.216954 0.369565
0.032992 -0.217293 0.367484
0.036719 -0.217753 0.364511
0.0406447 -0.217847 0.36182
0.0440992 -0.218252 0.360651
0.0484374 -0.218726 0.356194
0.0516479 -0.219074 0.35421
0.0558849 -0.219445 0.351266
0.0596088 -0.219601 0.348768
0.0633768 -0.220269 0.344997
0.067284 -0.220409 0.34242
0.0713362 -0.220945 0.339401
0.0748436 -0.220824 0.336789
0.0792319 -0.222109 0.333599
0.0828673 -0.221956 0.331523
0.0866798 -0.222522 0.328838
0.0905218 -0.222843 0.32701
0.0940412 -0.2227 0.324316
0.0982492 -0.223158 0.321105
0.10227 -0.22388 0.318342
0.106231 -0.223958 0.31562
0.110672 -0.224874 0.311524
0.114882 -0.225014 0.30719
0.118591 -0.225677 0.303169
0.122845 -0.226272 0.298596
0.127067 -0.227205 0.293111
0.131052 -0.227749 0.288135
0.135765 -0.228512 0.282658
0.139686 -0.22927 0.27781
0.144475 -0.229908 0.270657
0.148806 -0.230766 0.264544
0.152789 -0.231839 0.258229
0.157859 -0.232578 0.250194
0.162742 -0.234076 0.242247
0.166815 -0.234853 0.235911
0.171433 -0.235637 0.228046
0.176371 -0.236815 0.218965
0.181908 -0.23847 0.206082
0.187106 -0.240106 0.194648
0.19256 -0.241722 0.182477
0.197824 -0.243146 0.170366
0.205611 -0.247163 0.141891
0.212254 -0.25096 0.115889
0.218709 -0.253207 0.0950099
0.228069 -0.258444 0.0604446
0.234026 -0.260108 0.0430499
-0.363929 -0.240239 0.166735
-0.355405 -0.237277 0.189097
-0.346551 -0.233918 0.213182
-0.340124 -0.232263 0.224888
-0.33485 -0.231188 0.232946
-0.32959 -0.230125 0.241258
-0.323916 -0.229416 0.247285
-0.319159 -0.228521 0.253143
-0.313674 -0.227446 0.260495
-0.307959 -0.226631 0.269584
-0.302246 -0.225332 0.279758
-0.297057 -0.223956 0.28949
-0.291441 -0.222821 0.298344
-0.286922 -0.22144 0.304233
-0.282097 -0.220936 0.311668
-0.277098 -0.219951 0.317608
-0.27208 -0.219006 0.322949
-0.267738 -0.21853 0.328224
-0.263546 -0.218327 0.330845
-0.259387 -0.217822 0.334983
-0.255006 -0.216908 0.33887
-0.25024 -0.216761 0.343203
-0.24629 -0.216452 0.346247
-0.24204 -0.216172 0.347911
-0.237947 -0.215635 0.351533
-0.233665 -0.215379 0.355061
-0.229326 -0.214566 0.358411
-0.225583 -0.21464 0.361359
-0.221349 -0.214375 0.363755
-0.217761 -0.214187 0.3655
-0.213178 -0.213635 0.368988
-0.209203 -0.212958 0.371515
-0.205402 -0.212484 0.373723
-0.201238 -0.212305 0.375912
-0.197567 -0.212194 0.378507
-0.193634 -0.211559 0.38017
-0.18974 -0.211569 0.382162
-0.185858 -0.211456 0.383887
-0.182147 -0.211123 0.385555
-0.178186 -0.210601 0.387258
-0.174054 -0.210649 0.388708
-0.170639 -0.210446 0.390322
-0.166602 -0.210358 0.390785
-0.163329 -0.209979 0.391798
-0.15967 -0.210356 0.39271
-0.155574 -0.209895 0.394342
-0.151963 -0.209999 0.395191
-0.148306 -0.209938 0.395911
-0.144557 -0.209952 0.396682
-0.140999 -0.209583 0.396587
-0.13722 -0.209373 0.397597
-0.133817 -0.209432 0.398374
-0.12998 -0.209168 0.398912
-0.126084 -0.209008 0.400559
-0.123103 -0.209812 0.39969
-0.118917 -0.20941 0.400435
-0.115642 -0.209148 0.401328
-0.11179 -0.209197 0.40078
-0.108166 -0.208982 0.402017
-0.104918 -0.209034 0.401368
-0.100715 -0.209139 0.402118
-0.0972635 -0.209127 0.402087
-0.0938054 -0.208896 0.402561
-0.0899258 -0.208653 0.402838
-0.0866067 -0.208909 0.403255
-0.0825768 -0.209126 0.402995
-0.0794771 -0.209001 0.401976
-0.0756708 -0.208953 0.401281
-0.0719399 -0.208792 0.402291
-0.0683077 -0.209257 0.401612
-0.064832 -0.208946 0.400991
-0.0615053 -0.209256 0.401547
-0.0576698 -0.209154 0.399386
-0.0543204 -0.209249 0.39934
-0.0506826 -0.209813 0.398615
-0.0471579 -0.20922 0.39867
-0.0431529 -0.209665 0.397177
-0.0398226 -0.20955 0.397152
-0.0361173 -0.209683 0.39703
-0.0324265 -0.210041 0.395355
-0.028946 -0.20973 0.394948
-0.0254811 -0.210011 0.394492
-0.0215821 -0.210507 0.392369
-0.0181264 -0.21034 0.391458
-0.0143511 -0.210715 0.389982
-0.0109672 -0.210639 0.388552
-0.00712608 -0.21074 0.386997
-0.00366681 -0.211186 0.386095
0.00013251 -0.211329 0.384338
0.00365831 -0.211407 0.383302
0.0072702 -0.211864 0.381624
0.0112273 -0.212052 0.378998
0.0145789 -0.211934 0.37934
0.0183559 -0.212413 0.376076
0.0215096 -0.212955 0.373357
0.0254129 -0.212826 0.372193
0.0296003 -0.213461 0.36905
0.0332623 -0.213592 0.366788
0.0368248 -0.213993 0.364652
0.0404753 -0.214078 0.362363
0.0442667 -0.214323 0.358902
0.0484549 -0.215134 0.355721
0.052446 -0.2155 0.353582
0.0559311 -0.215477 0.351108
0.0594793 -0.215928 0.348181
0.0633952 -0.216408 0.344908
0.0673723 -0.216581 0.342435
0.0715833 -0.217603 0.338683
0.0745305 -0.217336 0.338206
0.0788738 -0.217956 0.335075
0.0828929 -0.218104 0.3316
0.0866809 -0.218746 0.32907
0.0905469 -0.218983 0.327142
0.0942534 -0.219047 0.324752
0.0981834 -0.219657 0.322118
0.102374 -0.219806 0.318978
0.106372 -0.220281 0.315433
0.110183 -0.220894 0.311274
0.114618 -0.220967 0.307638
0.118691 -0.221654 0.30349
0.122853 -0.222557 0.298581
0.126779 -0.223191 0.293909
0.131453 -0.223618 0.288134
0.135649 -0.2246 0.282532
0.140131 -0.225178 0.276799
0.144145 -0.22603 0.270768
0.148648 -0.227108 0.264222
0.153363 -0.22757 0.256345
0.157891 -0.228923 0.24793
0.162374 -0.230182 0.240965
0.167283 -0.23104 0.234247
0.172219 -0.232128 0.225461
0.176808 -0.23323 0.216354
0.181961 -0.234252 0.206977
0.18735 -0.235544 0.195023
0.192718 -0.237779 0.18324
0.197943 -0.239206 0.171491
0.204228 -0.241974 0.151792
0.212296 -0.24616 0.119287
0.219125 -0.248733 0.0966883
0.226047 -0.252412 0.0700645
0.233287 -0.255465 0.0478669
-0.36304 -0.234814 0.17207
-0.353677 -0.231857 0.196723
-0.345951 -0.229374 0.216591
-0.339872 -0.227822 0.226877
-0.33456 -0.226673 0.235237
-0.32875 -0.22617 0.242733
-0.323423 -0.224898 0.249836
-0.319161 -0.22433 0.25447
-0.314013 -0.223531 0.261427
-0.308037 -0.222342 0.271333
-0.301949 -0.220766 0.283143
-0.29634 -0.219015 0.29328
-0.291571 -0.218611 0.299507
-0.286451 -0.21778 0.305925
-0.281296 -0.216752 0.312811
-0.276698 -0.216135 0.318661
-0.272714 -0.21575 0.323132
-0.267722 -0.215039 0.328043
-0.263037 -0.214203 0.331922
-0.258896 -0.213882 0.335732
-0.254769 -0.213518 0.339418
-0.250468 -0.213176 0.341989
-0.245911 -0.212936 0.345931
-0.24197 -0.212315 0.349127
-0.237723 -0.211672 0.35228
-0.233665 -0.211474 0.355516
-0.229673 -0.211009 0.358783
-0.225687 -0.21097 0.360507
-0.221055 -0.210474 0.364156
-0.217224 -0.209758 0.366997
-0.213413 -0.209783 0.369005
-0.209219 -0.209604 0.372103
-0.205507 -0.209002 0.373979
-0.201233 -0.208956 0.375864
-0.1974 -0.208108 0.378823
-0.1938 -0.20844 0.379681
-0.189981 -0.208066 0.381265
-0.185826 -0.207788 0.385434
-0.181816 -0.207479 0.386583
-0.178102 -0.207177 0.387431
-0.174466 -0.207314 0.388592
-0.170546 -0.207207 0.390255
-0.166849 -0.2067 0.39147
-0.162993 -0.206647 0.391921
-0.159482 -0.20666 0.392819
-0.155658 -0.206452 0.393853
-0.151788 -0.206441 0.394345
-0.148668 -0.206342 0.395238
-0.144761 -0.206314 0.396381
-0.140819 -0.206223 0.397207
-0.137471 -0.205955 0.396721
-0.133554 -0.206117 0.397439
-0.13011 -0.206396 0.398321
-0.126399 -0.205818 0.399272
-0.122627 -0.205661 0.399082
-0.118912 -0.20555 0.400225
-0.115071 -0.205584 0.399777
-0.111875 -0.205805 0.400348
-0.107811 -0.205525 0.400977
-0.104449 -0.205615 0.401301
-0.100767 -0.20556 0.401553
-0.0972901 -0.205679 0.402529
-0.0936956 -0.205701 0.401582
-0.089915 -0.204927 0.402316
-0.0861793 -0.205047 0.402496
-0.0829423 -0.205777 0.401451
-0.0795719 -0.205488 0.40233
-0.0755992 -0.20543 0.401764
-0.0720927 -0.205424 0.401804
-0.0688693 -0.205893 0.400578
-0.0646644 -0.205233 0.401181
-0.0612998 -0.205658 0.400138
-0.0575534 -0.205796 0.399922
-0.0544036 -0.205602 0.39939
-0.0506288 -0.205941 0.398289
-0.0469215 -0.20591 0.398596
-0.0432222 -0.205786 0.398403
-0.0399366 -0.205587 0.398386
-0.0360481 -0.206035 0.396243
-0.0327969 -0.205839 0.395863
-0.0291104 -0.206021 0.395115
-0.0254704 -0.205869 0.39466
-0.021748 -0.206717 0.393349
-0.0181077 -0.206608 0.391538
-0.0146479 -0.206868 0.391129
-0.0108614 -0.207235 0.389134
-0.00727416 -0.207313 0.387972
-0.00368342 -0.207209 0.385558
4.73976e-05 -0.207681 0.38374
0.0036607 -0.207658 0.382672
0.00752029 -0.208133 0.381653
0.0110376 -0.208235 0.379455
0.0144603 -0.208651 0.376954
0.0183774 -0.208652 0.375035
0.0218865 -0.209381 0.372768
0.0255019 -0.20945 0.371978
0.0293812 -0.209247 0.369375
0.0331189 -0.209953 0.367196
0.0367693 -0.20998 0.364789
0.0408662 -0.21055 0.362069
0.0446133 -0.210976 0.358825
0.0484369 -0.210608 0.356446
0.0522977 -0.211669 0.35363
0.0555863 -0.211889 0.350555
0.0598718 -0.212632 0.347635
0.0630119 -0.212717 0.346461
0.0669853 -0.213177 0.34261
0.0711058 -0.21329 0.340759
0.0751433 -0.213688 0.337655
0.0787138 -0.214122 0.335252
0.0826495 -0.214318 0.332565
0.0869447 -0.214456 0.329844
0.0904549 -0.214921 0.327255
0.0940866 -0.215645 0.32492
0.0982596 -0.215628 0.322262
0.102191 -0.216049 0.319432
0.106133 -0.216897 0.314708
0.110153 -0.216982 0.311754
0.114306 -0.217501 0.308165
0.118577 -0.217876 0.303372
0.122723 -0.219371 0.296898
0.127226 -0.219484 0.293137
0.131559 -0.219741 0.288465
0.135289 -0.220488 0.282906
0.14013 -0.221528 0.276198
0.144259 -0.222466 0.270414
0.148563 -0.223246 0.263786
0.153339 -0.224149 0.255864
0.158146 -0.22534 0.247698
0.163234 -0.226248 0.239561
0.167696 -0.227382 0.230836
0.172071 -0.228361 0.224366
0.177024 -0.229595 0.214396
0.182691 -0.230946 0.204104
0.187501 -0.23193 0.194889
0.192141 -0.232916 0.186148
0.197337 -0.234276 0.175782
0.203827 -0.23711 0.157168
0.211553 -0.24063 0.12648
0.218179 -0.243548 0.10242
0.225821 -0.247748 0.0749567
0.232999 -0.249956 0.0514483
-0.373855 -0.235376 0.1383
-0.361999 -0.230215 0.177292
-0.352297 -0.226971 0.203961
-0.345529 -0.224688 0.218692
-0.338774 -0.223553 0.230451
-0.333689 -0.222658 0.2379
-0.328694 -0.221405 0.244689
-0.32337 -0.220932 0.251161
-0.318097 -0.219954 0.258065
-0.312389 -0.218995 0.266207
-0.307139 -0.217747 0.275938
-0.301737 -0.21661 0.285308
-0.295994 -0.215148 0.295234
-0.290884 -0.214533 0.301469
-0.285709 -0.213541 0.308685
-0.281652 -0.213357 0.313208
-0.277084 -0.212539 0.318127
-0.272056 -0.211874 0.32426
-0.267572 -0.210934 0.328522
-0.263522 -0.21053 0.331993
-0.259398 -0.209841 0.336133
-0.254288 -0.209663 0.339994
-0.250118 -0.209295 0.343957
-0.246434 -0.209072 0.346392
-0.241976 -0.208022 0.34974
-0.237683 -0.207992 0.3533
-0.23375 -0.207814 0.356136
-0.229558 -0.207016 0.358901
-0.224947 -0.20692 0.361872
-0.22126 -0.206643 0.364677
-0.217349 -0.206562 0.366091
-0.213292 -0.205989 0.368503
-0.20963 -0.205649 0.371218
-0.205454 -0.20556 0.373787
-0.201128 -0.204874 0.375873
-0.196845 -0.205148 0.378599
-0.193238 -0.204353 0.380443
-0.189868 -0.204076 0.381907
-0.186151 -0.204028 0.383946
-0.181592 -0.203989 0.38642
-0.178353 -0.203809 0.387874
-0.174077 -0.203353 0.388949
-0.170488 -0.203393 0.389811
-0.166884 -0.203167 0.390334
-0.163476 -0.203156 0.391331
-0.159651 -0.202908 0.392558
-0.155544 -0.202946 0.392462
-0.152016 -0.202769 0.394301
-0.148411 -0.202704 0.394945
-0.144702 -0.202645 0.395201
-0.141052 -0.202422 0.396993
-0.137396 -0.202884 0.396961
-0.133785 -0.20229 0.398212
-0.130222 -0.202601 0.397681
-0.126313 -0.2024 0.397768
-0.123041 -0.202174 0.399079
-0.118764 -0.201942 0.400026
-0.11537 -0.202177 0.399933
-0.111767 -0.201928 0.400303
-0.108285 -0.202292 0.400261
-0.104715 -0.201821 0.400832
-0.100936 -0.201796 0.400715
-0.0972538 -0.201911 0.401376
-0.0936793 -0.201858 0.40138
-0.0902087 -0.201874 0.401387
-0.0862502 -0.202421 0.401056
-0.0829031 -0.201974 0.401599
-0.0793379 -0.201818 0.400788
-0.0755637 -0.202182 0.401051
-0.0721819 -0.20159 0.401378
-0.0688345 -0.202155 0.400298
-0.0647296 -0.202155 0.401156
-0.061398 -0.202402 0.399785
-0.0579089 -0.20208 0.400075
-0.0541531 -0.201647 0.400066
-0.0504576 -0.202053 0.398856
-0.0468319 -0.202262 0.398414
-0.0435309 -0.202421 0.397582
-0.0395303 -0.202502 0.398164
-0.0360717 -0.202356 0.396638
-0.0324342 -0.20246 0.395957
-0.0288659 -0.202733 0.395556
-0.025322 -0.202381 0.394468
-0.0218608 -0.203023 0.393585
-0.0180789 -0.203115 0.392049
-0.0145216 -0.203024 0.390808
-0.0110178 -0.203465 0.38873
-0.00712045 -0.203666 0.38788
-0.00387911 -0.204239 0.386456
1.96433e-05 -0.203895 0.38451
0.00380124 -0.20445 0.38399
0.00748697 -0.204025 0.382516
0.011207 -0.204334 0.379478
0.0147808 -0.204935 0.377403
0.0180839 -0.205143 0.376335
0.0221807 -0.205621 0.373415
0.0255975 -0.205662 0.371961
0.0290421 -0.205645 0.369859
0.0331926 -0.206056 0.367518
0.0368128 -0.206606 0.363576
0.0408217 -0.206715 0.362336
0.0444214 -0.207208 0.358852
0.0481012 -0.207247 0.356907
0.0525162 -0.208175 0.353722
0.0559327 -0.208155 0.351581
0.0594854 -0.208562 0.349269
0.0631603 -0.208926 0.346475
0.0670746 -0.209021 0.343995
0.0710059 -0.209723 0.340145
0.074908 -0.209933 0.338511
0.0792279 -0.210407 0.335733
0.0826546 -0.210346 0.333705
0.0865097 -0.21067 0.330343
0.0906844 -0.210961 0.327902
0.0946666 -0.211928 0.324632
0.0979953 -0.211947 0.322787
0.102062 -0.212206 0.320286
0.106711 -0.21276 0.314696
0.110665 -0.213384 0.310526
0.114324 -0.213881 0.307303
0.119021 -0.214121 0.302324
0.1226 -0.21499 0.29708
0.127114 -0.215727 0.292687
0.131413 -0.216272 0.287144
0.135295 -0.216709 0.282482
0.140084 -0.217594 0.275652
0.144532 -0.218822 0.270095
0.149135 -0.219293 0.261994
0.153628 -0.22047 0.25368
0.157989 -0.221047 0.246634
0.163013 -0.222334 0.238148
0.16745 -0.223182 0.231306
0.172282 -0.22425 0.222675
0.177251 -0.225935 0.213698
0.182033 -0.227139 0.205002
0.187738 -0.228136 0.193095
0.192143 -0.228992 0.185737
0.197436 -0.229845 0.176425
0.202974 -0.232039 0.163105
0.210217 -0.235601 0.136396
0.217466 -0.238878 0.107494
0.224628 -0.24201 0.0819308
0.232488 -0.245412 0.0562718
0.238934 -0.248128 0.0352715
-0.37261 -0.2302 0.14411
-0.360051 -0.225334 0.185119
-0.351771 -0.222394 0.207108
-0.344809 -0.220589 0.221418
-0.339425 -0.219405 0.230052
-0.3333 -0.218366 0.239594
-0.328034 -0.217354 0.247355
-0.322951 -0.216505 0.2536
-0.318244 -0.215984 0.259791
-0.312634 -0.215282 0.268143
-0.306552 -0.213591 0.278981
-0.301528 -0.212354 0.287322
-0.295952 -0.211696 0.29515
-0.290884 -0.210687 0.302831
-0.285879 -0.210106 0.309258
-0.281158 -0.208911 0.314241
-0.276702 -0.208498 0.318566
-0.272642 -0.208029 0.323214
-0.267758 -0.207297 0.328363
-0.262995 -0.206706 0.332813
-0.259096 -0.20638 0.336175
-0.254781 -0.206067 0.339778
-0.2502 -0.205073 0.34409
-0.246147 -0.205034 0.346624
-0.241891 -0.204846 0.349642
-0.237725 -0.20409 0.353652
-0.233802 -0.203839 0.356567
-0.229267 -0.203384 0.358876
-0.225907 -0.20302 0.361559
-0.221545 -0.203184 0.363602
-0.217439 -0.202244 0.367238
-0.213227 -0.202334 0.369368
-0.209692 -0.201736 0.370989
-0.205402 -0.201889 0.373193
-0.201727 -0.201483 0.375097
-0.197248 -0.200922 0.378324
-0.193851 -0.201093 0.380331
-0.189382 -0.200649 0.382689
-0.185754 -0.200734 0.383873
-0.182343 -0.200067 0.38552
-0.178108 -0.200043 0.387654
-0.174161 -0.199588 0.390133
-0.170776 -0.19985 0.390137
-0.167372 -0.199485 0.390787
-0.163196 -0.199159 0.392027
-0.159197 -0.199287 0.393546
-0.155593 -0.199275 0.39356
-0.152133 -0.199103 0.39378
-0.148406 -0.199378 0.395711
-0.144618 -0.198879 0.395862
-0.14102 -0.198794 0.39565
-0.137183 -0.199181 0.396174
-0.133793 -0.19855 0.398108
-0.130184 -0.198714 0.397459
-0.126554 -0.19887 0.396882
-0.123 -0.198705 0.398532
-0.11923 -0.198396 0.39886
-0.115602 -0.198368 0.398794
-0.111737 -0.198174 0.400412
-0.108016 -0.198622 0.400626
-0.104929 -0.198402 0.400318
-0.100931 -0.198264 0.400835
-0.0975293 -0.198485 0.401328
-0.0940269 -0.198174 0.400799
-0.0905248 -0.198515 0.401585
-0.0864601 -0.198496 0.40096
-0.0828562 -0.198197 0.401582
-0.0795066 -0.198499 0.40141
-0.0756697 -0.198237 0.401153
-0.0721176 -0.198403 0.399716
-0.0680914 -0.198295 0.400641
-0.0646873 -0.198436 0.400133
-0.0610077 -0.198367 0.40074
-0.0581897 -0.198386 0.400202
-0.0542325 -0.198698 0.399613
-0.050733 -0.19828 0.399363
-0.0471408 -0.198637 0.39868
-0.0434523 -0.19872 0.398819
-0.0395427 -0.19826 0.398526
-0.0362 -0.199175 0.397016
-0.0323365 -0.199 0.395698
-0.0289364 -0.198899 0.395093
-0.0252615 -0.199332 0.394986
-0.0218557 -0.199005 0.393215
-0.0179287 -0.199562 0.392129
-0.0144986 -0.199403 0.391143
-0.0111639 -0.199623 0.389938
-0.00729427 -0.19978 0.3882
-0.00398116 -0.200244 0.386413
-2.63709e-05 -0.200182 0.38529
0.00368351 -0.200481 0.382479
0.0071523 -0.200929 0.381456
0.0112825 -0.201199 0.379734
0.0145688 -0.201301 0.377988
0.0183079 -0.201511 0.375321
0.022104 -0.201238 0.374304
0.025763 -0.201893 0.372047
0.0293123 -0.202361 0.369176
0.0330722 -0.202289 0.367117
0.0369863 -0.202836 0.364907
0.0406179 -0.203132 0.36213
0.044099 -0.203463 0.361195
0.0482912 -0.204186 0.357422
0.0518788 -0.20419 0.354984
0.0555034 -0.20422 0.353678
0.0595273 -0.204098 0.349955
0.0635203 -0.204832 0.347229
0.0669225 -0.204973 0.345257
0.0713525 -0.205762 0.341072
0.0752031 -0.206048 0.3388
0.078738 -0.206193 0.335969
0.0827591 -0.206775 0.332761
0.0862943 -0.20682 0.331529
0.0903604 -0.207308 0.328327
0.0946312 -0.207869 0.325718
0.098349 -0.208112 0.322143
0.10261 -0.209077 0.317466
0.106084 -0.208813 0.315568
0.110343 -0.209123 0.311319
0.114232 -0.21029 0.30726
0.118782 -0.21059 0.301447
0.122944 -0.211541 0.297301
0.126989 -0.211777 0.292368
0.13144 -0.212365 0.287354
0.135388 -0.2128 0.282062
0.139682 -0.21364 0.276277
0.144474 -0.214814 0.26943
0.148871 -0.215539 0.261169
0.153482 -0.216621 0.253345
0.158611 -0.217958 0.244056
0.163168 -0.218855 0.23681
0.167307 -0.219404 0.23068
0.171999 -0.220753 0.223292
0.177559 -0.221587 0.212054
0.182426 -0.223122 0.203042
0.186849 -0.224105 0.195093
0.191944 -0.225122 0.187024
0.19718 -0.225918 0.178816
0.202398 -0.227759 0.166001
0.20908 -0.230164 0.144575
0.218123 -0.234624 0.108027
0.224764 -0.237578 0.0841652
0.231738 -0.240561 0.0608571
0.238284 -0.242774 0.0416132
-0.371004 -0.225868 0.150022
-0.35939 -0.220309 0.189855
-0.350749 -0.217782 0.211243
-0.344847 -0.216878 0.222465
-0.338654 -0.215242 0.233064
-0.333161 -0.214004 0.241601
-0.327675 -0.21322 0.248694
-0.322451 -0.212773 0.255637
-0.316921 -0.211494 0.263302
-0.312067 -0.210515 0.270475
-0.306412 -0.209553 0.279908
-0.300568 -0.208357 0.289705
-0.295816 -0.207548 0.297537
-0.290615 -0.206683 0.30338
-0.285638 -0.206186 0.310728
-0.281428 -0.205319 0.314557
-0.276544 -0.204611 0.319697
-0.272348 -0.204028 0.323669
-0.267434 -0.203729 0.328779
-0.262957 -0.203053 0.333034
-0.258661 -0.202515 0.336778
-0.254409 -0.20184 0.340471
-0.250675 -0.201961 0.343282
-0.245858 -0.201279 0.347558
-0.241707 -0.200682 0.350543
-0.237902 -0.200519 0.352621
-0.233346 -0.199965 0.356855
-0.22909 -0.199952 0.358696
-0.22581 -0.199465 0.360818
-0.221268 -0.199349 0.364812
-0.217523 -0.198825 0.366509
-0.213288 -0.198384 0.368676
-0.209649 -0.198477 0.370916
-0.20546 -0.197965 0.374094
-0.201371 -0.197754 0.376932
-0.197618 -0.197458 0.37823
-0.193301 -0.197232 0.380353
-0.189885 -0.196775 0.381555
-0.185711 -0.196277 0.384377
-0.181826 -0.196584 0.386986
-0.178193 -0.196295 0.387254
-0.174266 -0.196227 0.389108
-0.170734 -0.196067 0.389587
-0.167051 -0.195847 0.390776
-0.162973 -0.195782 0.391905
-0.15944 -0.195709 0.392152
-0.155841 -0.195584 0.393841
-0.152211 -0.195714 0.393473
-0.148332 -0.195523 0.394511
-0.144776 -0.195186 0.394587
-0.140702 -0.195393 0.395613
-0.137523 -0.195362 0.396797
-0.133399 -0.195116 0.396808
-0.130235 -0.195298 0.397007
-0.126299 -0.194771 0.398441
-0.122981 -0.195356 0.398226
-0.119211 -0.195051 0.399032
-0.115562 -0.19479 0.399462
-0.111917 -0.194714 0.399764
-0.10804 -0.194621 0.399948
-0.104385 -0.195087 0.400958
-0.100744 -0.194903 0.400237
-0.097502 -0.194738 0.400996
-0.0938274 -0.194633 0.402089
-0.0901852 -0.194933 0.401429
-0.0864103 -0.194821 0.401324
-0.0834008 -0.194468 0.401304
-0.0795927 -0.194607 0.400993
-0.0755885 -0.194763 0.401169
-0.0720751 -0.194885 0.401493
-0.0685771 -0.194879 0.401288
-0.064733 -0.194751 0.400799
-0.0613666 -0.195221 0.400096
-0.0574947 -0.194895 0.400081
-0.0541291 -0.19491 0.4001
-0.0504197 -0.194898 0.399466
-0.0467231 -0.195079 0.398925
-0.0436638 -0.195094 0.398475
-0.0397518 -0.195111 0.397572
-0.0361496 -0.195157 0.396428
-0.0323209 -0.195173 0.396304
-0.0288944 -0.195436 0.394589
-0.025476 -0.195502 0.394123
-0.021559 -0.195685 0.393058
-0.0182209 -0.195759 0.391344
-0.0146308 -0.195817 0.391056
-0.0113389 -0.196368 0.388872
-0.00734215 -0.196308 0.387855
-0.00389036 -0.196387 0.386737
0.000206931 -0.196864 0.385243
0.00400782 -0.197432 0.382251
0.00734063 -0.196932 0.381793
0.0108929 -0.197278 0.379446
0.0149684 -0.197677 0.377974
0.0184648 -0.197967 0.375708
0.0220145 -0.197836 0.374517
0.0256875 -0.19799 0.372586
0.0295167 -0.19856 0.370091
0.0330209 -0.198621 0.367877
0.0371913 -0.199328 0.36532
0.0405039 -0.199485 0.36239
0.0444289 -0.199526 0.361119
0.0482355 -0.200185 0.358518
0.0521696 -0.199934 0.356016
0.0561529 -0.20018 0.353013
0.0592548 -0.200966 0.350714
0.0632834 -0.201716 0.348245
0.0669522 -0.201569 0.346054
0.0711272 -0.201658 0.343674
0.0746866 -0.202292 0.339486
0.0787739 -0.202148 0.337811
0.0828508 -0.202706 0.333913
0.0863227 -0.202842 0.331704
0.0904165 -0.203651 0.328841
0.0942826 -0.203863 0.324983
0.0982469 -0.204487 0.321608
0.102689 -0.204949 0.318753
0.106399 -0.205283 0.314279
0.110327 -0.205853 0.31066
0.114197 -0.206234 0.307179
0.118496 -0.206996 0.301751
0.122734 -0.207333 0.296881
0.126963 -0.207888 0.292125
0.131413 -0.208842 0.286998
0.135582 -0.209374 0.281464
0.140133 -0.21013 0.275042
0.144482 -0.210844 0.267973
0.149159 -0.211723 0.260051
0.153414 -0.212817 0.252543
0.158445 -0.214004 0.242906
0.163215 -0.214596 0.236852
0.167766 -0.215658 0.229146
0.172499 -0.216393 0.219681
0.177792 -0.21823 0.21055
0.18235 -0.219065 0.202149
0.187257 -0.220104 0.194187
0.191994 -0.220531 0.186249
0.197151 -0.221682 0.178725
0.2025 -0.223068 0.167362
0.208281 -0.225248 0.150023
0.216373 -0.229251 0.118513
0.224383 -0.233271 0.0866289
0.231133 -0.235736 0.0661925
0.237584 -0.237835 0.0460656
-0.371346 -0.221353 0.149527
-0.358563 -0.215693 0.194743
-0.350112 -0.213192 0.214002
-0.344412 -0.21186 0.223966
-0.338699 -0.211178 0.234349
-0.33266 -0.209986 0.243577
-0.327768 -0.208825 0.249799
-0.322409 -0.208703 0.256554
-0.317025 -0.207314 0.264277
-0.31208 -0.206586 0.272183
-0.306232 -0.205537 0.281822
-0.300311 -0.203978 0.291432
-0.295691 -0.20338 0.298353
-0.290758 -0.202396 0.304227
-0.285571 -0.201813 0.311113
-0.281457 -0.201485 0.314714
-0.276904 -0.200678 0.319425
-0.272318 -0.200108 0.323764
-0.267484 -0.199815 0.328339
-0.263086 -0.199204 0.332701
-0.258632 -0.1985 0.336318
-0.254699 -0.19849 0.339207
-0.250357 -0.197638 0.344878
-0.246232 -0.197797 0.347678
-0.241814 -0.196906 0.351283
-0.237637 -0.196966 0.353424
-0.233186 -0.196425 0.357186
-0.22945 -0.196397 0.359089
-0.225493 -0.195812 0.36134
-0.221293 -0.19542 0.363993
-0.217264 -0.195465 0.366407
-0.213354 -0.1949 0.368684
-0.209344 -0.194464 0.372061
-0.205226 -0.194137 0.374188
-0.201507 -0.194231 0.376336
-0.197589 -0.193817 0.378658
-0.193297 -0.193666 0.380856
-0.189817 -0.193304 0.38249
-0.186067 -0.192927 0.383974
-0.181955 -0.192915 0.386077
-0.178292 -0.193153 0.387172
-0.17487 -0.192617 0.389125
-0.170627 -0.192566 0.390035
-0.166996 -0.192204 0.39081
-0.163338 -0.192223 0.391227
-0.159505 -0.19208 0.391893
-0.156222 -0.192291 0.39248
-0.152404 -0.191775 0.39307
-0.148914 -0.19173 0.393884
-0.144654 -0.191731 0.394674
-0.141331 -0.191949 0.39596
-0.137831 -0.191531 0.395511
-0.133919 -0.191657 0.396486
-0.130281 -0.191582 0.396835
-0.126182 -0.191324 0.398108
-0.123083 -0.191617 0.397563
-0.119096 -0.19133 0.398273
-0.115707 -0.191505 0.398555
-0.112158 -0.191466 0.399313
-0.10831 -0.191498 0.399789
-0.104825 -0.19123 0.400319
-0.100568 -0.191627 0.400681
-0.0975148 -0.191445 0.401449
-0.0940267 -0.191203 0.400101
-0.0898382 -0.19142 0.40053
-0.0863437 -0.19139 0.40097
-0.0828399 -0.190914 0.401779
-0.0790935 -0.191148 0.400834
-0.0757425 -0.191093 0.401816
-0.0722307 -0.19097 0.400841
-0.0685151 -0.191126 0.401418
-0.0648567 -0.191287 0.401022
-0.0612923 -0.191414 0.400044
-0.057556 -0.19083 0.40009
-0.0538856 -0.191371 0.398892
-0.0507521 -0.191468 0.398133
-0.047074 -0.191632 0.399039
-0.0432065 -0.191379 0.397876
-0.0395396 -0.191648 0.3975
-0.0363095 -0.191201 0.396872
-0.0330085 -0.191693 0.395489
-0.0290831 -0.191606 0.394513
-0.0253488 -0.191698 0.394497
-0.0220002 -0.191926 0.393109
-0.0181316 -0.192137 0.392051
-0.0145193 -0.192425 0.391119
-0.0110661 -0.192632 0.389048
-0.00719021 -0.192568 0.38831
-0.00367244 -0.192887 0.386831
-0.000131019 -0.192624 0.386104
0.00357103 -0.193039 0.384167
0.0072237 -0.193234 0.382403
0.0106825 -0.193389 0.380332
0.0147372 -0.193585 0.3784
0.0184904 -0.194104 0.375996
0.0219248 -0.194367 0.37485
0.0258403 -0.194452 0.373804
0.0292589 -0.194851 0.370212
0.0330675 -0.195093 0.368408
0.0368118 -0.19544 0.364763
0.040786 -0.195478 0.363996
0.0441863 -0.195472 0.362396
0.0479416 -0.195902 0.359469
0.0516915 -0.196139 0.357775
0.0555418 -0.196624 0.354704
0.0595455 -0.19684 0.352392
0.0631509 -0.197515 0.349199
0.0674243 -0.197685 0.346683
0.071024 -0.197867 0.344556
0.0749432 -0.19825 0.341435
0.0786723 -0.198566 0.338428
0.0826993 -0.199084 0.336263
0.0864186 -0.199693 0.331695
0.0902708 -0.200144 0.329296
0.0945784 -0.200128 0.325691
0.0984626 -0.200256 0.322456
0.102431 -0.20111 0.3183
0.10637 -0.20154 0.314356
0.110471 -0.201853 0.310969
0.114435 -0.202755 0.305694
0.118641 -0.203059 0.300796
0.122726 -0.203767 0.296473
0.127081 -0.204069 0.292114
0.131622 -0.204964 0.286595
0.135869 -0.205595 0.280217
0.139853 -0.206045 0.274972
0.143992 -0.207311 0.268084
0.14884 -0.207848 0.260327
0.153756 -0.208592 0.251594
0.158308 -0.210159 0.243194
0.163259 -0.210927 0.234936
0.167849 -0.211744 0.22822
0.172924 -0.212934 0.219222
0.17755 -0.213708 0.210899
0.182626 -0.214955 0.201774
0.187165 -0.215593 0.194166
0.192158 -0.21684 0.186479
0.197047 -0.217356 0.178626
0.202534 -0.219098 0.16793
0.209074 -0.221733 0.148425
0.215555 -0.2238 0.125343
0.222926 -0.227901 0.0950722
0.230541 -0.230229 0.0710047
0.238114 -0.233712 0.0456232
-0.371317 -0.216922 0.149122
-0.356612 -0.210627 0.201772
-0.351172 -0.209293 0.212148
-0.344726 -0.208118 0.224085
-0.338775 -0.207015 0.235055
-0.332544 -0.206224 0.244594
-0.326995 -0.205112 0.252197
-0.321696 -0.204407 0.258833
-0.3171 -0.203246 0.265048
-0.311102 -0.202421 0.274443
-0.306089 -0.201465 0.282952
-0.300379 -0.200219 0.292003
-0.295418 -0.199081 0.299582
-0.290245 -0.198739 0.305426
-0.28615 -0.197929 0.30979
-0.281036 -0.197318 0.315027
-0.27655 -0.197176 0.319959
-0.2723 -0.196654 0.323712
-0.267591 -0.196034 0.328979
-0.263275 -0.19516 0.332829
-0.259057 -0.195296 0.336537
-0.254312 -0.194436 0.340002
-0.250436 -0.194217 0.34411
-0.246258 -0.19378 0.34747
-0.241815 -0.19343 0.350548
-0.237572 -0.19283 0.354168
-0.233216 -0.192856 0.357717
-0.229319 -0.192493 0.358785
-0.225861 -0.191973 0.360651
-0.22105 -0.191938 0.365065
-0.217046 -0.191443 0.367215
-0.213269 -0.190869 0.369807
-0.209563 -0.191003 0.371907
-0.205005 -0.190616 0.375033
-0.201154 -0.190643 0.376716
-0.197347 -0.190053 0.377993
-0.193548 -0.189717 0.380369
-0.18991 -0.189783 0.38241
-0.185761 -0.189397 0.384321
-0.1819 -0.189111 0.387392
-0.178601 -0.189076 0.387202
-0.174557 -0.189361 0.388469
-0.170336 -0.188991 0.390097
-0.166624 -0.188527 0.391151
-0.163741 -0.188376 0.391664
-0.159769 -0.188994 0.390505
-0.155923 -0.188375 0.392423
-0.151921 -0.188093 0.393697
-0.148651 -0.188425 0.393577
-0.145254 -0.188093 0.395266
-0.141546 -0.188231 0.394527
-0.137526 -0.188233 0.396033
-0.133759 -0.1879 0.396057
-0.130004 -0.187821 0.396646
-0.126533 -0.187838 0.397425
-0.122809 -0.187603 0.397478
-0.119235 -0.18799 0.398992
-0.11563 -0.188004 0.398512
-0.112091 -0.187874 0.398452
-0.108464 -0.18808 0.397922
-0.104829 -0.187711 0.400192
-0.10097 -0.187475 0.400266
-0.0971019 -0.187398 0.400107
-0.0940767 -0.187786 0.401006
-0.0901662 -0.187675 0.400241
-0.0865322 -0.187374 0.400532
-0.0830292 -0.187578 0.401421
-0.079503 -0.187617 0.400873
-0.0754933 -0.187507 0.401554
-0.0720499 -0.187638 0.400593
-0.0684871 -0.187612 0.40042
-0.0646704 -0.187605 0.400197
-0.0616079 -0.187355 0.400299
-0.057414 -0.187554 0.399395
-0.0538872 -0.187931 0.398508
-0.0505528 -0.187829 0.399169
-0.0469217 -0.188018 0.398439
-0.0433429 -0.187992 0.39829
-0.0397804 -0.188264 0.396481
-0.0359364 -0.187675 0.397244
-0.032438 -0.187952 0.39679
-0.0290669 -0.188496 0.394477
-0.0253178 -0.18886 0.393961
-0.0218168 -0.188423 0.393074
-0.018075 -0.188282 0.392503
-0.0145042 -0.188683 0.389841
-0.011012 -0.188974 0.390286
-0.00706844 -0.188984 0.3876
-0.00339625 -0.18917 0.386212
-0.000235055 -0.189254 0.385108
0.00336319 -0.189536 0.384258
0.00702597 -0.189765 0.381932
0.0111236 -0.190014 0.380516
0.0145325 -0.189938 0.37829
0.0183982 -0.190272 0.376634
0.0219274 -0.190263 0.375229
0.0259588 -0.190384 0.373046
0.0292925 -0.190975 0.371615
0.0329104 -0.191069 0.368828
0.0365431 -0.191504 0.367597
0.0406582 -0.191775 0.365259
0.0442779 -0.192061 0.362879
0.048155 -0.192224 0.361017
0.0516036 -0.192421 0.358622
0.0557342 -0.193098 0.355797
0.0595257 -0.192969 0.353314
0.0629238 -0.193563 0.35134
0.0669586 -0.193477 0.34787
0.0710264 -0.19404 0.345086
0.0750312 -0.194728 0.341296
0.0785599 -0.194696 0.339368
0.082855 -0.195113 0.335808
0.08628 -0.19559 0.333074
0.0905512 -0.196065 0.329682
0.0941838 -0.196216 0.325358
0.0984778 -0.196268 0.323031
0.10258 -0.197572 0.318509
0.106371 -0.197878 0.313938
0.110975 -0.197917 0.309116
0.114564 -0.198616 0.305037
0.119248 -0.199172 0.29984
0.123367 -0.200102 0.294527
0.126932 -0.200758 0.291645
0.131421 -0.201162 0.285338
0.135307 -0.201454 0.280123
0.140273 -0.202563 0.274173
0.144402 -0.202898 0.267519
0.149369 -0.20446 0.258365
0.153898 -0.205326 0.251563
0.158676 -0.206217 0.24201
0.16331 -0.206632 0.234377
0.167761 -0.2079 0.227773
0.172697 -0.208836 0.219215
0.178155 -0.209573 0.209781
0.182757 -0.210955 0.201669
0.187361 -0.212299 0.193516
0.19264 -0.21263 0.185281
0.197317 -0.213706 0.17937
0.20269 -0.214735 0.167992
0.20855 -0.216628 0.150823
0.215964 -0.219787 0.125626
0.222592 -0.223044 0.0993477
0.230199 -0.22604 0.0737929
0.237518 -0.229024 0.0496058
-0.371809 -0.212867 0.146969
-0.357015 -0.206912 0.202012
-0.350426 -0.205784 0.214881
-0.343092 -0.20371 0.22798
-0.338307 -0.202844 0.235974
-0.332458 -0.201307 0.245778
-0.32718 -0.200951 0.251777
-0.321953 -0.200516 0.259721
-0.31671 -0.199554 0.266822
-0.311191 -0.198204 0.275016
-0.306249 -0.197667 0.282705
-0.300223 -0.196784 0.292304
-0.295567 -0.195403 0.299297
-0.290327 -0.195348 0.305843
-0.285471 -0.194107 0.311531
-0.281009 -0.193862 0.315449
-0.276628 -0.193247 0.320141
-0.272367 -0.192898 0.323491
-0.267773 -0.192042 0.327952
-0.263363 -0.191655 0.332052
-0.259002 -0.191539 0.336404
-0.254043 -0.191056 0.341617
-0.250141 -0.190429 0.344503
-0.24557 -0.189954 0.348223
-0.241902 -0.18942 0.350676
-0.237209 -0.18916 0.35522
-0.233022 -0.188883 0.357703
-0.229722 -0.188652 0.359793
-0.22528 -0.188087 0.362032
-0.221184 -0.18826 0.364626
-0.217227 -0.187631 0.367692
-0.21336 -0.187957 0.369074
-0.208845 -0.18755 0.372552
-0.205372 -0.187142 0.374716
-0.201402 -0.186735 0.37682
-0.197724 -0.187015 0.377622
-0.193529 -0.186233 0.380252
-0.189672 -0.186204 0.382442
-0.185604 -0.185984 0.384585
-0.182106 -0.185604 0.386567
-0.178491 -0.185458 0.387267
-0.174379 -0.185141 0.389698
-0.170593 -0.185088 0.389942
-0.16682 -0.184975 0.390826
-0.163269 -0.184978 0.39096
-0.159401 -0.184797 0.39308
-0.155734 -0.184574 0.392016
-0.152321 -0.184764 0.393318
-0.148528 -0.184952 0.393952
-0.144563 -0.184713 0.394628
-0.141277 -0.184697 0.395078
-0.137345 -0.184639 0.395396
-0.134055 -0.184493 0.395453
-0.130328 -0.184615 0.395252
-0.126194 -0.184307 0.397249
-0.122981 -0.184163 0.396877
-0.119231 -0.184477 0.397444
-0.115868 -0.183749 0.398641
-0.111681 -0.183905 0.399091
-0.10856 -0.183909 0.399734
-0.104593 -0.183933 0.400515
-0.100965 -0.18368 0.399922
-0.0974579 -0.183706 0.400226
-0.0938099 -0.184034 0.400501
-0.0900773 -0.18392 0.400435
-0.0862677 -0.183596 0.400608
-0.0830656 -0.183363 0.401299
-0.079231 -0.184131 0.400609
-0.0755424 -0.183824 0.402123
-0.071883 -0.184174 0.399673
-0.0684158 -0.183688 0.399779
-0.0643371 -0.183925 0.400244
-0.061455 -0.183726 0.400024
-0.0577293 -0.18404 0.400002
-0.0543633 -0.184197 0.399409
-0.05039 -0.184299 0.398341
-0.0467181 -0.183988 0.398534
-0.0434383 -0.184428 0.397685
-0.0394064 -0.184429 0.39699
-0.036004 -0.184612 0.395557
-0.0325449 -0.184489 0.395042
-0.0290436 -0.184719 0.395329
-0.0256142 -0.184833 0.393719
-0.0216408 -0.184812 0.393242
-0.0184618 -0.184649 0.392176
-0.014501 -0.185064 0.390518
-0.0107341 -0.185072 0.388874
-0.00717506 -0.185272 0.387225
-0.00314873 -0.185584 0.386868
-0.000131661 -0.185651 0.385308
0.00381944 -0.186181 0.383382
0.00739818 -0.186163 0.381398
0.0110791 -0.186242 0.380673
0.0148024 -0.186745 0.378707
0.0183005 -0.18684 0.37692
0.0220279 -0.186715 0.375986
0.0254503 -0.187156 0.37356
0.0291913 -0.187466 0.371368
0.0329733 -0.187749 0.370172
0.0366758 -0.187619 0.368351
0.0404868 -0.188055 0.365366
0.0440994 -0.187918 0.364215
0.0481706 -0.188626 0.362074
0.0517437 -0.188536 0.359606
0.0558349 -0.188861 0.356906
0.0594749 -0.189422 0.35505
0.0630969 -0.189414 0.35264
0.0670373 -0.189828 0.350049
0.0710257 -0.190365 0.345775
0.0742044 -0.190273 0.344313
0.078669 -0.191044 0.340549
0.0826458 -0.191137 0.337203
0.0862761 -0.191332 0.334271
0.0906798 -0.192152 0.330131
0.0943652 -0.192471 0.327082
0.0979885 -0.19289 0.322814
0.102455 -0.193613 0.317683
0.106135 -0.193758 0.31405
0.110727 -0.19411 0.308696
0.114825 -0.194928 0.303827
0.119052 -0.195429 0.300009
0.122661 -0.196272 0.295913
0.127681 -0.196848 0.28986
0.131364 -0.197533 0.284926
0.135504 -0.197852 0.280012
0.139889 -0.198895 0.27308
0.145065 -0.199515 0.26515
0.149056 -0.20032 0.25923
0.154248 -0.201258 0.250076
0.159199 -0.202367 0.241216
0.163186 -0.203178 0.234161
0.167597 -0.203887 0.227332
0.172557 -0.204639 0.219063
0.177397 -0.206196 0.210263
0.183053 -0.207205 0.199456
0.187516 -0.20788 0.194099
0.192587 -0.209063 0.185994
0.197132 -0.209225 0.179337
0.202113 -0.210479 0.168687
0.20841 -0.212594 0.151922
0.214659 -0.214837 0.132007
0.223005 -0.218902 0.0999916
0.229699 -0.220917 0.0783212
0.236878 -0.223662 0.0534477
-0.356579 -0.202832 0.202552
-0.350273 -0.201276 0.21511
-0.343362 -0.199826 0.228588
-0.337727 -0.198699 0.237986
-0.331835 -0.197668 0.247354
-0.326828 -0.196918 0.254289
-0.322266 -0.196448 0.258934
-0.316288 -0.195448 0.267576
-0.311045 -0.194427 0.275161
-0.305962 -0.193973 0.283615
-0.300454 -0.192823 0.292122
-0.295479 -0.191891 0.29956
-0.290252 -0.191499 0.3059
-0.285344 -0.190664 0.311269
-0.281298 -0.189954 0.315031
-0.276512 -0.189165 0.319884
-0.271795 -0.188943 0.324516
-0.267598 -0.188465 0.328468
-0.263277 -0.188102 0.332418
-0.258605 -0.187551 0.337061
-0.254283 -0.186952 0.34134
-0.249967 -0.186958 0.344194
-0.245851 -0.186361 0.348198
-0.241749 -0.185797 0.35118
-0.237908 -0.185974 0.353127
-0.233412 -0.185019 0.357344
-0.229367 -0.184906 0.359753
-0.224635 -0.184512 0.363733
-0.221183 -0.184525 0.364759
-0.217415 -0.184078 0.367003
-0.21359 -0.184132 0.368742
-0.209517 -0.183429 0.371395
-0.205152 -0.183408 0.374544
-0.201428 -0.182936 0.376784
-0.197437 -0.182809 0.379104
-0.193825 -0.182481 0.380532
-0.189756 -0.182038 0.382062
-0.185912 -0.18233 0.384415
-0.182051 -0.182375 0.385741
-0.178279 -0.181649 0.387607
-0.174556 -0.181722 0.388289
-0.1704 -0.181946 0.389417
-0.166914 -0.18143 0.390735
-0.163436 -0.181648 0.390568
-0.159519 -0.181327 0.392017
-0.155647 -0.181442 0.392735
-0.151924 -0.181048 0.393175
-0.148478 -0.18136 0.393491
-0.144941 -0.180984 0.393435
-0.141217 -0.181204 0.39442
-0.137584 -0.181011 0.395047
-0.134081 -0.180728 0.395597
-0.130474 -0.180744 0.396045
-0.126806 -0.180773 0.396519
-0.122842 -0.180676 0.397827
-0.119001 -0.180221 0.397977
-0.115832 -0.180484 0.398836
-0.112157 -0.180511 0.397727
-0.108289 -0.180601 0.398726
-0.104452 -0.180607 0.399397
-0.101244 -0.180257 0.400349
-0.0971799 -0.180239 0.40051
-0.093578 -0.180608 0.40115
-0.0903382 -0.180342 0.399607
-0.0867067 -0.180505 0.400887
-0.0828732 -0.180233 0.400246
-0.079098 -0.180647 0.399995
-0.0758498 -0.180178 0.400686
-0.0720762 -0.180271 0.400615
-0.0688731 -0.180177 0.40037
-0.0647725 -0.180093 0.401264
-0.0615951 -0.180385 0.399936
-0.0580405 -0.180546 0.400549
-0.0546061 -0.18058 0.39902
-0.0505842 -0.180976 0.398291
-0.0471246 -0.180442 0.398746
-0.0431993 -0.180796 0.397697
-0.0398885 -0.181038 0.396577
-0.0359203 -0.180766 0.396714
-0.0326054 -0.181156 0.39501
-0.0288124 -0.181051 0.394738
-0.0253889 -0.181157 0.393182
-0.0221271 -0.180993 0.392647
-0.0179323 -0.181457 0.391477
-0.0145209 -0.181476 0.389691
-0.0109782 -0.181552 0.389948
-0.00735588 -0.181845 0.387624
-0.00337086 -0.181999 0.386394
0.000103538 -0.181879 0.385608
0.00367673 -0.181853 0.383849
0.00730095 -0.182739 0.381394
0.0108099 -0.182445 0.381295
0.0147428 -0.18261 0.379418
0.0186287 -0.182693 0.377081
0.0219924 -0.182901 0.376081
0.0258548 -0.183465 0.373766
0.0290825 -0.183553 0.372503
0.0330793 -0.183788 0.37049
0.036644 -0.183733 0.368771
0.0401789 -0.184187 0.367475
0.044357 -0.184104 0.365494
0.0478315 -0.184108 0.364043
0.0514641 -0.184866 0.361853
0.0556088 -0.18497 0.359215
0.0595697 -0.185727 0.355783
0.0632618 -0.185424 0.353674
0.0671403 -0.185921 0.351307
0.0708922 -0.186245 0.348303
0.0746445 -0.186193 0.344857
0.0789593 -0.186879 0.342165
0.0825563 -0.187723 0.338207
0.0860302 -0.187681 0.33479
0.0900328 -0.187721 0.331263
0.0943083 -0.188765 0.327203
0.098125 -0.189124 0.32355
0.102403 -0.189766 0.318071
0.106511 -0.190295 0.312859
0.110136 -0.190597 0.308131
0.114391 -0.191119 0.304538
0.119188 -0.192196 0.298023
0.123338 -0.192966 0.294532
0.127247 -0.192937 0.28941
0.131377 -0.193765 0.284694
0.135923 -0.194047 0.27931
0.140382 -0.194352 0.272555
0.144853 -0.195779 0.264697
0.149429 -0.196235 0.256831
0.153958 -0.196853 0.249123
0.158349 -0.198368 0.242544
0.162952 -0.198983 0.234891
0.167802 -0.199867 0.227333
0.172658 -0.200987 0.219425
0.177409 -0.201998 0.210641
0.182383 -0.20315 0.202503
0.187825 -0.203791 0.192646
0.191951 -0.204454 0.186341
0.197318 -0.205896 0.178304
0.202429 -0.207 0.167957
0.208526 -0.208754 0.150901
0.214636 -0.210777 0.131966
0.22246 -0.213849 0.104615
0.229236 -0.216012 0.0817997
0.237919 -0.220125 0.0502093
-0.356495 -0.19871 0.203241
-0.349761 -0.197062 0.216218
-0.34377 -0.195566 0.228013
-0.337806 -0.194687 0.238598
-0.33188 -0.193805 0.247211
-0.326983 -0.193038 0.253625
-0.322324 -0.191996 0.259041
-0.316028 -0.19138 0.268136
-0.311029 -0.190496 0.275577
-0.305821 -0.189745 0.283169
-0.300359 -0.188649 0.292302
-0.295295 -0.187798 0.29986
-0.290423 -0.187162 0.305648
-0.285519 -0.18661 0.310914
-0.280876 -0.186052 0.316418
-0.276717 -0.185461 0.320125
-0.272275 -0.184964 0.323697
-0.267437 -0.18446 0.328702
-0.263191 -0.184275 0.332538
-0.258836 -0.183727 0.336724
-0.254257 -0.183317 0.341521
-0.249811 -0.182707 0.344602
-0.245924 -0.182924 0.347598
-0.241331 -0.182111 0.352252
-0.237619 -0.182172 0.353948
-0.233341 -0.181323 0.357828
-0.22944 -0.181475 0.360044
-0.225384 -0.181136 0.362976
-0.221054 -0.1807 0.364877
-0.217266 -0.180264 0.367317
-0.213415 -0.180301 0.3696
-0.20934 -0.179916 0.371975
-0.205469 -0.179763 0.373606
-0.2016 -0.179249 0.376128
-0.197678 -0.179293 0.378366
-0.193268 -0.179093 0.38118
-0.189428 -0.178781 0.381773
-0.185661 -0.178835 0.384787
-0.182286 -0.178425 0.385839
-0.178527 -0.1785 0.386975
-0.174023 -0.177951 0.389682
-0.17143 -0.177863 0.388512
-0.167192 -0.177964 0.389957
-0.163068 -0.177694 0.391693
-0.159394 -0.177853 0.391449
-0.155846 -0.17807 0.392102
-0.152689 -0.177707 0.392638
-0.148709 -0.177737 0.392341
-0.145145 -0.177277 0.39419
-0.141329 -0.177275 0.394924
-0.137688 -0.177225 0.395657
-0.133789 -0.177249 0.395571
-0.130104 -0.17727 0.39632
-0.126394 -0.177122 0.396581
-0.122624 -0.176967 0.396807
-0.11931 -0.177183 0.396893
-0.115736 -0.177002 0.397579
-0.111856 -0.176905 0.398504
-0.108311 -0.177047 0.398917
-0.104633 -0.177022 0.399333
-0.101169 -0.176841 0.399906
-0.0973901 -0.177115 0.398975
-0.093837 -0.176897 0.400278
-0.0899356 -0.177092 0.400598
-0.086642 -0.176899 0.400018
-0.0830123 -0.176691 0.401672
-0.0795611 -0.17665 0.400774
-0.0760634 -0.176652 0.400588
-0.0719716 -0.176871 0.401333
-0.0686887 -0.176577 0.400212
-0.0648227 -0.176632 0.401052
-0.0614971 -0.177046 0.399156
-0.0576145 -0.176685 0.400064
-0.0539386 -0.176818 0.398971
-0.0506633 -0.176838 0.398561
-0.0468501 -0.177028 0.397994
-0.0432896 -0.176957 0.397847
-0.0398111 -0.177212 0.396591
-0.0362745 -0.177205 0.395663
-0.032861 -0.17712 0.394669
-0.0291807 -0.177621 0.394566
-0.0255089 -0.177679 0.393268
-0.0216675 -0.177528 0.39177
-0.0180121 -0.178024 0.390968
-0.0143874 -0.177669 0.390432
-0.0109353 -0.17789 0.388939
-0.00697854 -0.178337 0.387677
-0.00368885 -0.178026 0.387225
0.000367393 -0.178617 0.38474
0.00358503 -0.178448 0.384712
0.0076137 -0.179099 0.382383
0.0106538 -0.178706 0.381737
0.0146772 -0.179201 0.379178
0.0182575 -0.178799 0.378526
0.021752 -0.179139 0.377046
0.0256535 -0.179615 0.375342
0.0294205 -0.179508 0.373092
0.0331313 -0.179969 0.372583
0.0364147 -0.179898 0.370443
0.0404062 -0.180571 0.3676
0.0440527 -0.180203 0.367228
0.0478858 -0.180994 0.364446
0.0515495 -0.180841 0.362571
0.0554231 -0.181072 0.35953
0.0591427 -0.181383 0.357805
0.0632034 -0.181751 0.354393
0.0668406 -0.182005 0.353015
0.0709719 -0.18225 0.349225
0.0746171 -0.182704 0.346799
0.0787996 -0.183085 0.343514
0.0826768 -0.183907 0.339045
0.0866308 -0.184012 0.335231
0.0901405 -0.184187 0.333065
0.094523 -0.185162 0.326828
0.0983614 -0.185527 0.321991
0.102503 -0.186328 0.317642
0.106838 -0.186916 0.311699
0.110823 -0.187154 0.30752
0.11489 -0.187548 0.302128
0.11896 -0.188101 0.297463
0.123149 -0.188601 0.294211
0.127443 -0.189259 0.288777
0.131811 -0.189782 0.282906
0.136032 -0.190152 0.278203
0.140465 -0.191089 0.27149
0.144712 -0.191851 0.265193
0.148923 -0.192513 0.257112
0.154002 -0.19338 0.250001
0.158679 -0.194154 0.242252
0.16331 -0.195314 0.233809
0.168072 -0.195964 0.226837
0.172042 -0.196952 0.220486
0.177682 -0.197581 0.209937
0.182192 -0.198319 0.202994
0.187361 -0.199602 0.1938
0.192202 -0.200521 0.186176
0.197582 -0.201164 0.177461
0.203417 -0.203071 0.165185
0.208421 -0.204464 0.150598
0.215026 -0.206471 0.1311
0.222515 -0.209302 0.106205
0.228311 -0.210948 0.0876871
0.236705 -0.215057 0.0558925
-0.356582 -0.194828 0.202528
-0.350308 -0.193409 0.215089
-0.34347 -0.191386 0.228536
-0.337803 -0.190465 0.238201
-0.332309 -0.189782 0.24639
-0.327109 -0.188946 0.254041
-0.321481 -0.18829 0.260951
-0.316886 -0.187611 0.26599
-0.311011 -0.186539 0.274817
-0.305887 -0.185594 0.283262
-0.300254 -0.184737 0.29293
-0.295489 -0.183959 0.299548
-0.290243 -0.183367 0.305682
-0.285243 -0.183129 0.311008
-0.281042 -0.182453 0.315349
-0.276482 -0.182029 0.319818
-0.272077 -0.181752 0.324111
-0.267584 -0.180683 0.328315
-0.263414 -0.180298 0.33213
-0.258956 -0.180126 0.336836
-0.254068 -0.179957 0.341741
-0.249977 -0.178909 0.345354
-0.245663 -0.178814 0.348709
-0.241467 -0.178433 0.352002
-0.237585 -0.17813 0.354777
-0.233517 -0.177765 0.357595
-0.228694 -0.177274 0.360847
-0.225035 -0.177184 0.363008
-0.221332 -0.176748 0.365353
-0.217137 -0.176554 0.367793
-0.213403 -0.176557 0.36994
-0.209102 -0.176361 0.372447
-0.205047 -0.17575 0.375177
-0.201461 -0.17574 0.376405
-0.197774 -0.175708 0.378538
-0.193754 -0.175366 0.38027
-0.189723 -0.175079 0.381792
-0.185688 -0.174646 0.384508
-0.181951 -0.17498 0.384695
-0.178364 -0.174536 0.38782
-0.174298 -0.174733 0.388763
-0.171078 -0.174257 0.388363
-0.16714 -0.174469 0.389982
-0.163632 -0.174311 0.390582
-0.159468 -0.174264 0.390856
-0.156003 -0.174524 0.391327
-0.152026 -0.173881 0.393175
-0.148701 -0.173932 0.392425
-0.144806 -0.173482 0.393864
-0.14138 -0.17396 0.394179
-0.1377 -0.17371 0.394675
-0.133871 -0.173899 0.394381
-0.130245 -0.173429 0.396212
-0.126761 -0.173368 0.396124
-0.123092 -0.173677 0.397297
-0.119468 -0.173481 0.397206
-0.116095 -0.173543 0.397436
-0.111668 -0.173616 0.398417
-0.108491 -0.173238 0.398749
-0.104886 -0.173281 0.398848
-0.101205 -0.17349 0.398918
-0.0973055 -0.173107 0.399978
-0.0938905 -0.173589 0.400293
-0.0904362 -0.173244 0.399891
-0.0870345 -0.17295 0.401305
-0.0831619 -0.172951 0.400584
-0.0792689 -0.173335 0.400595
-0.0757617 -0.173204 0.400719
-0.0722466 -0.173562 0.399846
-0.0686026 -0.173352 0.40024
-0.0653391 -0.173228 0.398606
-0.0614222 -0.1737 0.399597
-0.0575007 -0.173365 0.399841
-0.0540246 -0.173262 0.398566
-0.0505433 -0.173341 0.398527
-0.0470193 -0.17338 0.397462
-0.0432311 -0.173397 0.396567
-0.0398328 -0.17367 0.39627
-0.0364469 -0.173647 0.395367
-0.0327447 -0.173978 0.39517
-0.0290712 -0.173937 0.393803
-0.0250962 -0.174149 0.39226
-0.0217588 -0.173982 0.392277
-0.0178824 -0.174287 0.391093
-0.0146022 -0.17419 0.389665
-0.0105852 -0.174048 0.390307
-0.00723446 -0.174676 0.388468
-0.00378044 -0.174657 0.387109
-4.36699e-05 -0.174847 0.386211
0.00358692 -0.174703 0.384729
0.00716534 -0.174589 0.384085
0.0108933 -0.175121 0.38321
0.0146663 -0.175304 0.380246
0.0182584 -0.175435 0.379334
0.0221604 -0.175778 0.377482
0.0255512 -0.175656 0.37606
0.0293625 -0.176056 0.373727
0.0327536 -0.176335 0.372251
0.0364884 -0.176179 0.371117
0.0404023 -0.176447 0.368855
0.0443544 -0.176711 0.367261
0.0480186 -0.176603 0.366256
0.0515659 -0.177086 0.364223
0.0555102 -0.177666 0.361427
0.0593177 -0.17719 0.359988
0.0628998 -0.177824 0.35709
0.0666737 -0.177979 0.354039
0.0708073 -0.178687 0.351239
0.0741547 -0.178846 0.348262
0.0784296 -0.179393 0.344077
0.082017 -0.17979 0.341137
0.0864686 -0.179636 0.33616
0.0903218 -0.180858 0.331944
0.0944684 -0.18085 0.32718
0.0986617 -0.181653 0.322082
0.102245 -0.181947 0.3173
0.106502 -0.182886 0.311542
0.110839 -0.183208 0.304876
0.115054 -0.183733 0.301378
0.119087 -0.184153 0.297137
0.12332 -0.185086 0.293011
0.127665 -0.185117 0.288539
0.131392 -0.185645 0.283766
0.136037 -0.186558 0.277785
0.140501 -0.187106 0.270366
0.144999 -0.187624 0.264549
0.149368 -0.188838 0.256063
0.153912 -0.189576 0.249232
0.158541 -0.190383 0.241824
0.163583 -0.19125 0.233263
0.168053 -0.191996 0.226487
0.172741 -0.193014 0.219072
0.177675 -0.193523 0.209842
0.18245 -0.194917 0.202267
0.187469 -0.195527 0.193743
0.193038 -0.1969 0.183946
0.197369 -0.197344 0.177707
0.202707 -0.198746 0.165666
0.208982 -0.200394 0.147532
0.215318 -0.202686 0.129634
0.221399 -0.204573 0.110885
0.228832 -0.207302 0.0882568
0.236862 -0.210411 0.0561203
-0.357997 -0.190808 0.197818
-0.350078 -0.189385 0.21533
-0.343649 -0.18807 0.227569
-0.337617 -0.186832 0.237958
-0.332546 -0.185814 0.245722
-0.326756 -0.184622 0.254555
-0.321853 -0.184423 0.260303
-0.316758 -0.183505 0.266154
-0.311565 -0.182818 0.272965
-0.305854 -0.182135 0.282631
-0.300658 -0.181202 0.291546
-0.295435 -0.180288 0.299526
-0.290269 -0.179556 0.305831
-0.285553 -0.178965 0.310578
-0.281259 -0.178529 0.315101
-0.276446 -0.178092 0.319709
-0.272146 -0.17759 0.32413
-0.267624 -0.177456 0.328659
-0.263665 -0.176657 0.331169
-0.259289 -0.176409 0.336079
-0.254196 -0.175959 0.341266
-0.250003 -0.175301 0.345352
-0.245901 -0.174644 0.347984
-0.24184 -0.174694 0.351456
-0.237792 -0.174822 0.35402
-0.233271 -0.173926 0.357028
-0.229324 -0.173801 0.360333
-0.225335 -0.173555 0.362833
-0.22107 -0.173208 0.365749
