ply
format ascii 1.0
element vertex 1616
property float x
property float y
property float z
end_header
0.145417 -0.015892 0.254766
0.149585 -0.0159373 0.25404
0.153843 -0.0157187 0.252769
0.157756 -0.0155844 0.251371
0.161541 -0.015788 0.251506
0.165958 -0.0155373 0.248451
0.169761 -0.0156489 0.246984
0.174393 -0.0158781 0.245719
0.178146 -0.0154814 0.245127
0.182557 -0.0158328 0.242416
0.186251 -0.0157863 0.242187
0.190456 -0.0157492 0.240496
0.194892 -0.0159174 0.237806
0.198695 -0.0159285 0.236557
0.203444 -0.0159196 0.233252
0.207148 -0.0162317 0.232612
0.211752 -0.0160831 0.229646
0.215513 -0.0159612 0.228044
0.220315 -0.0159999 0.224853
0.224164 -0.0161019 0.224229
0.22877 -0.0159356 0.221997
0.232709 -0.0161548 0.221826
0.236758 -0.0163561 0.221213
0.240713 -0.0159749 0.220304
0.24512 -0.0163096 0.220365
0.248934 -0.0158358 0.219111
0.2525 -0.0160898 0.220275
0.257577 -0.0158741 0.21891
0.260957 -0.0162208 0.218999
0.264904 -0.0161451 0.219063
0.269266 -0.0157903 0.218183
0.273722 -0.0161213 0.217302
0.277323 -0.0162275 0.217077
0.281782 -0.0163266 0.216231
0.285974 -0.0158379 0.213025
0.290422 -0.0161671 0.211062
0.294502 -0.0158369 0.209554
0.299668 -0.0160139 0.205818
0.303767 -0.0161364 0.203465
0.308586 -0.0162729 0.200138
0.313744 -0.0161274 0.194718
0.318176 -0.0163508 0.191447
0.323365 -0.0164263 0.185949
0.328133 -0.0166356 0.180599
0.333643 -0.016524 0.174311
0.339089 -0.0162939 0.166382
0.344636 -0.0163762 0.159613
0.350139 -0.0166309 0.151493
0.355954 -0.0165953 0.144346
0.361665 -0.016676 0.135319
0.367805 -0.0169048 0.126248
0.373833 -0.0168171 0.115171
0.381661 -0.0169759 0.0975976
-0.390673 -0.012097 0.250873
-0.382837 -0.0119699 0.268064
-0.376691 -0.0118914 0.277403
-0.371513 -0.0115202 0.28479
-0.366316 -0.0113644 0.291343
-0.36076 -0.0111562 0.298017
-0.355232 -0.01165 0.304607
-0.350898 -0.0113073 0.309368
-0.346009 -0.0113853 0.315008
-0.34089 -0.0113129 0.320475
-0.336697 -0.0113117 0.32313
-0.332353 -0.0112693 0.32636
-0.327982 -0.0115564 0.328726
-0.323914 -0.0110561 0.330654
-0.31968 -0.0111124 0.333469
-0.315265 -0.0110848 0.336413
-0.310905 -0.010985 0.338792
-0.307015 -0.0113147 0.340395
-0.3025 -0.0113413 0.343387
-0.298175 -0.011126 0.345974
-0.294494 -0.0111269 0.347949
-0.290144 -0.0111825 0.350084
-0.285949 -0.0112002 0.352411
-0.282024 -0.0114161 0.353788
-0.278134 -0.0110653 0.356052
-0.27399 -0.0110617 0.356994
-0.270704 -0.0112359 0.356952
-0.266786 -0.0109631 0.358847
-0.262637 -0.0110251 0.360689
-0.258927 -0.0111729 0.360555
-0.255001 -0.0110136 0.360735
-0.250827 -0.0112069 0.361615
-0.247725 -0.0111433 0.361066
-0.243843 -0.0108834 0.360447
-0.24037 -0.0109557 0.36113
-0.236535 -0.0110918 0.35998
-0.232908 -0.0113524 0.360913
-0.22913 -0.0108291 0.359829
-0.225467 -0.0113566 0.360026
-0.222005 -0.0110642 0.360071
-0.21843 -0.0112806 0.359769
-0.214605 -0.0110908 0.360509
-0.210761 -0.0113786 0.360287
-0.207308 -0.011598 0.359781
-0.203628 -0.0111887 0.359108
-0.199655 -0.0111487 0.35964
-0.196128 -0.0110734 0.358623
-0.19273 -0.0111747 0.358832
-0.188907 -0.0111456 0.357846
-0.185225 -0.0110929 0.357886
-0.18179 -0.0113585 0.355792
-0.177924 -0.0109911 0.355946
-0.174395 -0.0110947 0.355499
-0.170533 -0.0111538 0.354152
-0.166753 -0.0111865 0.353612
-0.163413 -0.0112906 0.352886
-0.160023 -0.0114466 0.351966
-0.156171 -0.0108593 0.349853
-0.152676 -0.0112245 0.349818
-0.148611 -0.0109969 0.347809
-0.145423 -0.0109277 0.346475
-0.141949 -0.0109762 0.344872
-0.137935 -0.0113358 0.343671
-0.13472 -0.0114514 0.342569
-0.131151 -0.0112989 0.34126
-0.127232 -0.0110894 0.338427
-0.123702 -0.011546 0.337434
-0.120342 -0.0110601 0.33392
-0.116651 -0.0111461 0.331757
-0.113039 -0.0114755 0.330117
-0.109496 -0.0115427 0.329124
-0.105609 -0.0114433 0.327346
-0.101911 -0.0114702 0.326632
-0.0983587 -0.0111884 0.325035
-0.0945173 -0.011482 0.324878
-0.0908705 -0.0111239 0.323322
-0.087241 -0.0110461 0.322475
-0.0833521 -0.0113366 0.322164
-0.0795082 -0.0112585 0.320974
-0.0757093 -0.0115532 0.320012
-0.0721818 -0.0116838 0.318019
-0.0681447 -0.0113539 0.316565
-0.0646827 -0.0114468 0.314233
-0.0607775 -0.0114381 0.31196
-0.0571322 -0.011537 0.310414
-0.0532639 -0.0116956 0.306673
-0.0496403 -0.0115539 0.304126
-0.0461674 -0.0114052 0.30109
-0.0422741 -0.0116059 0.297538
-0.0382102 -0.0117804 0.296708
-0.0344323 -0.0114055 0.294272
-0.0304947 -0.0116541 0.29261
-0.026924 -0.0114595 0.292095
-0.0230854 -0.0116617 0.290328
-0.0192303 -0.0117826 0.290773
-0.0154801 -0.0113253 0.289331
-0.0117461 -0.0117322 0.289683
-0.00760243 -0.0116378 0.288686
-0.00399928 -0.0115364 0.287999
-1.42826e-05 -0.0114165 0.288409
0.00439178 -0.0117956 0.2879
0.00771144 -0.0114596 0.286632
0.0117283 -0.0119481 0.286761
0.0153639 -0.0118375 0.284669
0.0195504 -0.011406 0.285484
0.0236698 -0.0115776 0.283895
0.0269907 -0.0116467 0.283776
0.030694 -0.0118371 0.283514
0.0349024 -0.011708 0.283605
0.0386149 -0.0117262 0.282731
0.0425661 -0.0112758 0.281904
0.0463395 -0.0114234 0.281693
0.0505079 -0.0116026 0.280726
0.0543293 -0.0117467 0.280972
0.0581262 -0.0116363 0.281103
0.0619958 -0.0116572 0.278926
0.0659566 -0.0117857 0.278266
0.0699115 -0.0116706 0.277129
0.0742743 -0.0116383 0.275767
0.0779146 -0.011609 0.274628
0.0818389 -0.0118151 0.273003
0.0859784 -0.0116881 0.270929
0.08952 -0.0112688 0.27008
0.093607 -0.0113185 0.26819
0.0975496 -0.0116902 0.26719
0.101823 -0.0117057 0.267386
0.105642 -0.0116583 0.264234
0.109164 -0.0116171 0.264104
0.113475 -0.0118492 0.262879
0.117493 -0.0117359 0.26232
0.121564 -0.011689 0.260773
0.12566 -0.0116998 0.260453
0.129611 -0.0116008 0.25866
0.133374 -0.0116171 0.257653
0.13765 -0.0115977 0.256702
0.141656 -0.0116581 0.255928
0.145235 -0.0119355 0.254282
0.14969 -0.0118046 0.252615
0.153539 -0.0120101 0.252538
0.157923 -0.0118256 0.251416
0.162286 -0.0115504 0.249222
0.16628 -0.0119997 0.247454
0.170132 -0.0119566 0.247565
0.173924 -0.0119212 0.246093
0.178047 -0.0115015 0.244385
0.182332 -0.0116838 0.242149
0.186389 -0.0115466 0.242139
0.190701 -0.0119549 0.238816
0.194855 -0.0118773 0.236851
0.198804 -0.0116237 0.234656
0.203535 -0.0121946 0.232468
0.207443 -0.0119412 0.230613
0.211545 -0.0123481 0.227771
0.215639 -0.0118624 0.225427
0.220404 -0.0120424 0.222878
0.224908 -0.0118882 0.221409
0.228752 -0.0119654 0.219731
0.233154 -0.0118079 0.217429
0.237501 -0.0121633 0.217673
0.240966 -0.0122126 0.216517
0.245625 -0.0124324 0.217201
0.249567 -0.0119057 0.215968
0.253702 -0.0120958 0.216747
0.257412 -0.0123075 0.215713
0.261452 -0.0122385 0.214732
0.265707 -0.0123439 0.214877
0.269893 -0.0119284 0.213453
0.274305 -0.0119363 0.212742
0.277728 -0.0123637 0.21337
0.282526 -0.0120914 0.210737
0.286507 -0.0119095 0.208248
0.29125 -0.012212 0.206244
0.295933 -0.0117999 0.203341
0.299817 -0.0119166 0.201962
0.304743 -0.0121597 0.198723
0.309507 -0.0123323 0.194699
0.314516 -0.0119738 0.189488
0.319048 -0.0126072 0.186396
0.323785 -0.0124245 0.180818
0.329755 -0.0123534 0.173673
0.334307 -0.0127176 0.168631
0.340286 -0.0123604 0.159889
0.345881 -0.0121508 0.151459
0.351253 -0.0123736 0.145487
0.357285 -0.0124649 0.137218
0.362397 -0.0128405 0.131037
0.369198 -0.0133128 0.120056
0.375009 -0.0126303 0.108163
0.384505 -0.0132161 0.0837896
-0.383519 -0.00793932 0.264861
-0.377551 -0.00765906 0.274087
-0.372068 -0.00769909 0.28246
-0.366509 -0.00789474 0.289444
-0.36121 -0.00760709 0.295915
-0.35619 -0.00795842 0.301962
-0.35097 -0.00747003 0.307681
-0.345649 -0.00778557 0.314187
-0.341618 -0.00716403 0.317386
-0.336768 -0.00758204 0.322491
-0.332317 -0.00752157 0.324825
-0.327867 -0.00754312 0.327396
-0.324107 -0.00725738 0.32942
-0.319487 -0.0076419 0.332685
-0.315746 -0.00745287 0.335264
-0.310862 -0.00757894 0.338557
-0.306724 -0.00751976 0.340166
-0.302581 -0.00732956 0.34362
-0.299089 -0.00748159 0.345371
-0.294493 -0.00734243 0.348277
-0.290546 -0.00723834 0.349832
-0.286005 -0.00760291 0.352802
-0.282501 -0.00723916 0.353582
-0.277775 -0.00774517 0.3562
-0.274013 -0.00756106 0.356692
-0.269992 -0.00746017 0.358546
-0.266949 -0.00759318 0.359106
-0.262583 -0.00727345 0.360408
-0.258985 -0.00717768 0.361479
-0.254956 -0.00716933 0.360842
-0.251307 -0.00749128 0.360517
-0.247555 -0.00739615 0.360721
-0.244263 -0.00758524 0.359428
-0.240393 -0.00758857 0.359765
-0.236841 -0.00717201 0.359692
-0.233356 -0.00762763 0.358639
-0.229405 -0.0073672 0.358987
-0.225811 -0.00745458 0.358785
-0.221833 -0.00736464 0.358032
-0.218302 -0.00720432 0.358435
-0.214925 -0.00736329 0.358026
-0.211034 -0.00740448 0.358398
-0.207424 -0.0074564 0.3586
-0.203681 -0.00763854 0.357261
-0.200232 -0.00733811 0.35731
-0.196693 -0.00716774 0.357175
-0.192844 -0.00758371 0.356282
-0.188982 -0.00729627 0.355353
-0.185607 -0.00720997 0.354868
-0.181772 -0.00732645 0.354254
-0.177853 -0.0077337 0.355098
-0.17459 -0.00799176 0.353642
-0.171069 -0.00731308 0.352316
-0.167 -0.00770302 0.351381
-0.163585 -0.00778837 0.351203
-0.159968 -0.007073 0.349028
-0.156929 -0.0075687 0.348441
-0.152808 -0.00701769 0.347779
-0.149255 -0.00728917 0.345795
-0.14545 -0.00731102 0.344957
-0.141679 -0.00749602 0.344143
-0.138681 -0.00734907 0.341222
-0.134655 -0.00770262 0.340246
-0.131149 -0.0073977 0.337715
-0.12742 -0.00687238 0.334835
-0.124155 -0.00717353 0.3346
-0.120555 -0.00778757 0.332393
-0.11652 -0.00751812 0.329939
-0.113332 -0.00749131 0.328635
-0.109535 -0.00774577 0.326865
-0.10583 -0.00763779 0.326355
-0.10197 -0.00753582 0.323609
-0.0986501 -0.00737895 0.323608
-0.094675 -0.00752527 0.32204
-0.0910904 -0.00744129 0.320814
-0.0872408 -0.00776236 0.320643
-0.0836246 -0.00777657 0.319735
-0.0793668 -0.00773066 0.319353
-0.0756754 -0.00780941 0.318315
-0.0718911 -0.00797822 0.317465
-0.068576 -0.00733537 0.315212
-0.0646647 -0.00777783 0.313643
-0.060964 -0.00792079 0.309819
-0.0571648 -0.00731837 0.306831
-0.0532095 -0.00763992 0.304049
-0.0499223 -0.00746032 0.300934
-0.0456197 -0.00784746 0.298502
-0.0421898 -0.00768149 0.296083
-0.0384218 -0.0074044 0.293
-0.0349308 -0.00756774 0.291912
-0.0308079 -0.00777554 0.290321
-0.0269698 -0.00748108 0.288959
-0.0232443 -0.00781739 0.288788
-0.0192793 -0.0077182 0.28785
-0.0154118 -0.00785941 0.287457
-0.0113842 -0.00783207 0.286605
-0.00816928 -0.00766713 0.286993
-0.00379412 -0.00784045 0.285441
0.000413528 -0.00803879 0.286949
0.00365301 -0.00802456 0.285669
0.00776402 -0.00779755 0.285258
0.0116441 -0.00819408 0.283765
0.0155306 -0.00792729 0.28319
0.0193772 -0.00789518 0.283185
0.0232656 -0.0077096 0.281807
0.0270667 -0.00796604 0.282293
0.0311989 -0.00775123 0.280068
0.0349844 -0.0076693 0.279774
0.0385126 -0.00813009 0.279555
0.0428904 -0.00769309 0.27904
0.0466937 -0.00762123 0.278959
0.0505376 -0.00768401 0.27827
0.0545079 -0.00781478 0.27849
0.0582306 -0.00739727 0.278082
0.0621357 -0.00767308 0.277176
0.0662267 -0.00775339 0.275574
0.0698952 -0.00773283 0.275392
0.0741403 -0.00775391 0.273858
0.0779212 -0.00792031 0.273379
0.0819507 -0.00787871 0.271894
0.0858582 -0.00810812 0.269758
0.0899158 -0.00787819 0.268386
0.0933677 -0.0077903 0.267043
0.0978657 -0.00794863 0.265447
0.101893 -0.00746959 0.264809
0.105501 -0.00778218 0.264109
0.109681 -0.00760521 0.261612
0.113582 -0.0079375 0.2615
0.117465 -0.00768619 0.261059
0.12169 -0.00778257 0.260831
0.125773 -0.00746134 0.258431
0.12988 -0.00773305 0.257366
0.133525 -0.00788531 0.256817
0.137412 -0.00799513 0.256297
0.141939 -0.00733029 0.255081
0.146099 -0.0081602 0.253669
0.149503 -0.00744574 0.25264
0.154033 -0.00798288 0.251149
0.158062 -0.00830377 0.249953
0.161981 -0.00823207 0.249496
0.16628 -0.00792083 0.247304
0.170003 -0.00784517 0.246093
0.173892 -0.00821185 0.246059
0.178389 -0.00811389 0.244093
0.182417 -0.00781304 0.241325
0.186599 -0.00779133 0.240262
0.190931 -0.00807386 0.238257
0.194897 -0.00815037 0.236198
0.199226 -0.00795653 0.234188
0.203874 -0.00793708 0.230545
0.20757 -0.008049 0.228754
0.212191 -0.00794602 0.225818
0.216583 -0.00787073 0.222809
0.219894 -0.00771607 0.222124
0.224918 -0.00832658 0.218608
0.229135 -0.00832698 0.217158
0.233474 -0.0082113 0.215325
0.237982 -0.00794451 0.213888
0.24219 -0.00805194 0.212869
0.24588 -0.00823838 0.21217
0.250068 -0.00798509 0.210999
0.254101 -0.00793779 0.211132
0.25807 -0.00800764 0.21125
0.262595 -0.00788159 0.209948
0.266436 -0.00805732 0.210209
0.270773 -0.00800425 0.209193
0.274613 -0.00821333 0.208524
0.279114 -0.00806657 0.20673
0.283315 -0.00778533 0.20587
0.287897 -0.00837853 0.203827
0.292201 -0.00820503 0.201119
0.296265 -0.00830048 0.198927
0.300973 -0.0081554 0.195445
0.30603 -0.00848279 0.192518
0.310167 -0.00826656 0.188624
0.314716 -0.00829643 0.185159
0.320133 -0.00778414 0.178931
0.325709 -0.00769368 0.172261
0.330638 -0.00837064 0.168114
0.336016 -0.00853559 0.160616
0.34163 -0.00842415 0.153368
0.347012 -0.00819371 0.146587
0.351845 -0.0086035 0.142307
0.357743 -0.00824072 0.134343
0.363307 -0.00828419 0.126777
0.369891 -0.00854166 0.11485
0.376774 -0.00870844 0.0998894
0.388564 -0.00903057 0.0635993
-0.38383 -0.00419288 0.263264
-0.377829 -0.00402505 0.272559
-0.372072 -0.00390401 0.281153
-0.367138 -0.00395342 0.287265
-0.361319 -0.00381614 0.294871
-0.356961 -0.00401162 0.300151
-0.351442 -0.00367737 0.306451
-0.346256 -0.00378609 0.311713
-0.34136 -0.00423668 0.31732
-0.337192 -0.00376411 0.319821
-0.332688 -0.0037177 0.323947
-0.328757 -0.00386757 0.325927
-0.32375 -0.00359107 0.33015
-0.319599 -0.00388205 0.332225
-0.315415 -0.00331938 0.334229
-0.311167 -0.00383256 0.337308
-0.306838 -0.00364292 0.340448
-0.302438 -0.00386043 0.342956
-0.298472 -0.00333177 0.346216
-0.293824 -0.00370747 0.350105
-0.290086 -0.0036348 0.350771
-0.285735 -0.00344814 0.352879
-0.281607 -0.00361465 0.355202
-0.277594 -0.0039029 0.357009
-0.27397 -0.00361992 0.357436
-0.27009 -0.00375978 0.358781
-0.266403 -0.00392387 0.359459
-0.26207 -0.00357548 0.362452
-0.258448 -0.00362795 0.362033
-0.25515 -0.00351393 0.361116
-0.25139 -0.00369173 0.361368
-0.247618 -0.00373836 0.36148
-0.243918 -0.00360253 0.360805
-0.240565 -0.00366323 0.358912
-0.236855 -0.00380783 0.359319
-0.233305 -0.00362304 0.358947
-0.229652 -0.00360641 0.358328
-0.225752 -0.00393805 0.357625
-0.222363 -0.00366279 0.356914
-0.218619 -0.00347542 0.356875
-0.214908 -0.00375884 0.357483
-0.211115 -0.00356233 0.355998
-0.207765 -0.00362854 0.356726
-0.203833 -0.00375356 0.355762
-0.200312 -0.00392826 0.356312
-0.196894 -0.00343472 0.355168
-0.19337 -0.00342039 0.354515
-0.189064 -0.00402715 0.353773
-0.18594 -0.00373749 0.35412
-0.182332 -0.00389373 0.352683
-0.178554 -0.00367012 0.350981
-0.175025 -0.00403671 0.349786
-0.170952 -0.00413282 0.350293
-0.167874 -0.0036426 0.349111
-0.164032 -0.00357612 0.347729
-0.160138 -0.00331918 0.347871
-0.156653 -0.00389092 0.346284
-0.153393 -0.00374746 0.344256
-0.149673 -0.00352827 0.343562
-0.14613 -0.00386302 0.342859
-0.142198 -0.00361986 0.341131
-0.138572 -0.00393177 0.338684
-0.135165 -0.00351619 0.338351
-0.131337 -0.00373028 0.336159
-0.127574 -0.00379097 0.334245
-0.124109 -0.00400873 0.331798
-0.120276 -0.00379106 0.329828
-0.116582 -0.0038246 0.32857
-0.113201 -0.00385592 0.326738
-0.109284 -0.00381414 0.324853
-0.105751 -0.00368281 0.323549
-0.101978 -0.00373778 0.322196
-0.0983534 -0.00378397 0.321139
-0.0946507 -0.00394207 0.321141
-0.0910892 -0.00374991 0.319898
-0.0870271 -0.00357753 0.319867
-0.0837168 -0.00388827 0.318095
-0.0795007 -0.00382745 0.316448
-0.0757862 -0.00383995 0.315369
-0.0722491 -0.00342304 0.313588
-0.0687357 -0.0036553 0.313096
-0.0648718 -0.00399004 0.310748
-0.0612541 -0.00403944 0.306751
-0.0573623 -0.00399617 0.304471
-0.0534926 -0.00381616 0.301826
-0.0496672 -0.00378568 0.29833
-0.0461278 -0.00385376 0.295315
-0.042631 -0.00365206 0.292896
-0.0383768 -0.00420974 0.291705
-0.0346793 -0.00343699 0.289028
-0.0306902 -0.00412937 0.28864
-0.0269684 -0.00421273 0.286845
-0.0230617 -0.00414319 0.286972
-0.0192254 -0.00390188 0.284971
-0.0154453 -0.00403677 0.28473
-0.0113469 -0.0037518 0.283482
-0.00751086 -0.00403512 0.283692
-0.00374263 -0.00370375 0.283371
3.80515e-05 -0.00393956 0.283874
0.00386867 -0.00410046 0.282377
0.0077953 -0.00359028 0.281653
0.0117357 -0.0040437 0.281699
0.01582 -0.00383784 0.280318
0.0195456 -0.00407975 0.280491
0.0232486 -0.00405724 0.279081
0.0269257 -0.00386521 0.278172
0.0312486 -0.00388164 0.277711
0.0349254 -0.00414918 0.278216
0.0387278 -0.00429367 0.278304
0.0427628 -0.0040463 0.277187
0.0469388 -0.00382808 0.276497
0.0504679 -0.00396929 0.276206
0.0540893 -0.00386524 0.276055
0.0584015 -0.00383555 0.274805
0.0620999 -0.00380409 0.274426
0.0666457 -0.00387656 0.274401
0.0700547 -0.00380997 0.272972
0.073808 -0.00384325 0.272823
0.0782264 -0.00406227 0.270914
0.0816691 -0.00377635 0.270266
0.0862178 -0.00394216 0.268537
0.0900985 -0.0038875 0.266679
0.0935793 -0.00380958 0.265181
0.0975957 -0.00373329 0.263824
0.101803 -0.00410304 0.263608
0.105978 -0.00397051 0.261183
0.109773 -0.00391367 0.26065
0.113735 -0.00425223 0.261004
0.118118 -0.00387386 0.260185
0.121726 -0.00402932 0.259236
0.125807 -0.00361056 0.257532
0.129864 -0.00390101 0.257318
0.133523 -0.00346461 0.256031
0.137878 -0.00400979 0.254824
0.141947 -0.00386271 0.254066
0.145954 -0.00421864 0.251901
0.149997 -0.00374162 0.250741
0.154343 -0.00397244 0.250841
0.158303 -0.00378782 0.24895
0.161759 -0.00383805 0.249368
0.165808 -0.00433771 0.247237
0.170057 -0.00386594 0.24419
0.174318 -0.00395427 0.244371
0.178684 -0.00366415 0.242889
0.182405 -0.00379342 0.240838
0.187171 -0.00386307 0.238241
0.190783 -0.00339693 0.236991
0.194865 -0.00419275 0.234638
0.199301 -0.00413135 0.232636
0.203535 -0.00395399 0.229503
0.208055 -0.00408382 0.227475
0.211742 -0.0038563 0.225117
0.216923 -0.00412932 0.221259
0.220998 -0.00413717 0.219248
0.22514 -0.00420467 0.216817
0.229513 -0.00400083 0.213583
0.233889 -0.00378433 0.211335
0.237948 -0.00407758 0.210555
0.242216 -0.00427023 0.209564
0.246787 -0.00401183 0.208577
0.250554 -0.00435315 0.207675
0.254933 -0.00407299 0.206097
0.259252 -0.00354281 0.205361
0.262855 -0.00400946 0.206103
0.267124 -0.00414382 0.205521
0.271448 -0.003862 0.204267
0.275575 -0.00407547 0.202076
0.279898 -0.00393599 0.201174
0.284258 -0.00406842 0.199598
0.288589 -0.00385679 0.198002
0.292483 -0.00389889 0.195717
0.297542 -0.00384635 0.191899
0.302535 -0.0038424 0.188988
0.307213 -0.00380853 0.185995
0.31178 -0.00408579 0.183093
0.316617 -0.00415005 0.177895
0.321804 -0.00402641 0.172197
0.326514 -0.00460248 0.167701
0.331812 -0.00408042 0.160815
0.336892 -0.00447424 0.155642
0.342024 -0.00445311 0.1499
0.347602 -0.00432822 0.143303
0.353472 -0.00415809 0.135922
0.358592 -0.00413544 0.129989
0.364376 -0.00395711 0.120773
0.370435 -0.0040509 0.110357
0.38139 -0.00464321 0.0800476
-0.384031 0.000324597 0.26234
-0.377727 -5.70086e-05 0.273563
-0.372407 -4.93815e-05 0.281153
-0.36655 3.89794e-05 0.288046
-0.36188 0.000208304 0.293571
-0.355895 1.98481e-05 0.301039
-0.351556 -1.93988e-05 0.304904
-0.346812 0.000206036 0.310506
-0.341917 -0.000140657 0.314403
-0.337365 -8.33521e-05 0.31921
-0.333038 0.000234802 0.322261
-0.328591 -0.000211378 0.325618
-0.324137 -5.18053e-06 0.328561
-0.319479 0.000252777 0.331669
-0.315616 -0.000305622 0.334152
-0.311046 -2.53512e-05 0.338585
-0.306873 -0.000280931 0.340409
-0.302299 7.93003e-05 0.345226
-0.298682 6.30881e-05 0.346183
-0.293941 0.000381421 0.349877
-0.290339 -0.000187741 0.350906
-0.285512 9.80647e-07 0.354747
-0.281901 0.000359213 0.356086
-0.277516 1.56521e-05 0.35876
-0.274136 8.35126e-05 0.359358
-0.269645 -0.000179037 0.360407
-0.265986 -3.53472e-05 0.361803
-0.262065 -0.00032361 0.362705
-0.258682 0.000337469 0.362696
-0.254783 -2.02984e-05 0.362736
-0.251389 0.000190289 0.362809
-0.247832 0.000459354 0.360977
-0.243957 9.18645e-05 0.360394
-0.240471 -0.000107724 0.359975
-0.237024 2.07558e-05 0.357429
-0.233465 3.97371e-05 0.357935
-0.229471 -0.000205308 0.356632
-0.226301 0.00017096 0.357256
-0.222523 0.000157632 0.355336
-0.218377 -0.000237832 0.356605
-0.215166 7.36953e-05 0.355848
-0.211455 -9.06107e-05 0.354768
-0.207626 0.000233181 0.354867
-0.203914 -0.000164254 0.353811
-0.200498 -9.93041e-05 0.353709
-0.196975 0.000276088 0.352778
-0.193161 -0.000114864 0.35291
-0.189409 3.22342e-05 0.35122
-0.185927 -4.60178e-05 0.350318
-0.182273 -7.6485e-05 0.350636
-0.178636 -0.000230348 0.349876
-0.175362 8.46879e-06 0.347876
-0.171199 -0.000144517 0.348372
-0.16764 -8.75042e-05 0.34676
-0.164038 0.000191653 0.344278
-0.160616 3.86638e-05 0.345226
-0.157209 0.00011339 0.342878
-0.153104 -0.000118543 0.342645
-0.149508 -0.00011807 0.340971
-0.145998 3.24471e-05 0.340331
-0.142168 -0.000162166 0.339013
-0.138609 -0.000383629 0.337754
-0.13518 -1.21079e-05 0.334946
-0.131281 0.000137265 0.333627
-0.127981 0.00014386 0.330859
-0.124237 5.97542e-06 0.329153
-0.120846 0.000203594 0.327256
-0.117062 -9.00155e-05 0.32571
-0.113278 -3.53619e-05 0.324082
-0.109402 -0.000299987 0.323469
-0.106187 3.8841e-05 0.320503
-0.102069 0.000120126 0.320521
-0.098662 -1.88356e-05 0.319102
-0.0951234 2.8658e-05 0.318875
-0.0911739 2.44582e-05 0.318278
-0.0872116 0.000205902 0.318178
-0.0834316 -4.8184e-06 0.315846
-0.0795917 7.471e-05 0.315287
-0.0759985 -0.00026797 0.313657
-0.0726365 -0.000101008 0.312126
-0.0686449 -0.00017485 0.3102
-0.0649055 -0.000136162 0.307837
-0.0611704 0.000350164 0.305027
-0.0575777 -0.000159232 0.302755
-0.053974 1.39877e-05 0.299456
-0.0503517 0.000191293 0.296517
-0.0463012 -0.000255279 0.293679
-0.0425118 0.0001707 0.291249
-0.0386145 -1.2037e-05 0.28858
-0.0348627 -7.59484e-05 0.287363
-0.0310603 -0.000259528 0.285768
-0.027396 -7.35969e-06 0.285068
-0.0233855 -0.000273925 0.283905
-0.0194427 1.7814e-05 0.28236
-0.0154614 -0.000153383 0.282146
-0.0116975 -0.000357436 0.281726
-0.00776682 0.000124333 0.281745
-0.00390081 -0.000188359 0.280665
-0.000290662 -0.000162459 0.27929
0.00416357 2.17226e-05 0.280921
0.00760518 -5.39607e-05 0.278877
0.0117614 0.000170511 0.278761
0.0155666 0.000182473 0.278188
0.0194812 -0.000389722 0.277543
0.0230883 1.64363e-05 0.276526
0.0276629 -0.000252525 0.276374
0.0309387 -6.12513e-05 0.275794
0.0347747 -0.000199257 0.275039
0.038891 3.70026e-05 0.275553
0.0430102 -0.000139912 0.274018
0.0465505 0.000223742 0.274923
0.0506673 0.000106567 0.274235
0.0548504 0.000362705 0.274195
0.0585653 -0.000195296 0.273697
0.0625034 -9.47283e-06 0.272524
0.0663143 6.61277e-05 0.271903
0.0698298 -1.56589e-05 0.271622
0.0740365 0.000201111 0.269697
0.0782327 -0.000318631 0.268868
0.0822759 9.849e-05 0.267938
0.0862097 0.000160942 0.266912
0.0903454 -0.00013633 0.264615
0.0938536 -3.14642e-05 0.26355
0.0979318 7.47516e-05 0.262987
0.10162 6.06979e-05 0.262216
0.105701 7.31731e-05 0.261133
0.109569 -0.000119647 0.260528
0.113754 -9.41771e-05 0.259879
0.117528 0.000239497 0.259055
0.12146 0.000177145 0.257916
0.125835 8.4987e-05 0.256913
0.129866 -0.000132387 0.256606
0.134049 -0.000186034 0.254396
0.1376 0.000233312 0.254088
0.141801 0.00022358 0.252074
0.145622 -0.000189344 0.252656
0.149463 9.98808e-05 0.250812
0.153993 -0.000265201 0.249673
0.157953 0.000274362 0.249802
0.162154 0.000131001 0.24735
0.166067 7.39698e-05 0.247166
0.170435 -0.000144573 0.244913
0.174149 8.1669e-05 0.243361
0.178647 -5.5733e-05 0.242398
0.182455 -0.000248376 0.240263
0.187119 0.000146277 0.236983
0.19112 8.41178e-06 0.235922
0.195467 0.000455345 0.233251
0.199274 4.74466e-05 0.231064
0.204103 0.000153078 0.228811
0.207775 -6.97899e-06 0.22594
0.212352 -0.000159101 0.222858
0.216732 -0.000224696 0.220125
0.221214 0.000216228 0.216467
0.225649 0.000119838 0.21443
0.230179 -6.31046e-05 0.211624
0.234337 3.7127e-05 0.210093
0.23842 7.92759e-05 0.207508
0.242589 -0.000268046 0.206914
0.246554 -0.000223296 0.205805
0.251305 -0.000184368 0.203727
0.255333 9.53368e-05 0.202824
0.259149 0.000127985 0.201649
0.264056 -3.64733e-05 0.200236
0.268073 -0.00029615 0.19979
0.272224 0.000278785 0.198293
0.276602 0.000122065 0.19726
0.280775 -0.000233713 0.196384
0.285168 -5.4038e-05 0.194009
0.288891 1.40064e-05 0.192401
0.293826 0.000111166 0.189261
0.297755 -0.000353944 0.18847
0.30284 9.95664e-06 0.184297
0.30776 1.75626e-05 0.181166
0.312191 0.000151218 0.177425
0.317519 1.7431e-05 0.172229
0.322584 -9.50807e-05 0.166448
0.327719 -0.000371089 0.1613
0.333002 0.000160967 0.155348
0.337845 0.000102282 0.150847
0.34291 -2.6525e-05 0.145767
0.347743 -0.000131634 0.141029
0.353586 -7.60845e-05 0.133793
0.359529 0.000246239 0.125588
0.365036 -0.000266913 0.116881
0.373822 -8.03512e-05 0.0959467
0.384555 0.000253258 0.0616009
-0.391704 0.00374746 0.245173
-0.384391 0.0035786 0.262262
-0.37746 0.00402394 0.274714
-0.372469 0.0040078 0.280401
-0.367009 0.00378484 0.287141
-0.361736 0.00373165 0.293911
-0.357014 0.0036895 0.299463
-0.351315 0.00356882 0.306513
-0.347278 0.00375394 0.309515
-0.341856 0.00373674 0.315273
-0.337485 0.00355725 0.319231
-0.332892 0.00398741 0.323283
-0.32794 0.00358237 0.326778
-0.324562 0.00381636 0.328342
-0.319753 0.00371292 0.332465
-0.315451 0.00396239 0.335642
-0.311045 0.0037454 0.339482
-0.306525 0.00362102 0.342773
-0.30229 0.00386408 0.346127
-0.298042 0.00369672 0.349459
-0.293829 0.00375553 0.352062
-0.289243 0.00355637 0.355222
-0.285185 0.00376811 0.357964
-0.280844 0.00380848 0.360304
-0.277079 0.00356264 0.362164
-0.273089 0.003696 0.362678
-0.269198 0.00380164 0.363667
-0.265647 0.00411186 0.364187
-0.262219 0.00361646 0.364577
-0.258217 0.00374604 0.365119
-0.254859 0.00360198 0.363717
-0.250683 0.00374335 0.364846
-0.247251 0.0035933 0.362875
-0.243657 0.00345311 0.361423
-0.240577 0.00377348 0.36065
-0.236798 0.00389855 0.359417
-0.23309 0.00347083 0.357752
-0.230082 0.00326196 0.357643
-0.225864 0.00378338 0.357455
-0.223216 0.00381162 0.355743
-0.218932 0.00357193 0.354288
-0.215499 0.00349811 0.35431
-0.211674 0.0037631 0.353217
-0.20825 0.0035557 0.353079
-0.204504 0.00418008 0.351898
-0.200872 0.00403618 0.351289
-0.196991 0.00414146 0.351395
-0.193516 0.00392911 0.350361
-0.189724 0.0037146 0.349207
-0.186198 0.00352617 0.348614
-0.182571 0.0037295 0.347054
-0.178867 0.00373337 0.347261
-0.175452 0.0037894 0.345939
-0.171717 0.00353796 0.345216
-0.168155 0.00397335 0.344138
-0.164178 0.00361688 0.34268
-0.160809 0.00369177 0.341609
-0.157107 0.00362322 0.340499
-0.153331 0.00339591 0.339728
-0.150104 0.00379648 0.337483
-0.146112 0.0035965 0.336939
-0.142279 0.00372725 0.335652
-0.138903 0.00388518 0.333353
-0.135547 0.00331245 0.332624
-0.13176 0.00363064 0.331453
-0.128107 0.00378449 0.329479
-0.124395 0.00378696 0.326892
-0.120748 0.00386509 0.325446
-0.117115 0.00398161 0.323872
-0.113656 0.00364325 0.322533
-0.110092 0.00381297 0.32009
-0.106378 0.00395685 0.318263
-0.102458 0.00393054 0.31811
-0.0985545 0.00360961 0.318174
-0.0948965 0.0038757 0.317199
-0.091084 0.00401515 0.316259
-0.0879044 0.00403477 0.314856
-0.0841788 0.00368968 0.314293
-0.0798159 0.00388794 0.31293
-0.0758333 0.00374515 0.310756
-0.0727916 0.00395665 0.310127
-0.0690504 0.00369023 0.308423
-0.0648149 0.00367092 0.305049
-0.0611654 0.00391067 0.302804
-0.0577785 0.0040849 0.300437
-0.0538472 0.00343172 0.297715
-0.0501351 0.00380125 0.294621
-0.0463286 0.00408664 0.291238
-0.0421344 0.00366159 0.288442
-0.0384929 0.00367011 0.286557
-0.034736 0.00360265 0.283762
-0.0312331 0.00358505 0.283372
-0.0271156 0.00387182 0.282071
-0.0233022 0.00357058 0.280682
-0.0190842 0.00368002 0.280209
-0.015228 0.00373558 0.280587
-0.0117593 0.00375989 0.279779
-0.00771528 0.00351463 0.279078
-0.00392914 0.00338856 0.279029
8.33354e-05 0.00381742 0.278157
0.00390216 0.00367918 0.277626
0.00752976 0.0038111 0.276557
0.0113699 0.00354943 0.275524
0.0153575 0.0037651 0.275137
0.0195994 0.00387685 0.274545
0.023328 0.0039643 0.274084
0.0271816 0.00402456 0.272945
0.031159 0.00389617 0.273277
0.0351905 0.00365635 0.272506
0.039027 0.00357549 0.273265
0.0430639 0.00376615 0.272582
0.0469206 0.00402644 0.272228
0.0505472 0.00374093 0.271484
0.0546232 0.00401594 0.272226
0.058443 0.00369451 0.271126
0.062536 0.00372806 0.268852
0.0665109 0.00363435 0.269941
0.0700225 0.00399993 0.269171
0.0744169 0.00388244 0.267555
0.0782666 0.00390907 0.266184
0.0819962 0.00354147 0.266036
0.0863065 0.00371633 0.265752
0.0899351 0.00366967 0.263475
0.0939129 0.00419814 0.262798
0.0979012 0.0036616 0.261014
0.101853 0.00367151 0.26074
0.106335 0.00387983 0.259272
0.10997 0.00405161 0.258486
0.113663 0.00367111 0.258173
0.117932 0.00387207 0.257444
0.121977 0.0041177 0.256521
0.125935 0.0037226 0.256133
0.130407 0.00417351 0.254826
0.133857 0.00406124 0.253363
0.137833 0.00401115 0.253323
0.141914 0.00385906 0.251856
0.145857 0.0039384 0.25142
0.149956 0.00409459 0.250055
0.154152 0.00360883 0.248899
0.157955 0.00396109 0.24793
0.162412 0.00411267 0.246974
0.166211 0.00397829 0.246053
0.170153 0.00417052 0.243909
0.174492 0.00389929 0.241418
0.178413 0.00417626 0.241489
0.182787 0.00388236 0.239306
0.186621 0.00380588 0.237494
0.191001 0.00423291 0.235615
0.195384 0.00410938 0.23248
0.199804 0.0036611 0.229578
0.203714 0.00406588 0.227007
0.208461 0.00429282 0.223531
0.212562 0.00442817 0.220969
0.216686 0.00396817 0.218971
0.221102 0.00398458 0.215806
0.225251 0.00403809 0.213776
0.229955 0.00454738 0.210444
0.234506 0.00435676 0.208475
0.238502 0.00427866 0.205937
0.243185 0.00424278 0.202473
0.247068 0.00428939 0.202428
0.251689 0.00384127 0.200643
0.255939 0.00394556 0.19876
0.260403 0.0040323 0.197709
0.264594 0.0041048 0.196629
0.26842 0.00443389 0.195682
0.273178 0.00416142 0.193514
0.276993 0.0038477 0.193897
0.281218 0.00415223 0.191045
0.285733 0.00396888 0.189298
0.290221 0.00396866 0.187523
0.295102 0.00413268 0.184379
0.299113 0.00386169 0.181938
0.30439 0.00407338 0.178084
0.308913 0.00401013 0.174746
0.313655 0.00401645 0.170579
0.318646 0.00430137 0.164952
0.323443 0.00401837 0.161418
0.328596 0.00434489 0.156139
0.333429 0.0041019 0.15163
0.337754 0.00403908 0.148614
0.343774 0.00449443 0.141475
0.348671 0.00407557 0.136064
0.354079 0.00400097 0.13043
0.359891 0.00385656 0.122613
0.366254 0.00418772 0.110321
0.376621 0.00439069 0.0805771
-0.388618 0.00807246 0.257913
-0.382522 0.0080668 0.268798
-0.376952 0.00760435 0.275902
-0.371701 0.00774003 0.283552
-0.366417 0.0076834 0.289782
-0.361647 0.00763507 0.294657
-0.356374 0.00807756 0.301469
-0.351031 0.00741469 0.30742
-0.346818 0.007668 0.311533
-0.341898 0.00728644 0.315983
-0.337472 0.00808394 0.319673
-0.332885 0.00762078 0.322988
-0.327918 0.00769783 0.328481
-0.324349 0.00731427 0.329571
-0.319223 0.00744822 0.333552
-0.31423 0.00738208 0.338421
-0.310257 0.0076827 0.342238
-0.305967 0.00750261 0.345954
-0.301303 0.00741989 0.351059
-0.29692 0.00757978 0.35484
-0.292488 0.00746226 0.357484
-0.288099 0.0074738 0.360406
-0.284552 0.00749566 0.362463
-0.280087 0.00726735 0.364904
-0.276889 0.00707685 0.365143
-0.272306 0.00797371 0.367941
-0.268899 0.0073336 0.367252
-0.265192 0.0072461 0.367013
-0.261105 0.00726719 0.368526
-0.257566 0.00739249 0.367828
-0.254047 0.00739093 0.367786
-0.250624 0.00716074 0.36659
-0.247103 0.007325 0.365871
-0.243581 0.00761015 0.365503
-0.239763 0.00753441 0.362695
-0.236523 0.00740189 0.361226
-0.233305 0.00717416 0.358977
-0.229515 0.00726032 0.358516
-0.225953 0.00735701 0.357636
-0.222519 0.00748957 0.3557
-0.219251 0.00746957 0.354232
-0.215255 0.00719269 0.354065
-0.21185 0.00720372 0.352441
-0.208119 0.00723145 0.352118
-0.204496 0.0077631 0.351144
-0.20073 0.00739154 0.349797
-0.19724 0.00732111 0.349709
-0.1935 0.00743734 0.349018
-0.190343 0.00744462 0.347622
-0.186259 0.00749714 0.346334
-0.183107 0.00734238 0.345092
-0.179493 0.00768723 0.343945
-0.175574 0.00733703 0.34345
-0.17226 0.00732173 0.342578
-0.168456 0.00744395 0.340526
-0.164612 0.00749172 0.340197
-0.160941 0.00758266 0.339174
-0.157599 0.00737901 0.338087
-0.15387 0.00776276 0.335836
-0.150064 0.00731845 0.335685
-0.146564 0.00797208 0.333966
-0.142876 0.00740205 0.332987
-0.139126 0.00756959 0.331625
-0.135805 0.00742404 0.33032
-0.132044 0.00769267 0.327698
-0.12852 0.00736766 0.32649
-0.124754 0.00767874 0.325084
-0.121047 0.00723702 0.323061
-0.117065 0.0073844 0.321095
-0.113901 0.00746297 0.320169
-0.110113 0.00759268 0.318717
-0.10635 0.00765796 0.317145
-0.102878 0.00775115 0.316643
-0.0985836 0.00799158 0.315072
-0.0951726 0.00758567 0.314397
-0.0912679 0.00785389 0.313283
-0.0873443 0.00739524 0.313467
-0.083931 0.0076453 0.311255
-0.0801053 0.00761988 0.309705
-0.0758318 0.00747151 0.308305
-0.0724624 0.00761293 0.307442
-0.0687148 0.00752949 0.305424
-0.0649016 0.00788317 0.302213
-0.0614301 0.00776514 0.299562
-0.0575307 0.00782741 0.29642
-0.0539326 0.00733676 0.293682
-0.049901 0.00797445 0.291065
-0.0461465 0.00781826 0.287571
-0.0424763 0.00780437 0.284792
-0.0387148 0.00805647 0.283312
-0.0349685 0.00813552 0.282652
-0.030976 0.0079908 0.2804
-0.0271123 0.00763774 0.278522
-0.0232213 0.00755744 0.278909
-0.0192783 0.00764066 0.2774
-0.0154638 0.00781398 0.276448
-0.011869 0.00827888 0.276931
-0.00782267 0.00782842 0.276208
-0.0039641 0.00793087 0.275425
-9.07432e-05 0.00794404 0.273903
0.00388605 0.00778363 0.274203
0.00781712 0.00814479 0.272303
0.0115007 0.00756376 0.273438
0.0156203 0.00775404 0.27227
0.019441 0.00757516 0.271729
0.0234152 0.00784078 0.271446
0.0275599 0.00779674 0.270656
0.031142 0.00750068 0.270899
0.035229 0.00793303 0.269887
0.0390204 0.00788862 0.26954
0.0426644 0.00787581 0.269317
0.0469681 0.00782362 0.269635
0.0508346 0.00759893 0.269037
0.0545235 0.00799212 0.268077
0.0586644 0.00775995 0.268929
0.0625239 0.00790944 0.267871
0.0665682 0.00785706 0.267903
0.0702871 0.0079075 0.265988
0.074313 0.00764598 0.266088
0.0786407 0.00776961 0.265345
0.082382 0.00802122 0.2637
0.0860306 0.00814192 0.262589
0.0901447 0.00809769 0.261635
0.0939337 0.00779071 0.260681
0.0983083 0.00795805 0.259452
0.101962 0.00802211 0.25942
0.106176 0.00817645 0.257613
0.110158 0.00784358 0.257686
0.114254 0.00768255 0.257372
0.118027 0.00810729 0.256227
0.122077 0.00786099 0.255899
0.126062 0.00829973 0.255102
0.129835 0.00791465 0.253922
0.133683 0.00819397 0.25246
0.137886 0.00788466 0.251525
0.142191 0.0080258 0.251064
0.146089 0.00742079 0.25037
0.150325 0.00805766 0.248897
0.154124 0.007779 0.248752
0.158056 0.00783401 0.247936
0.162344 0.00825027 0.246116
0.16664 0.00779293 0.244251
0.170059 0.00826131 0.2431
0.174304 0.00780884 0.242034
0.178534 0.00795565 0.239924
0.182555 0.00778123 0.238274
0.186808 0.00766755 0.235921
0.191415 0.00778287 0.233182
0.195768 0.008259 0.230447
0.199674 0.00816368 0.228473
0.203796 0.00779965 0.22558
0.20827 0.00799214 0.223369
0.212937 0.0080171 0.22018
0.217062 0.00768249 0.21846
0.221982 0.00800906 0.21464
0.226046 0.00836569 0.211516
0.23033 0.00777164 0.209321
0.234832 0.00794448 0.206155
0.238695 0.0083198 0.20375
0.243581 0.00807568 0.200937
0.247518 0.00745769 0.199255
0.252445 0.00792515 0.196442
0.25651 0.00818116 0.194699
0.260706 0.00810911 0.193107
0.264652 0.00766457 0.19345
0.269145 0.00845733 0.190728
0.273395 0.00820716 0.189343
0.277974 0.00827925 0.188399
0.28243 0.00818566 0.186838
0.286591 0.00845901 0.184302
0.291109 0.0086328 0.182345
0.296203 0.00823471 0.178858
0.300527 0.00816997 0.176105
0.304873 0.00806893 0.172891
0.309844 0.00810236 0.168979
0.314634 0.00824063 0.164727
0.319914 0.00860778 0.159338
0.324614 0.00833109 0.156619
0.329328 0.00820472 0.151871
0.334224 0.00854244 0.147766
0.339312 0.00842192 0.142744
0.344235 0.00857411 0.138012
0.349199 0.00843541 0.133487
0.354772 0.00860292 0.126274
0.361278 0.008769 0.115642
0.369121 0.00883107 0.0968925
-0.395141 0.0120714 0.247145
-0.388452 0.0114695 0.261797
-0.381267 0.0114797 0.273636
-0.375852 0.0115572 0.280141
-0.370745 0.011854 0.287019
-0.365774 0.0113389 0.292116
-0.36075 0.0118382 0.298362
-0.355576 0.0113477 0.304236
-0.350961 0.0114615 0.309191
-0.346077 0.0112493 0.314147
-0.341413 0.0113469 0.317821
-0.336684 0.01128 0.3224
-0.332171 0.0114575 0.326203
-0.327714 0.0114304 0.329765
-0.323367 0.0111159 0.333113
-0.318656 0.0114098 0.336444
-0.314179 0.0109978 0.340917
-0.309538 0.0111306 0.346573
-0.304653 0.0111546 0.352668
-0.300048 0.0112432 0.357567
-0.295992 0.0109296 0.361554
-0.291322 0.011068 0.365207
-0.28743 0.0108847 0.367083
-0.282888 0.011003 0.369984
-0.278879 0.0112521 0.37249
-0.275339 0.0108767 0.372279
-0.271546 0.0109714 0.372882
-0.267861 0.0109952 0.372947
-0.263669 0.0110446 0.372729
-0.260583 0.0111864 0.372749
-0.256964 0.0112151 0.372893
-0.25304 0.0112339 0.371416
-0.249371 0.0111998 0.370837
-0.246711 0.0110381 0.369094
-0.24296 0.011057 0.367569
-0.239678 0.0113289 0.365263
-0.236137 0.0110925 0.363621
-0.232959 0.0114216 0.362111
-0.22916 0.0112459 0.359605
-0.225317 0.0114815 0.358524
-0.222665 0.0109707 0.35686
-0.218743 0.0113135 0.35523
-0.21533 0.0113318 0.353484
-0.211434 0.010845 0.352416
-0.208132 0.011328 0.351499
-0.205072 0.0109257 0.349666
-0.201237 0.0110875 0.349764
-0.197657 0.0112377 0.348576
-0.194234 0.011292 0.346433
-0.190121 0.0115028 0.346879
-0.186911 0.0112641 0.344278
-0.183291 0.011231 0.341882
-0.179402 0.0110719 0.342471
-0.17606 0.0112461 0.34085
-0.172082 0.0111816 0.339657
-0.168715 0.011361 0.33787
-0.165091 0.0109716 0.336825
-0.161216 0.0112773 0.336565
-0.157942 0.0113584 0.335239
-0.154324 0.0111907 0.334374
-0.150315 0.0110247 0.332881
-0.146394 0.0110354 0.331223
-0.143093 0.0110401 0.330846
-0.139355 0.011244 0.329084
-0.135836 0.0113275 0.326721
-0.132409 0.0113145 0.325193
-0.128638 0.0114572 0.324355
-0.124728 0.0111626 0.322422
-0.121263 0.0111691 0.320007
-0.117525 0.0111324 0.318781
-0.113839 0.0111452 0.317602
-0.11031 0.0111015 0.316532
-0.106313 0.0113842 0.315474
-0.102587 0.0115206 0.314381
-0.0989103 0.0111766 0.312915
-0.0953089 0.01139 0.311969
-0.0913378 0.0112751 0.311148
-0.0879581 0.0111575 0.309534
-0.0837958 0.0113236 0.309684
-0.0802231 0.0115391 0.307712
-0.0764899 0.0116099 0.306065
-0.0726121 0.0114289 0.305422
-0.0687054 0.0113575 0.301603
-0.0653739 0.0115645 0.299827
-0.0611974 0.011672 0.296242
-0.0578137 0.0117354 0.294402
-0.0539736 0.0114042 0.290413
-0.0505586 0.0117687 0.288528
-0.0466124 0.0115651 0.284622
-0.0424953 0.0120807 0.283157
-0.0388573 0.011762 0.281578
-0.0350004 0.0119288 0.279434
-0.0311623 0.0117168 0.278463
-0.0270412 0.0118415 0.277129
-0.0234313 0.011867 0.276262
-0.0196784 0.0116491 0.274564
-0.0155733 0.0119415 0.275835
-0.011837 0.0120006 0.273834
-0.00795653 0.011488 0.273469
-0.00364127 0.0115017 0.273114
-0.000224089 0.011395 0.272246
0.00379178 0.011737 0.271131
0.00792486 0.0115136 0.270544
0.0114693 0.0115414 0.270577
0.0156821 0.0116405 0.269586
0.0193392 0.012032 0.269554
0.0235897 0.0118321 0.268924
0.0276509 0.011588 0.268273
0.0312689 0.0115582 0.267198
0.0352668 0.0117365 0.267623
0.0389816 0.0116019 0.267918
0.0428613 0.0116587 0.267211
0.0470615 0.0117156 0.266613
0.0507544 0.0117692 0.267147
0.0549355 0.0119563 0.265871
0.0584647 0.0117972 0.266079
0.0625924 0.0113832 0.266506
0.0666503 0.0116665 0.265372
0.0702151 0.0115941 0.26526
0.074271 0.0116753 0.263262
0.0784817 0.0119983 0.261616
0.0824332 0.0120443 0.26176
0.08622 0.0118237 0.260929
0.0902098 0.0113221 0.260567
0.0943614 0.0114147 0.259759
0.0982156 0.0121264 0.258661
0.102138 0.0118621 0.258121
0.106244 0.0116589 0.256209
0.109869 0.0119516 0.257274
0.113805 0.0120489 0.255763
0.117767 0.0116273 0.25544
0.122226 0.0118044 0.253948
0.125962 0.0118931 0.253391
0.13016 0.0114087 0.251549
0.134228 0.0116955 0.2517
0.138016 0.0117001 0.250951
0.142295 0.0121423 0.249997
0.145958 0.0121004 0.248967
0.150324 0.0120917 0.247875
0.154178 0.0121547 0.247066
0.158417 0.0116439 0.24506
0.162654 0.0121618 0.244352
0.166371 0.011773 0.243906
0.170559 0.0118956 0.242467
0.1744 0.0119387 0.241275
0.179012 0.0120545 0.237709
0.182984 0.0119741 0.235342
0.187481 0.0119219 0.233635
0.191697 0.0119752 0.231522
0.195649 0.0118574 0.229494
0.200144 0.0123788 0.226605
0.204193 0.0119636 0.224824
0.208851 0.0119183 0.221291
0.212995 0.0122475 0.219292
0.217494 0.0122813 0.216676
0.221636 0.0119877 0.213911
0.225622 0.0120133 0.211537
0.230479 0.0120681 0.207946
0.234568 0.0116953 0.2052
0.240068 0.0124124 0.200306
0.24396 0.0122507 0.198
0.248365 0.0121184 0.195885
0.252698 0.0121083 0.192873
0.25668 0.012444 0.1917
0.261223 0.0122192 0.189712
0.265608 0.0126523 0.18795
0.270054 0.012328 0.186974
0.274024 0.0120364 0.185057
0.27819 0.0124018 0.184534
0.283026 0.0121931 0.18144
0.287259 0.0122338 0.179991
0.291678 0.0124214 0.177365
0.296888 0.0123579 0.174416
0.301337 0.0122976 0.170693
0.30587 0.01239 0.168228
0.310611 0.0123392 0.164062
0.315359 0.0123891 0.160346
0.320382 0.0123999 0.156458
0.324837 0.0123395 0.152775
0.330003 0.0123485 0.147951
0.334815 0.0122002 0.145301
0.340642 0.0129693 0.138163
0.344921 0.012587 0.134664
0.350082 0.0128065 0.12885
0.355738 0.0126694 0.121163
0.362568 0.0127223 0.108199
0.372311 0.0131996 0.0802742
-0.392633 0.0159864 0.260311
-0.385803 0.0155869 0.270864
-0.380216 0.0157159 0.279579
-0.375412 0.015464 0.284108
-0.370114 0.0158326 0.289438
-0.365166 0.0151566 0.295192
-0.360233 0.0152949 0.300916
-0.354756 0.0156365 0.307765
-0.349834 0.0150531 0.312312
-0.345757 0.0151909 0.316551
-0.34164 0.0151616 0.319618
-0.336165 0.0150428 0.324778
-0.331828 0.014886 0.32884
-0.327213 0.0146755 0.332135
-0.322416 0.0149331 0.337675
-0.317914 0.0148927 0.342807
-0.312615 0.0148812 0.350779
-0.307815 0.0149968 0.357413
-0.302192 0.0147477 0.365401
-0.29747 0.014776 0.370942
-0.293475 0.0145761 0.372599
-0.289389 0.0148354 0.376537
-0.284488 0.0146565 0.379949
-0.281081 0.0144945 0.38031
-0.277402 0.0146472 0.38174
-0.273531 0.0142999 0.381785
-0.269933 0.0143143 0.381272
-0.26609 0.0146466 0.382784
-0.262689 0.0144066 0.380531
-0.25943 0.0144873 0.380122
-0.255669 0.0146494 0.379918
-0.252768 0.014451 0.378455
-0.248884 0.0148573 0.376786
-0.245896 0.0143449 0.374242
-0.24237 0.014284 0.371999
-0.239065 0.0146832 0.3699
-0.235885 0.0148977 0.367648
-0.232319 0.0145527 0.365376
-0.228886 0.0146337 0.363093
-0.225188 0.0147499 0.359894
-0.22219 0.0149886 0.358533
-0.21872 0.0149475 0.356487
-0.215067 0.0148456 0.35499
-0.212094 0.0149099 0.352654
-0.208083 0.0151136 0.351247
-0.204536 0.0153235 0.35017
-0.20101 0.0148289 0.348094
-0.197529 0.0152017 0.347271
-0.194338 0.015059 0.345702
-0.190415 0.0150235 0.344347
-0.18694 0.0148871 0.342968
-0.183424 0.0152945 0.341443
-0.179816 0.0147168 0.339226
-0.176107 0.0154902 0.337154
-0.172363 0.0154259 0.336844
-0.16876 0.0149012 0.336103
-0.165252 0.0150918 0.333413
-0.16186 0.0152764 0.332865
-0.157981 0.0148646 0.332377
-0.154665 0.0151407 0.330492
-0.150714 0.0148628 0.330166
-0.147209 0.0149778 0.326748
-0.143516 0.0148533 0.327173
-0.140008 0.0148705 0.326428
-0.136073 0.0152253 0.3246
-0.13251 0.0152716 0.322145
-0.129129 0.0154708 0.320219
-0.124942 0.0151309 0.319246
-0.121395 0.0151736 0.317737
-0.11778 0.0150869 0.316304
-0.11385 0.0152534 0.31436
-0.110218 0.0151222 0.313398
-0.106399 0.0152174 0.313527
-0.102805 0.0155528 0.311679
-0.0990823 0.0150748 0.31022
-0.0952739 0.0154176 0.309741
-0.0917055 0.0151261 0.309458
-0.0880382 0.015406 0.306408
-0.08398 0.0156384 0.305874
-0.080186 0.0154329 0.304492
-0.0764308 0.0151343 0.304119
-0.0729239 0.0151091 0.300603
-0.0686878 0.0155371 0.298729
-0.065207 0.0151526 0.297448
-0.0617031 0.0154074 0.294582
-0.0577641 0.0154176 0.291251
-0.0540295 0.0154104 0.289081
-0.0501659 0.0153451 0.284545
-0.0460072 0.0154924 0.283591
-0.0427233 0.015437 0.280373
-0.0387165 0.0157113 0.278551
-0.0348628 0.0156245 0.277669
-0.0313779 0.0153523 0.275468
-0.0273141 0.015698 0.275226
-0.0234443 0.0155751 0.274429
-0.019785 0.0155615 0.272906
-0.0153267 0.0155349 0.272127
-0.0116525 0.0157638 0.271104
-0.00755563 0.0155388 0.27073
-0.00368157 0.0155334 0.270137
-9.32223e-05 0.015572 0.269901
0.00388459 0.0158345 0.267422
0.0076914 0.0153665 0.267591
0.011843 0.0154585 0.266907
0.0156296 0.0154981 0.265851
0.0196539 0.015544 0.265435
0.02363 0.0152455 0.265678
0.0277763 0.0153879 0.266273
0.0311997 0.0155945 0.264881
0.0356372 0.0156315 0.263686
0.0392117 0.0155495 0.264225
0.0429575 0.0160146 0.263195
0.0467026 0.0156908 0.263284
0.0508061 0.015541 0.264172
0.0549748 0.0155788 0.263879
0.0588241 0.0154049 0.264032
0.0626101 0.0156896 0.262544
0.0667391 0.0156553 0.261088
0.0704729 0.0159437 0.262185
0.0745239 0.0157105 0.260466
0.0781908 0.0155859 0.260569
0.0824358 0.0154678 0.259869
0.0862319 0.015477 0.258759
0.0905373 0.0157278 0.257929
0.0944613 0.0156953 0.257154
0.0983358 0.0158538 0.255924
0.102065 0.0158126 0.256402
0.106618 0.0159183 0.255711
0.110115 0.0157552 0.255186
0.113946 0.0155259 0.254423
0.118302 0.015596 0.254106
0.121762 0.015812 0.25342
0.126151 0.0162929 0.251929
0.130477 0.015566 0.250926
0.133981 0.0155992 0.250385
0.137897 0.0160888 0.248719
0.141863 0.0158315 0.247875
0.146354 0.0155844 0.247469
0.150327 0.0156977 0.247299
0.154454 0.015965 0.245205
0.158579 0.0160101 0.244185
0.162651 0.0160106 0.243351
0.166546 0.0160103 0.241498
0.170166 0.0158004 0.240214
0.175401 0.0159236 0.237498
0.179162 0.0163654 0.236434
0.183037 0.0160252 0.234701
0.186991 0.0157125 0.233804
0.191668 0.016168 0.229972
0.196076 0.0158895 0.22771
0.200246 0.0155774 0.226408
0.20433 0.0157409 0.223496
0.208382 0.0162007 0.220211
0.212307 0.0166775 0.219363
0.21763 0.0158117 0.214897
0.221485 0.0161692 0.214006
0.225855 0.0164248 0.210169
0.230214 0.0161546 0.206173
0.235008 0.0164439 0.203511
0.239311 0.0164127 0.200191
0.244126 0.0162654 0.1964
0.248236 0.0160636 0.193444
0.253154 0.0166339 0.190202
0.257206 0.015789 0.188925
0.26203 0.0170305 0.18655
0.265813 0.0163391 0.186191
0.270474 0.0162519 0.182034
0.274805 0.0163321 0.182396
0.279375 0.0161426 0.180384
0.283174 0.0162427 0.17916
0.28791 0.0163998 0.176797
0.292764 0.0165246 0.173386
0.297204 0.016337 0.169756
0.301753 0.0166287 0.167134
0.306217 0.0169697 0.163673
0.311336 0.0164484 0.159984
0.315921 0.0165614 0.155634
0.320752 0.0164699 0.153488
0.325479 0.0170008 0.148816
0.330613 0.017035 0.143413
0.335577 0.0171479 0.139492
0.340651 0.01674 0.135226
0.346101 0.0168021 0.129466
0.351483 0.0164577 0.123175
0.356869 0.0171961 0.114777
0.365678 0.0174818 0.0937505
-0.396225 0.0195904 0.260644
-0.390034 0.0192893 0.271382
-0.384636 0.0195208 0.279102
-0.37924 0.0191008 0.284096
-0.374574 0.0195835 0.289252
-0.368867 0.019217 0.295235
-0.364229 0.0195406 0.301063
-0.358677 0.0193043 0.3071
-0.354208 0.0190019 0.311055
-0.349324 0.0195065 0.31642
-0.344918 0.0186639 0.319673
-0.340107 0.0187853 0.324234
-0.335698 0.0188061 0.32865
-0.330623 0.019186 0.33524
-0.325968 0.0183636 0.338184
-0.320068 0.0189319 0.349233
-0.314733 0.0182671 0.357533
-0.308609 0.0185617 0.371269
-0.304649 0.0179564 0.373632
-0.299612 0.0180153 0.380067
-0.295232 0.0179574 0.383331
-0.290946 0.0181389 0.38658
-0.286916 0.0183766 0.388488
-0.282817 0.0181593 0.391125
-0.279119 0.0184661 0.39205
-0.275214 0.0183263 0.391956
-0.271803 0.0181871 0.392617
-0.268033 0.0179891 0.391718
-0.264972 0.0178282 0.391275
-0.261463 0.0180325 0.390756
-0.257852 0.0179557 0.389766
-0.254545 0.0180372 0.388533
-0.250527 0.0181166 0.387279
-0.247826 0.0181251 0.383813
-0.244723 0.0181 0.381801
-0.240856 0.0184088 0.381329
-0.237645 0.0179776 0.376311
-0.234966 0.0184822 0.374587
-0.231631 0.0183938 0.372396
-0.228399 0.0184737 0.368341
-0.224654 0.0186305 0.364786
-0.221852 0.0179962 0.361539
-0.218622 0.0187093 0.359709
-0.215001 0.0187648 0.357106
-0.211457 0.0186594 0.35454
-0.208065 0.018723 0.351991
-0.204722 0.0186267 0.349508
-0.201202 0.0186174 0.34817
-0.197372 0.0187535 0.346165
-0.194439 0.0187184 0.344876
-0.190488 0.0186537 0.342491
-0.186927 0.0189337 0.341126
-0.183419 0.0186363 0.339608
-0.17951 0.0188829 0.337435
-0.176317 0.0186343 0.335972
-0.173024 0.0187315 0.334241
-0.169328 0.01889 0.333216
-0.165312 0.0187475 0.33165
-0.161842 0.0182528 0.329982
-0.158243 0.01914 0.327976
-0.154955 0.018894 0.327328
-0.151018 0.0190839 0.325465
-0.147318 0.0188597 0.324988
-0.143519 0.0183767 0.324417
-0.140157 0.0193009 0.320999
-0.136126 0.0189393 0.320333
