ply
format ascii 1.0
element vertex 1608
property float x
property float y
property float z
end_header
-0.00732048 -0.0149857 0.381597
-0.00352931 -0.0147178 0.379528
0.000100778 -0.0145023 0.38049
0.00333494 -0.0146711 0.380017
0.00715582 -0.0149632 0.378997
0.0108422 -0.0145457 0.377529
0.0146178 -0.0146209 0.377232
0.0179223 -0.0146576 0.376701
0.0220085 -0.0145394 0.375877
0.0255297 -0.0145502 0.374555
0.0296258 -0.0147277 0.373085
0.0329884 -0.0146524 0.372791
0.036407 -0.0148358 0.372325
0.0403032 -0.0145684 0.370534
0.0442121 -0.0146454 0.36918
0.0475327 -0.0147809 0.369117
0.0514034 -0.0148147 0.367169
0.0550871 -0.0145453 0.366078
0.059302 -0.0146627 0.365339
0.0628608 -0.0145917 0.363281
0.0663152 -0.0147209 0.362796
0.0703166 -0.0147632 0.361678
0.0741154 -0.0147482 0.359755
0.0777436 -0.0149734 0.35813
0.0815318 -0.0149676 0.356704
0.0853859 -0.0148549 0.354397
0.089062 -0.0147962 0.353155
0.0928967 -0.0146391 0.350264
0.0966224 -0.0150339 0.34878
0.100625 -0.0149823 0.345153
0.104627 -0.0150863 0.343073
0.108844 -0.0148937 0.338774
0.112602 -0.0149319 0.335644
0.116607 -0.0146883 0.331601
0.120623 -0.0150232 0.328556
0.124708 -0.0150649 0.324599
0.128717 -0.0150303 0.321085
0.132926 -0.0150407 0.317994
0.137092 -0.0150631 0.313808
0.14125 -0.0152543 0.308699
0.14515 -0.01511 0.306185
0.149223 -0.0154332 0.302084
0.153492 -0.0149266 0.296955
0.158378 -0.0151658 0.290166
0.162541 -0.0151852 0.283503
0.167682 -0.0154108 0.272687
0.172881 -0.0156943 0.25885
-0.36006 -0.0146561 -0.248682
-0.353501 -0.0149661 -0.238069
-0.343308 -0.0155175 -0.207099
-0.333381 -0.0149125 -0.175298
-0.323856 -0.0147647 -0.145872
-0.317324 -0.0143947 -0.129621
-0.30659 -0.0145476 -0.0922017
-0.299409 -0.0141282 -0.0760169
-0.293977 -0.0141572 -0.0670626
-0.288096 -0.0135341 -0.0598853
-0.281923 -0.0135698 -0.0501697
-0.253923 -0.0125845 0.12596
-0.24385 -0.01239 0.165739
-0.238579 -0.0123176 0.177897
-0.232125 -0.0120482 0.191543
-0.2271 -0.0122111 0.200829
-0.221929 -0.0121013 0.210908
-0.216427 -0.0120167 0.219782
-0.211905 -0.011481 0.225885
-0.207389 -0.0121132 0.232235
-0.20238 -0.0117511 0.239564
-0.197165 -0.0118497 0.249117
-0.191407 -0.011702 0.263479
-0.186206 -0.0116728 0.278048
-0.181558 -0.0115554 0.287114
-0.1769 -0.0113005 0.295694
-0.171885 -0.0115052 0.30242
-0.167728 -0.0116104 0.309468
-0.163566 -0.0112884 0.314369
-0.159316 -0.0113665 0.319953
-0.154715 -0.0112128 0.327195
-0.150492 -0.0111457 0.331894
-0.146189 -0.0112111 0.33686
-0.142266 -0.0110949 0.3419
-0.137972 -0.0113185 0.345384
-0.133903 -0.0110693 0.348817
-0.130257 -0.0109585 0.352568
-0.126598 -0.0111417 0.353877
-0.122408 -0.0109716 0.357051
-0.118575 -0.0110929 0.360578
-0.114289 -0.0108481 0.361627
-0.110588 -0.0109499 0.362993
-0.106912 -0.011152 0.364719
-0.102926 -0.0110083 0.366139
-0.0995021 -0.011323 0.368415
-0.0957575 -0.0109131 0.36898
-0.0916241 -0.011013 0.370574
-0.0883022 -0.010771 0.371946
-0.0844655 -0.0108545 0.374005
-0.080956 -0.0112743 0.375324
-0.0768608 -0.0110846 0.376328
-0.0733895 -0.0108564 0.376933
-0.0694333 -0.0110869 0.379611
-0.0656184 -0.0107587 0.3799
-0.0624868 -0.0110816 0.381174
-0.0584704 -0.0107407 0.380965
-0.0546132 -0.0107999 0.381715
-0.0511645 -0.0108164 0.382109
-0.0475247 -0.010749 0.382215
-0.0436484 -0.011185 0.383188
-0.0402527 -0.0111586 0.382663
-0.0361945 -0.0110103 0.383711
-0.0327559 -0.0112389 0.383011
-0.0287109 -0.0109456 0.38212
-0.0257685 -0.0112774 0.381463
-0.0221999 -0.0109332 0.381835
-0.0183279 -0.0112603 0.379701
-0.0150296 -0.0113562 0.380275
-0.0110246 -0.0108781 0.379935
-0.00746702 -0.0109488 0.379063
-0.0038332 -0.0107791 0.378785
0.000165807 -0.0110134 0.378915
0.00368912 -0.010779 0.377466
0.00729184 -0.0110884 0.377496
0.0111628 -0.0110072 0.375987
0.0146574 -0.0111217 0.375411
0.0180651 -0.0112129 0.374735
0.0217662 -0.0111614 0.373234
0.0253813 -0.010962 0.372316
0.0293551 -0.0112145 0.371072
0.0329529 -0.0111351 0.369784
0.0370003 -0.0106759 0.369421
0.0406037 -0.0111901 0.368391
0.0444055 -0.0108645 0.367142
0.0477587 -0.0111562 0.367147
0.0515973 -0.0109871 0.365237
0.0554298 -0.0110725 0.363959
0.0590118 -0.0109196 0.362704
0.062867 -0.0109861 0.362073
0.0663797 -0.011254 0.360055
0.0703619 -0.0110788 0.359158
0.0741512 -0.0111029 0.356655
0.0777849 -0.0111562 0.355647
0.0818428 -0.0113457 0.353896
0.0854583 -0.0114668 0.353152
0.0893077 -0.0110404 0.349895
0.0931803 -0.0111684 0.347876
0.0970135 -0.011303 0.344778
0.10069 -0.0110711 0.342007
0.104589 -0.0112408 0.339587
0.108496 -0.0110864 0.336359
0.113128 -0.0114919 0.333049
0.116896 -0.0114144 0.329446
0.1204 -0.0116694 0.326443
0.125077 -0.0112701 0.322033
0.128829 -0.0115917 0.319212
0.132825 -0.0111337 0.315721
0.136934 -0.0114245 0.311558
0.141508 -0.0115083 0.307174
0.145414 -0.0112628 0.303507
0.149695 -0.0116199 0.298447
0.154427 -0.0115199 0.291632
0.158394 -0.0117276 0.286604
0.163423 -0.0112968 0.27578
0.168322 -0.0119704 0.265088
0.174525 -0.0116823 0.239852
-0.376106 -0.00971554 -0.254055
-0.370501 -0.0101644 -0.249562
-0.363937 -0.0102206 -0.241832
-0.358202 -0.00993678 -0.235638
-0.351725 -0.0100116 -0.225842
-0.344497 -0.009764 -0.212491
-0.335998 -0.0103698 -0.190141
-0.327141 -0.00970667 -0.165398
-0.3184 -0.00988489 -0.139496
-0.309896 -0.00952486 -0.116115
-0.301595 -0.00967002 -0.0869589
-0.294835 -0.00957431 -0.0735588
-0.289112 -0.0091212 -0.0654397
-0.282663 -0.00935464 -0.0552192
-0.261588 -0.00869284 0.0689873
-0.244478 -0.0082836 0.159652
-0.239324 -0.00810109 0.174232
-0.232921 -0.00804418 0.18852
-0.227134 -0.00800804 0.201292
-0.221746 -0.00786896 0.210395
-0.217354 -0.00796095 0.217788
-0.212145 -0.00792408 0.225426
-0.207499 -0.00795549 0.231235
-0.202674 -0.00777021 0.237773
-0.198136 -0.00793056 0.244225
-0.192829 -0.00762068 0.254269
-0.187495 -0.00769578 0.268185
-0.181995 -0.00779537 0.282586
-0.177446 -0.00739893 0.290126
-0.172832 -0.00768688 0.297005
-0.168225 -0.00759471 0.304439
-0.164122 -0.00766617 0.310737
-0.159564 -0.00744817 0.316453
-0.15519 -0.00803593 0.32317
-0.150708 -0.00755656 0.328393
-0.146379 -0.00752824 0.333338
-0.142108 -0.00727723 0.339161
-0.137981 -0.00744439 0.343334
-0.133898 -0.00758682 0.346938
-0.130432 -0.00738759 0.349317
-0.125975 -0.00738757 0.354101
-0.122526 -0.00733439 0.354937
-0.118537 -0.00754055 0.356892
-0.114648 -0.00736609 0.35954
-0.111004 -0.00749725 0.360878
-0.10721 -0.00728122 0.36288
-0.103045 -0.00745777 0.364608
-0.0993033 -0.00705599 0.365958
-0.0956834 -0.00752679 0.36803
-0.0918256 -0.00714884 0.369127
-0.0881917 -0.0072072 0.371492
-0.0841581 -0.00754636 0.372034
-0.080671 -0.00746956 0.374135
-0.0773263 -0.00717782 0.373882
-0.0734902 -0.00730933 0.375371
-0.0697799 -0.00747401 0.37599
-0.0657691 -0.00702564 0.377331
-0.0622521 -0.00714622 0.379422
-0.0584577 -0.00757155 0.379931
-0.0546505 -0.00692558 0.379605
-0.0514228 -0.00735402 0.381222
-0.0473047 -0.00741106 0.381072
-0.043836 -0.00714315 0.381649
-0.0400763 -0.00707056 0.379935
-0.0364151 -0.00745022 0.381579
-0.0330041 -0.00751389 0.380955
-0.0290487 -0.00743143 0.380208
-0.0254865 -0.00717219 0.378966
-0.0220112 -0.00742972 0.379779
-0.0182118 -0.00755938 0.378482
-0.0148122 -0.00742533 0.378207
-0.0109297 -0.00755879 0.377489
-0.00719876 -0.00746245 0.377115
-0.0038266 -0.00710361 0.376664
-0.000106411 -0.00728801 0.377013
0.00370038 -0.00725974 0.37507
0.00696345 -0.00673195 0.374916
0.0108206 -0.00719925 0.373769
0.0146798 -0.00729886 0.372351
0.018184 -0.00731256 0.371374
0.0224921 -0.00715298 0.370267
0.0256883 -0.00754317 0.369704
0.0292706 -0.00739698 0.369199
0.0332676 -0.00742629 0.3669
0.03697 -0.00749762 0.36667
0.0406779 -0.00746806 0.366408
0.0444422 -0.00733436 0.364696
0.0478268 -0.00733297 0.364571
0.0516954 -0.0072042 0.362154
0.0550753 -0.00753668 0.361863
0.0593754 -0.00732784 0.360527
0.0627849 -0.00728331 0.359376
0.0664241 -0.00765292 0.358712
0.0704703 -0.00715513 0.356023
0.0739982 -0.00752655 0.354085
0.0778262 -0.00740662 0.351913
0.0817134 -0.00757306 0.350407
0.0854777 -0.00745073 0.349062
0.0892659 -0.00743765 0.346676
0.0933263 -0.00727962 0.34402
0.0970924 -0.00736589 0.342465
0.100845 -0.00783111 0.339766
0.105106 -0.00764559 0.335949
0.108977 -0.0074737 0.331942
0.113044 -0.00762681 0.330071
0.116853 -0.00762528 0.326826
0.121006 -0.00775052 0.323897
0.125062 -0.00780903 0.320163
0.128725 -0.00758969 0.316847
0.133191 -0.00776097 0.313288
0.137819 -0.00771284 0.307523
0.141742 -0.0076229 0.303428
0.145917 -0.00772094 0.299519
0.150255 -0.00766612 0.29408
0.154337 -0.00756673 0.288132
0.159141 -0.00790374 0.279629
0.164127 -0.00750754 0.268509
0.168993 -0.00836881 0.255401
-0.397129 -0.00477338 -0.25716
-0.390628 -0.00509633 -0.249467
-0.385051 -0.00540414 -0.246109
-0.378715 -0.0050094 -0.239258
-0.373297 -0.00501932 -0.236422
-0.367698 -0.00522337 -0.233272
-0.361983 -0.00497308 -0.229317
-0.356316 -0.00498451 -0.224339
-0.350312 -0.00498363 -0.218868
-0.343799 -0.00481803 -0.210366
-0.33671 -0.00506179 -0.196544
-0.329279 -0.00488207 -0.179669
-0.320471 -0.00536045 -0.154094
-0.313138 -0.00466962 -0.135393
-0.303317 -0.00492311 -0.101147
-0.295747 -0.00438914 -0.0823946
-0.289493 -0.0045823 -0.069958
-0.28253 -0.00447259 -0.059324
-0.277112 -0.00453743 -0.0496886
-0.246196 -0.00407615 0.149718
-0.239109 -0.00412774 0.170746
-0.233663 -0.00414799 0.185164
-0.22748 -0.00377261 0.199216
-0.222282 -0.00393201 0.208654
-0.216819 -0.00387241 0.218485
-0.212121 -0.00380427 0.224713
-0.207993 -0.00379171 0.229098
-0.202571 -0.00440865 0.236666
-0.197863 -0.00460122 0.242599
-0.193531 -0.00419366 0.249542
-0.188479 -0.00399069 0.260699
-0.183028 -0.00384581 0.274815
-0.178425 -0.00418557 0.28383
-0.173015 -0.00369323 0.292865
-0.168934 -0.00392592 0.29962
-0.164426 -0.00386201 0.30684
-0.159755 -0.00400435 0.312437
-0.155532 -0.00393335 0.31888
-0.151521 -0.0039481 0.323596
-0.146956 -0.00368907 0.329401
-0.142376 -0.00388095 0.335254
-0.138495 -0.0037274 0.33956
-0.13421 -0.00386322 0.344046
-0.130452 -0.00419764 0.346838
-0.126585 -0.00341692 0.349275
-0.122058 -0.0040253 0.35405
-0.118333 -0.00363922 0.355706
-0.114739 -0.00400067 0.357718
-0.110644 -0.00373225 0.360387
-0.107718 -0.00361253 0.360081
-0.103713 -0.00387528 0.362307
-0.0997238 -0.0039546 0.364703
-0.0959172 -0.0036482 0.365906
-0.0921591 -0.00366846 0.366684
-0.0880669 -0.0034714 0.369071
-0.0847781 -0.00349642 0.370008
-0.0806941 -0.00319373 0.371174
-0.0771943 -0.00368309 0.372353
-0.0733134 -0.00373008 0.374536
-0.0699893 -0.00359788 0.375259
-0.0656433 -0.00385551 0.376713
-0.0621127 -0.00396568 0.378034
-0.0586923 -0.00340898 0.3786
-0.0547749 -0.00367253 0.378641
-0.0515667 -0.00340117 0.378826
-0.0473752 -0.00348303 0.378684
-0.0439952 -0.00358437 0.379003
-0.0401336 -0.00388245 0.379363
-0.0366361 -0.00349907 0.378953
-0.0325897 -0.00354858 0.378315
-0.0290216 -0.003734 0.377546
-0.0255094 -0.00410652 0.377622
-0.021833 -0.0038238 0.37695
-0.0182626 -0.00366602 0.376904
-0.0148697 -0.00351179 0.37539
-0.0109954 -0.00361261 0.376124
-0.00767715 -0.00359795 0.375487
-0.00358522 -0.00369374 0.374499
8.81771e-05 -0.0038015 0.374323
0.00382315 -0.00381676 0.374263
0.00743018 -0.00342931 0.37253
0.0111364 -0.00355756 0.371816
0.0144671 -0.00390111 0.371574
0.0183546 -0.00368506 0.37028
0.022472 -0.00364465 0.367407
0.0254091 -0.00364572 0.367102
0.0293477 -0.00370696 0.36688
0.0327632 -0.00364328 0.366192
0.0367562 -0.00383176 0.3638
0.0405082 -0.00376665 0.364124
0.0443273 -0.00386072 0.36244
0.0482801 -0.00329941 0.361021
0.0517131 -0.00397514 0.360658
0.0555204 -0.00376464 0.358624
0.0596172 -0.00372968 0.35739
0.0630463 -0.00373528 0.35639
0.0668959 -0.00375868 0.355324
0.0706102 -0.00383629 0.353652
0.0744959 -0.00373481 0.352795
0.0783585 -0.0036264 0.349586
0.0816642 -0.00364806 0.348688
0.0855401 -0.0037085 0.34605
0.0893937 -0.00341282 0.344484
0.0936476 -0.00380934 0.341977
0.0973069 -0.00381277 0.339451
0.101308 -0.00413208 0.336579
0.105228 -0.00411089 0.333591
0.109285 -0.00384129 0.32998
0.113034 -0.00357032 0.325972
0.117379 -0.00369009 0.323145
0.121442 -0.00396428 0.319958
0.125252 -0.00378685 0.316832
0.129584 -0.00389902 0.31188
0.133634 -0.00400746 0.309259
0.137434 -0.00380406 0.306045
0.14182 -0.0038032 0.301103
0.146119 -0.00403877 0.295104
0.150183 -0.00408286 0.290347
0.154966 -0.004209 0.283286
0.159406 -0.00370302 0.273498
0.164517 -0.00401187 0.261134
-0.406923 -0.000242918 -0.254138
-0.398663 0.000229391 -0.237524
-0.393025 1.91609e-05 -0.232406
-0.38703 0.000308013 -0.229335
-0.381722 0.000284115 -0.227414
-0.376663 -0.000332432 -0.227349
-0.370709 -4.16182e-05 -0.223686
-0.365402 -0.000202409 -0.222421
-0.36074 -0.000112188 -0.219583
-0.355029 -0.000275971 -0.217445
-0.349557 0.000114233 -0.213056
-0.343569 0.000102617 -0.207218
-0.337 -1.02211e-05 -0.198476
-0.331257 0.000377652 -0.189342
-0.32325 -0.000217843 -0.170309
-0.315692 -0.000216858 -0.150281
-0.306948 0.000292526 -0.126416
-0.297869 -8.26968e-05 -0.0958035
-0.290853 -1.31391e-05 -0.0796013
-0.285167 0.000329777 -0.0690894
-0.277845 0.000177941 -0.0560274
-0.247952 8.88384e-06 0.136924
-0.24025 0.000381061 0.162888
-0.233984 -0.000151529 0.181517
-0.22776 -0.000290783 0.197143
-0.222487 4.40362e-05 0.206785
-0.217159 -0.000126302 0.216333
-0.212424 -4.38598e-05 0.222594
-0.207586 -0.000119859 0.229842
-0.202953 -0.00027718 0.235845
-0.198327 0.000202931 0.24142
-0.193882 0.000305499 0.247121
-0.189221 -0.00029128 0.255934
-0.183717 -1.03284e-06 0.267184
-0.178605 -8.93766e-05 0.2804
-0.173908 -3.01936e-05 0.288631
-0.168827 -2.98559e-05 0.296262
-0.164961 -0.000377407 0.302456
-0.160139 -0.000114126 0.308555
-0.15602 0.000397951 0.314011
-0.151537 -4.62508e-05 0.320433
-0.147453 0.000211574 0.325651
-0.14305 3.99988e-05 0.330674
-0.138428 0.000446797 0.336438
-0.1348 -4.25388e-05 0.340274
-0.13046 1.36199e-05 0.34417
-0.126462 0.000290908 0.347791
-0.123095 8.35914e-05 0.350081
-0.118928 0.000130705 0.353704
-0.115101 0.000107268 0.35497
-0.110907 -0.000161334 0.35756
-0.107227 5.43811e-05 0.359059
-0.103245 -7.10898e-05 0.36169
-0.0994982 -0.000210029 0.364116
-0.095859 -0.000159228 0.36511
-0.0921134 0.000371241 0.365251
-0.0882773 -9.75014e-05 0.367464
-0.0845783 -0.00026598 0.369002
-0.0808772 -0.000120336 0.369219
-0.077181 -0.000341079 0.371554
-0.0732366 0.000104568 0.372584
-0.0692084 -3.95535e-05 0.373535
-0.0657718 -0.000219481 0.374984
-0.0622234 -7.63446e-05 0.374555
-0.0587237 -0.000187059 0.375608
-0.054453 -0.000164049 0.377193
-0.0512205 -5.18579e-05 0.376807
-0.0479322 -0.000284961 0.377173
-0.0438446 -0.000173748 0.376941
-0.0403302 1.02506e-05 0.377577
-0.0366536 -5.18705e-05 0.376414
-0.0331341 -8.74496e-05 0.377035
-0.029341 -0.000151011 0.375937
-0.0252861 0.000105955 0.37511
-0.0220151 0.000232466 0.374947
-0.0184768 0.000111194 0.374978
-0.0147477 1.45343e-05 0.374363
-0.0110354 -0.000357125 0.373625
-0.00753458 -0.000203774 0.373572
-0.00393587 1.0082e-05 0.373574
0.000114086 -3.62823e-05 0.372416
0.00388623 -0.000121317 0.371706
0.00754461 0.000303082 0.370233
0.0108687 0.00023623 0.369018
0.0147135 0.000196436 0.368488
0.0185699 -0.000170093 0.367453
0.0220886 -0.0002 0.366384
0.0255516 0.000241107 0.364957
0.0293665 -0.000153836 0.364424
0.0331743 -0.00033623 0.363031
0.0367867 -0.000231733 0.36233
0.0405293 7.81533e-06 0.361007
0.0443489 0.000298067 0.360415
0.0480029 -0.000131608 0.359572
0.0516431 4.50023e-05 0.358665
0.0555552 4.11616e-05 0.35577
0.0596775 0.000327777 0.35452
0.062684 0.00019011 0.354221
0.0670829 -0.000303726 0.351981
0.0709731 0.0002073 0.350134
0.07452 0.000311045 0.348583
0.0785909 1.79307e-05 0.347101
0.0821208 -0.000203167 0.34535
0.086235 0.000336455 0.342696
0.0898836 0.000168518 0.340811
0.093328 -0.00017102 0.339562
0.0977177 -0.000243025 0.3358
0.101265 3.19843e-05 0.333515
0.10518 -0.000329132 0.330736
0.109042 -3.22943e-05 0.327754
0.113263 4.73429e-05 0.3243
0.117576 0.000289361 0.320184
0.121556 2.40775e-06 0.316859
0.125534 -0.000106341 0.313705
0.129562 -0.000169393 0.310384
0.133247 0.000322768 0.306706
0.138169 9.98488e-05 0.30103
0.14204 5.80496e-05 0.297357
0.14625 -6.80246e-05 0.291523
0.150991 0.00013067 0.284599
0.155165 0.000267657 0.276846
0.159963 -7.00518e-05 0.266558
0.166117 0.000216655 0.245723
-0.414184 0.00483241 -0.240492
-0.407619 0.00498387 -0.229985
-0.401437 0.00546889 -0.225065
-0.395984 0.00475188 -0.222687
-0.390792 0.00463537 -0.221327
-0.385165 0.00527066 -0.219553
-0.380481 0.00479839 -0.219075
-0.374935 0.00485526 -0.216416
-0.369864 0.00494431 -0.215238
-0.36491 0.00494527 -0.214486
-0.359143 0.00504305 -0.212216
-0.354085 0.00470248 -0.210921
-0.348896 0.00474231 -0.208848
-0.342736 0.00476254 -0.203468
-0.336906 0.00462136 -0.198164
-0.330583 0.00504018 -0.189429
-0.324469 0.00487953 -0.17923
-0.317259 0.00483816 -0.162595
-0.309671 0.00452452 -0.142262
-0.301624 0.00467238 -0.118977
-0.2921 0.00451223 -0.090308
-0.28559 0.00453254 -0.076102
-0.278722 0.00469155 -0.0636337
-0.272346 0.00442589 -0.0508771
-0.241087 0.00346293 0.157481
-0.234129 0.0043009 0.177296
-0.228563 0.00399651 0.193007
-0.222526 0.00395722 0.204967
-0.217404 0.00411003 0.214621
-0.21266 0.00348734 0.221862
-0.207382 0.00397232 0.227823
-0.202961 0.0040657 0.23452
-0.198606 0.00385627 0.239718
-0.194003 0.00380461 0.245637
-0.189098 0.00392817 0.253
-0.184832 0.00380706 0.260853
-0.179039 0.00377392 0.275149
-0.173852 0.00404728 0.28478
-0.169499 0.00355433 0.292139
-0.164526 0.00406691 0.298127
-0.160703 0.00410889 0.304665
-0.155781 0.00369088 0.31218
-0.151516 0.00359879 0.317703
-0.147558 0.00399931 0.321896
-0.143323 0.00365791 0.327714
-0.13897 0.00380201 0.333493
-0.134918 0.00338694 0.337816
-0.130967 0.00387696 0.341375
-0.126755 0.00381769 0.345212
-0.122937 0.00372741 0.348331
-0.118854 0.00357961 0.351292
-0.114816 0.00350651 0.353683
-0.111046 0.0032549 0.356365
-0.107591 0.00351751 0.357435
-0.103551 0.00329322 0.359239
-0.0999202 0.0038878 0.361557
-0.0955936 0.00380508 0.362439
-0.0919378 0.00350502 0.36427
-0.0886951 0.00372465 0.365438
-0.0847157 0.00359963 0.366375
-0.0808233 0.00350581 0.367717
-0.077409 0.00389088 0.368942
-0.0736195 0.00369128 0.369507
-0.0696458 0.0036134 0.371145
-0.0663901 0.00405359 0.371459
-0.062405 0.00379057 0.372609
-0.0585607 0.00368591 0.374105
-0.0551878 0.00356959 0.374118
-0.0513889 0.0034931 0.374627
-0.0479763 0.0034197 0.375622
-0.0440273 0.00371613 0.375382
-0.0399576 0.0035343 0.374836
-0.0365971 0.00339031 0.375229
-0.0329675 0.00393467 0.374147
-0.0297197 0.00396517 0.373562
-0.02563 0.00366229 0.373576
-0.0220465 0.00346565 0.373233
-0.0181711 0.00375481 0.37255
-0.0142804 0.00375217 0.372603
-0.0109096 0.00384928 0.37223
-0.00742913 0.00352611 0.371101
-0.00368707 0.00380457 0.370766
0.000144565 0.00334054 0.37003
0.00394286 0.00354525 0.368997
0.00739645 0.00358482 0.368243
0.0108973 0.00367113 0.366711
0.0145157 0.00370361 0.365093
0.01824 0.0036818 0.364478
0.021887 0.00372269 0.363304
0.0264071 0.00388562 0.361487
0.0295118 0.00383773 0.362669
0.033361 0.00390746 0.360438
0.0366907 0.00343893 0.359614
0.0404876 0.0037443 0.358189
0.0447355 0.00348072 0.35724
0.0483079 0.00389833 0.355962
0.0518134 0.00388629 0.355004
0.0553946 0.00385413 0.354332
0.0596254 0.00405615 0.35116
0.0631624 0.00359877 0.351427
0.0666999 0.00340475 0.349925
0.0710049 0.00383038 0.347651
0.0747918 0.00368844 0.346382
0.078413 0.0039091 0.34451
0.0825257 0.00345863 0.342203
0.0863562 0.00361607 0.341329
0.0900462 0.00382285 0.338684
0.0936634 0.00394957 0.336111
0.0975672 0.00359473 0.334083
0.10143 0.00390702 0.33022
0.105801 0.00420855 0.326274
0.109411 0.00388541 0.323742
0.113727 0.00390004 0.321574
0.117963 0.00385559 0.317045
0.121755 0.00370398 0.313456
0.12576 0.00369284 0.310917
0.129814 0.00387664 0.306713
0.134006 0.00367592 0.302737
0.137895 0.00385704 0.298797
0.142525 0.00387068 0.2935
0.146762 0.0039752 0.287118
0.151396 0.00402033 0.278901
0.155921 0.003921 0.270584
0.161592 0.00398802 0.254242
-0.416594 0.00992971 -0.226403
-0.410996 0.0104277 -0.220324
-0.405103 0.00998293 -0.216945
-0.399726 0.00990875 -0.215959
-0.394237 0.0101732 -0.213029
-0.389214 0.00948715 -0.213309
-0.383742 0.00997788 -0.21085
-0.379292 0.00957983 -0.210466
-0.373692 0.00986158 -0.209652
-0.368801 0.010235 -0.20832
-0.363584 0.0101924 -0.209079
-0.358434 0.0102301 -0.205232
-0.352887 0.00963438 -0.205159
-0.34795 0.00951125 -0.203552
-0.342107 0.00984808 -0.198991
-0.336924 0.0102207 -0.196041
-0.330776 0.0100773 -0.188985
-0.325164 0.00986514 -0.181548
-0.318239 0.00989059 -0.169275
-0.3108 0.00936616 -0.15234
-0.303086 0.00975033 -0.133215
-0.29578 0.00928459 -0.112358
-0.288211 0.0100584 -0.0925004
-0.28101 0.00914973 -0.0742502
-0.275016 0.00947814 -0.0632241
-0.243909 0.00866854 0.138899
-0.235327 0.00819575 0.169424
-0.2284 0.00788611 0.190155
-0.223169 0.00789581 0.201654
-0.217812 0.00807966 0.21145
-0.213097 0.00801468 0.219255
-0.20787 0.00797017 0.226374
-0.203605 0.00797113 0.231976
-0.198608 0.00792431 0.23812
-0.193939 0.00807793 0.243036
-0.189061 0.00802062 0.250829
-0.184269 0.00804342 0.259477
-0.179296 0.00774652 0.269946
-0.17477 0.00775469 0.278937
-0.170368 0.00789349 0.287238
-0.165452 0.00779788 0.294795
-0.160896 0.00763543 0.30091
-0.156376 0.00777982 0.307743
-0.151831 0.00768065 0.313704
-0.147721 0.00779401 0.31917
-0.143652 0.00746012 0.324454
-0.139442 0.00783931 0.328863
-0.135408 0.00784347 0.332764
-0.131433 0.00772278 0.337651
-0.127034 0.00713754 0.34277
-0.122774 0.00752756 0.346104
-0.118864 0.00740392 0.34866
-0.114889 0.00749516 0.351322
-0.111538 0.00758835 0.35366
-0.107236 0.00761317 0.35593
-0.103827 0.00742999 0.3586
-0.0996365 0.00742735 0.360434
-0.0958128 0.00740124 0.360026
-0.0921218 0.00746572 0.363163
-0.0885229 0.00729414 0.36414
-0.0849571 0.00743714 0.364772
-0.0807836 0.00742716 0.365808
-0.0771943 0.00744865 0.367247
-0.0731056 0.00740457 0.367997
-0.0700728 0.0072321 0.368984
-0.0666258 0.00740252 0.369819
-0.0622513 0.00750435 0.370875
-0.0583897 0.0070394 0.372449
-0.0552488 0.00772107 0.372024
-0.0513043 0.00720703 0.372362
-0.0476478 0.00752019 0.373833
-0.0440857 0.00747998 0.371867
-0.040463 0.00717115 0.37214
-0.0366451 0.00748137 0.372747
-0.033111 0.00720002 0.372589
-0.0293568 0.00744282 0.371674
-0.0259276 0.00735115 0.37091
-0.0220729 0.00728087 0.371209
-0.0185186 0.00740773 0.369314
-0.0147324 0.00742073 0.368636
-0.0109763 0.00715351 0.369526
-0.00722896 0.00728087 0.368992
-0.00385284 0.00754186 0.367759
9.24584e-05 0.00744066 0.367164
0.00365349 0.00744545 0.36624
0.00731143 0.00711153 0.365638
0.0112144 0.00727479 0.365508
0.0148592 0.00726072 0.363409
0.0182963 0.0074227 0.362194
0.0222838 0.0073081 0.360177
0.0258192 0.00735404 0.35961
0.0295796 0.00734074 0.35948
0.0330525 0.00724239 0.357478
0.0368411 0.00713397 0.357512
0.0406079 0.00788998 0.355752
0.0446995 0.00730848 0.354942
0.0480447 0.00753782 0.353724
0.0520211 0.00738167 0.353141
0.0558588 0.00723653 0.349795
0.0596301 0.00730873 0.349306
0.0631875 0.00745169 0.348456
0.0671459 0.00751081 0.345754
0.0707619 0.00749979 0.346009
0.0747941 0.00738221 0.344124
0.0788202 0.00773354 0.341422
0.0824302 0.0072726 0.340577
0.0860432 0.00737998 0.338269
0.0901714 0.00730816 0.335949
0.0936966 0.00779761 0.33271
0.0979753 0.0075093 0.329465
0.101773 0.00730344 0.32822
0.105913 0.00756709 0.324075
0.110009 0.00773851 0.320997
0.113707 0.00778886 0.317817
0.117806 0.00719244 0.314347
0.121801 0.00768357 0.310411
0.126013 0.00765384 0.306785
0.13028 0.00764789 0.302594
0.133962 0.00745696 0.299807
0.138765 0.00756566 0.294216
0.142552 0.00764123 0.289729
0.147228 0.00766987 0.281439
0.152038 0.0077144 0.273075
0.1566 0.00789673 0.261258
0.163699 0.00793162 0.227711
-0.427501 0.0150762 -0.229338
-0.421002 0.015075 -0.221137
-0.414366 0.0150907 -0.215126
-0.409151 0.0146945 -0.212922
-0.404119 0.0147382 -0.210292
-0.398076 0.0150793 -0.207775
-0.393117 0.0151376 -0.206138
-0.388228 0.0149312 -0.205958
-0.383163 0.0143007 -0.205367
-0.378092 0.0150425 -0.204193
-0.37261 0.0148977 -0.204157
-0.367216 0.0155025 -0.202309
-0.362508 0.0147585 -0.202124
-0.357507 0.0152205 -0.201474
-0.352244 0.0152288 -0.200505
-0.347482 0.0144682 -0.1999
-0.341379 0.0150637 -0.195569
-0.336677 0.0152357 -0.192405
-0.330698 0.0145992 -0.187765
-0.324583 0.0151726 -0.180189
-0.317563 0.0144597 -0.168563
-0.311522 0.0145621 -0.158271
-0.304729 0.0145638 -0.14457
-0.297542 0.0145862 -0.127114
-0.290069 0.0140657 -0.106957
-0.28193 0.0135507 -0.0844164
-0.276029 0.0142706 -0.071552
-0.268712 0.0137032 -0.0564015
-0.237435 0.0127978 0.155333
-0.22953 0.0120246 0.183473
-0.223199 0.0123775 0.199144
-0.218558 0.0118389 0.208053
-0.213059 0.0117943 0.217473
-0.208491 0.0122245 0.22338
-0.203656 0.0119117 0.23008
-0.199032 0.0119115 0.235515
-0.19418 0.0120149 0.242851
-0.189659 0.0120309 0.248295
-0.184712 0.0120177 0.256213
-0.180199 0.0118688 0.26503
-0.175442 0.0116422 0.274256
-0.17009 0.0115506 0.283279
-0.165943 0.0113827 0.290905
-0.161673 0.0113207 0.296649
-0.156874 0.0118064 0.303514
-0.152411 0.0114512 0.309281
-0.14822 0.0114726 0.3155
-0.144043 0.0110407 0.320746
-0.139822 0.0110768 0.325662
-0.135563 0.011261 0.329987
-0.131122 0.0111495 0.334905
-0.127356 0.0112357 0.338817
-0.123191 0.0112729 0.342316
-0.119491 0.011407 0.344347
-0.11532 0.0113147 0.348823
-0.111424 0.0108124 0.351342
-0.107488 0.0108292 0.354515
-0.103789 0.0110755 0.355721
-0.100095 0.0114209 0.357161
-0.0962331 0.0110196 0.358966
-0.0924111 0.0112138 0.360234
-0.0888738 0.0111512 0.361647
-0.0845502 0.0113631 0.362497
-0.0810972 0.0109468 0.363422
-0.0773463 0.0109888 0.365212
-0.0734193 0.0113111 0.365552
-0.0699189 0.0112387 0.367688
-0.066154 0.0111278 0.368346
-0.0629453 0.0110453 0.368898
-0.0592918 0.0113867 0.368067
-0.0553513 0.011023 0.37009
-0.0516155 0.0112298 0.37028
-0.0478114 0.0108569 0.369861
-0.0444647 0.0108747 0.370687
-0.0400948 0.0111119 0.370801
-0.0369803 0.0108438 0.370924
-0.0332103 0.0108041 0.369788
-0.0293781 0.0108699 0.369157
-0.025451 0.0107923 0.369692
-0.0219613 0.0106401 0.36904
-0.0185549 0.0104842 0.368435
-0.0148079 0.0112656 0.366954
-0.0110023 0.0111705 0.36694
-0.00740439 0.0110667 0.366019
-0.00358845 0.0107457 0.365793
-0.000272705 0.0109651 0.36482
0.00367428 0.0108603 0.363311
0.00766291 0.0110044 0.362138
0.0110117 0.0109699 0.361368
0.0147861 0.0113135 0.360581
0.0184778 0.0111364 0.359548
0.0220562 0.0108904 0.358607
0.0257825 0.0108416 0.357876
0.0299471 0.0114279 0.356043
0.0332233 0.010893 0.354815
0.036918 0.0109961 0.35382
0.0408689 0.0109177 0.353102
0.0443169 0.0109871 0.35179
0.0483037 0.0111116 0.351031
0.0522642 0.0113087 0.349176
0.0559436 0.0112115 0.347766
0.0597391 0.0113253 0.346297
0.0635864 0.0109439 0.345453
0.0673517 0.0109911 0.344167
0.071268 0.0114963 0.341676
0.0746492 0.0110739 0.3407
0.0786144 0.0112711 0.33874
0.0824998 0.0112874 0.336982
0.0862899 0.0113233 0.335808
0.0905064 0.0114071 0.333053
0.0943782 0.0115858 0.329341
0.0983841 0.0112082 0.326817
0.102034 0.0115098 0.324718
0.105956 0.0115946 0.320825
0.110002 0.0114233 0.318556
0.113883 0.0115353 0.314405
0.118253 0.0113252 0.311486
0.122476 0.0114576 0.30634
0.126248 0.011458 0.304825
0.13062 0.0115171 0.298844
0.134435 0.0116432 0.295697
0.138934 0.0114019 0.289589
0.143256 0.0114784 0.284523
0.147669 0.0116224 0.277089
0.152369 0.0113428 0.266496
0.158266 0.0116707 0.246703
-0.431669 0.0198931 -0.225031
-0.424786 0.0205176 -0.21528
-0.419064 0.019804 -0.210797
-0.412999 0.0203791 -0.206976
-0.408068 0.0204309 -0.205328
-0.402449 0.0196592 -0.203485
-0.397651 0.0197082 -0.201512
-0.392421 0.0193782 -0.202089
-0.387004 0.0195702 -0.201192
-0.382021 0.0195235 -0.199622
-0.377023 0.0195045 -0.200111
-0.371943 0.0197887 -0.199949
-0.366963 0.0194993 -0.198693
-0.361621 0.0198702 -0.197737
-0.356443 0.0193057 -0.198167
-0.351821 0.0197817 -0.196031
-0.346224 0.0198106 -0.194768
-0.341022 0.0194208 -0.192849
-0.335896 0.0196506 -0.188519
-0.330291 0.0197886 -0.184659
-0.324096 0.0196422 -0.178096
-0.318454 0.019266 -0.169736
-0.311745 0.0196869 -0.159336
-0.305078 0.0192377 -0.148347
-0.298877 0.0193412 -0.137034
-0.292092 0.0196134 -0.123151
-0.284768 0.0190903 -0.104597
-0.276735 0.0191934 -0.0829279
-0.270236 0.0188872 -0.0661576
-0.237688 0.0168174 0.148338
-0.229821 0.0164971 0.177692
-0.223945 0.0158562 0.194767
-0.218949 0.0162809 0.204481
-0.213469 0.0159978 0.214224
-0.209015 0.016028 0.220943
-0.20401 0.01622 0.228248
-0.198719 0.0159093 0.234981
-0.194439 0.0156508 0.240336
-0.190075 0.0159929 0.245794
-0.185128 0.0156174 0.2529
-0.18057 0.0159754 0.260907
-0.175123 0.0154013 0.271772
-0.170479 0.0153023 0.280032
-0.166495 0.0153609 0.286115
-0.161484 0.0156992 0.293803
-0.156796 0.0152272 0.30076
-0.152751 0.0148702 0.306821
-0.148226 0.0156505 0.311719
-0.14407 0.0155481 0.317371
-0.140215 0.0151936 0.321131
-0.135855 0.0152231 0.326533
-0.132351 0.0151106 0.330042
-0.127606 0.0149843 0.335928
-0.123366 0.0150779 0.339445
-0.119801 0.0150463 0.341514
-0.115474 0.0150656 0.346168
-0.11191 0.0145737 0.348914
-0.107603 0.0150878 0.350889
-0.103795 0.0148216 0.352408
-0.10011 0.0147026 0.355656
-0.0964053 0.0148317 0.356661
-0.0925065 0.0146129 0.358045
-0.0891337 0.0149749 0.359147
-0.0851182 0.0146767 0.359931
-0.080957 0.0145204 0.362007
-0.077463 0.0149099 0.363231
-0.0741242 0.0145345 0.363563
-0.0697898 0.0148014 0.364233
-0.066137 0.0149665 0.365681
-0.0630134 0.0149162 0.364831
-0.0592516 0.0146351 0.367358
-0.0554208 0.0147776 0.366474
-0.0514977 0.0148097 0.366944
-0.0478883 0.0146219 0.368242
-0.0439649 0.0146603 0.367933
-0.04052 0.0145195 0.368565
-0.0368326 0.0147662 0.367261
-0.0331016 0.014804 0.367002
-0.0292611 0.0144982 0.367454
-0.0257636 0.0143745 0.366608
-0.0221439 0.015063 0.365195
-0.0183914 0.0149304 0.365589
-0.0150286 0.0150395 0.365096
-0.0109854 0.0149236 0.363868
-0.00753978 0.0145985 0.363648
-0.00372362 0.014746 0.363237
0.000186128 0.0143452 0.361638
0.00381274 0.0152093 0.360993
0.00752752 0.0150732 0.359135
0.0113339 0.0152733 0.357899
0.015019 0.0149339 0.358217
0.0187765 0.014718 0.356936
0.0221652 0.0148422 0.356215
0.0259121 0.0146797 0.355191
0.0297754 0.0148189 0.353836
0.0334291 0.0149025 0.352368
0.0373414 0.0148583 0.351035
0.0405956 0.0148411 0.34975
0.0450043 0.0150334 0.347906
0.0488789 0.0149116 0.346995
0.0521562 0.0148378 0.346663
0.0563512 0.0147296 0.344726
0.0600971 0.0154158 0.343423
0.0635841 0.0150539 0.342248
0.0671118 0.0150011 0.342164
0.071198 0.0147021 0.340132
0.0750488 0.0149637 0.337602
0.0788072 0.0148108 0.336434
0.082828 0.0149562 0.334289
0.0863364 0.0149628 0.332614
0.0907229 0.0152031 0.329517
0.0942234 0.0149373 0.326775
0.098265 0.0152599 0.323915
0.102428 0.0152915 0.320558
0.106347 0.0154907 0.318298
0.110232 0.0154111 0.314541
0.11419 0.0150877 0.311407
0.118586 0.015274 0.307456
0.122295 0.0153449 0.303812
0.126482 0.0156084 0.300563
0.130805 0.0154205 0.295738
0.134755 0.0153363 0.290822
0.139213 0.0153837 0.285328
0.143737 0.0155242 0.278685
0.148578 0.0155122 0.268455
0.153708 0.0157996 0.25288
0.160897 0.0161161 0.216774
-0.436149 0.0250364 -0.224133
-0.428783 0.0250968 -0.212164
-0.423027 0.0250452 -0.207898
-0.417403 0.0250105 -0.205139
-0.412326 0.0248835 -0.201993
-0.406576 0.0248429 -0.19984
-0.401873 0.0245997 -0.198918
-0.396246 0.0250534 -0.197184
-0.391023 0.0245693 -0.195684
-0.386631 0.0248237 -0.196816
-0.381089 0.0245235 -0.195872
-0.37659 0.0248025 -0.195153
-0.371863 0.0247818 -0.195653
-0.365933 0.0245814 -0.19494
-0.360918 0.0247313 -0.193589
-0.355591 0.024694 -0.193069
-0.350926 0.0242944 -0.191756
-0.345634 0.0242011 -0.191778
-0.340411 0.0244234 -0.188967
-0.335671 0.0245603 -0.186544
-0.329664 0.0245162 -0.180373
-0.323316 0.0244495 -0.174226
-0.317838 0.0243346 -0.167758
-0.311512 0.0245248 -0.159182
-0.305378 0.0242248 -0.150687
-0.299479 0.0239176 -0.142163
-0.292823 0.0241277 -0.130593
-0.286506 0.0238845 -0.118099
-0.27883 0.0234306 -0.0990007
-0.272225 0.0232806 -0.0797827
-0.265097 0.022962 -0.0624793
-0.231468 0.0204711 0.164966
-0.224936 0.0203592 0.187765
-0.219138 0.0201332 0.200926
-0.21368 0.0201114 0.210253
-0.208555 0.0200713 0.219621
-0.204606 0.0201788 0.22547
-0.199733 0.019882 0.231968
-0.194712 0.019665 0.23841
-0.190446 0.0199532 0.243473
-0.18554 0.0196774 0.250942
-0.180591 0.0195984 0.258738
-0.17565 0.0197009 0.266681
-0.171476 0.0199535 0.273649
-0.166873 0.0195746 0.281992
-0.161793 0.0197508 0.290128
-0.157239 0.0193278 0.297709
-0.152939 0.0191361 0.303906
-0.148533 0.0189624 0.309516
-0.144804 0.019311 0.31386
-0.140678 0.0191672 0.318399
-0.136074 0.0189646 0.322704
-0.132129 0.0190003 0.326409
-0.127678 0.0191203 0.332373
-0.123815 0.0185786 0.33655
-0.119675 0.0186858 0.339961
-0.116074 0.0186628 0.342964
-0.111594 0.0184292 0.346518
-0.107824 0.0188305 0.349478
-0.103938 0.0185074 0.351636
-0.100117 0.0186342 0.352581
-0.0967387 0.0186351 0.35479
-0.0929908 0.0186293 0.355449
-0.0891546 0.0185777 0.357547
-0.0847787 0.0184634 0.359193
-0.0814962 0.0188109 0.358978
-0.0775854 0.0184287 0.360072
-0.0739956 0.0184441 0.360893
-0.0702165 0.0183875 0.361128
-0.0663803 0.0186187 0.363887
-0.0630573 0.0183082 0.364355
-0.0591167 0.0186119 0.364435
-0.0550371 0.0183133 0.365086
-0.051328 0.0181999 0.365429
-0.0476935 0.0183527 0.365879
-0.0440364 0.0186869 0.36539
-0.0408039 0.0181896 0.364749
-0.0367915 0.0184816 0.365822
-0.0332447 0.0182731 0.364722
-0.0294903 0.0183505 0.365524
-0.0258532 0.0181915 0.363945
-0.0217176 0.0184136 0.363466
-0.0188596 0.0184303 0.363765
-0.0148002 0.018638 0.361468
-0.0112412 0.0186946 0.361803
-0.00726664 0.0186611 0.360268
-0.00390898 0.0184812 0.360457
-0.000338719 0.0184826 0.360425
0.00374366 0.0186446 0.358898
0.00727779 0.0184712 0.357001
0.0108694 0.01862 0.356385
0.014809 0.0184468 0.35546
0.0183689 0.0187842 0.353056
0.02238 0.0184666 0.352996
0.0259767 0.0184993 0.35115
0.0293378 0.0186348 0.351002
0.0335885 0.0186501 0.349632
0.0370431 0.018333 0.349165
0.0407607 0.0186491 0.34726
0.0444929 0.0185264 0.346205
0.0485158 0.0186131 0.345086
0.0521162 0.0190086 0.343554
0.0560005 0.0181642 0.343297
0.0602073 0.0186735 0.340457
0.0638862 0.01859 0.339923
0.06768 0.0187691 0.338856
0.0711907 0.0186108 0.33653
0.0753248 0.0187677 0.334589
0.0789654 0.0189554 0.332748
0.0827171 0.0187307 0.330703
0.0863592 0.0191904 0.328275
0.0901994 0.0189343 0.327248
0.0946501 0.0188503 0.323831
0.0986166 0.0194876 0.320241
0.102225 0.0189458 0.319248
0.106293 0.018845 0.314924
0.110587 0.0191588 0.311507
0.114624 0.019064 0.307125
0.118945 0.0192883 0.303822
0.12273 0.0190706 0.300244
0.126871 0.0188623 0.295813
0.130991 0.0192148 0.29135
0.13499 0.0192762 0.286076
0.139179 0.0197046 0.280802
0.14508 0.0196372 0.269166
0.149085 0.0199553 0.257347
0.155307 0.0201122 0.23313
-0.434415 0.0298485 -0.213153
-0.427712 0.0296747 -0.206389
-0.422129 0.029994 -0.202433
-0.416872 0.0298511 -0.198691
-0.410734 0.0298227 -0.196754
-0.406016 0.0295428 -0.196156
-0.400888 0.0295691 -0.193893
-0.395796 0.029641 -0.19321
-0.390643 0.0295595 -0.192208
-0.385741 0.0299541 -0.191677
-0.380724 0.0296048 -0.192408
-0.37574 0.0292987 -0.191328
-0.370307 0.0294954 -0.191328
-0.365704 0.0293207 -0.191551
-0.360652 0.0294362 -0.190757
-0.355461 0.0295489 -0.189564
-0.350747 0.029155 -0.189482
-0.345213 0.0291177 -0.186661
-0.339397 0.0299167 -0.183055
-0.334513 0.0293479 -0.180292
-0.328698 0.0291353 -0.175931
-0.322447 0.0291745 -0.168274
-0.317218 0.0293396 -0.162842
-0.311231 0.0287555 -0.15707
-0.305082 0.0288814 -0.149735
-0.300034 0.029204 -0.14429
-0.293793 0.0286494 -0.135988
-0.28868 0.0289306 -0.129227
-0.281121 0.0282683 -0.114243
-0.274135 0.0283069 -0.0967908
-0.266897 0.0280663 -0.0749028
-0.233464 0.0252427 0.148301
-0.225376 0.0250151 0.180098
-0.219439 0.0244221 0.195903
-0.213922 0.0244162 0.206484
-0.209371 0.0238095 0.214416
-0.204689 0.0242023 0.222617
-0.199831 0.0238791 0.229755
-0.195235 0.0239231 0.235146
-0.190629 0.023738 0.241581
-0.185935 0.0236833 0.246851
-0.181216 0.0234559 0.254799
-0.17588 0.0231789 0.263088
-0.171884 0.0233963 0.270327
-0.166524 0.0229901 0.279878
-0.162055 0.0231249 0.287235
-0.157607 0.0232007 0.293694
-0.153514 0.0227693 0.29963
-0.148946 0.0229602 0.305974
-0.144744 0.0233364 0.310813
-0.140536 0.022952 0.315058
-0.136509 0.022935 0.319453
-0.132241 0.0226876 0.324155
-0.1281 0.0229231 0.327813
-0.123588 0.0226719 0.332945
-0.120152 0.0222667 0.335647
-0.116483 0.0224909 0.339812
-0.112101 0.0225183 0.343425
-0.107871 0.0225309 0.34543
-0.104198 0.0222696 0.34869
-0.100406 0.0223236 0.350342
-0.0965201 0.0221296 0.351757
-0.0929988 0.0222303 0.35353
-0.0887958 0.0221944 0.354803
-0.0852846 0.0222921 0.355193
-0.0812148 0.0225024 0.356359
-0.0778706 0.0221719 0.358275
-0.0740074 0.0226451 0.358599
-0.0703993 0.0221401 0.360219
-0.0669819 0.0220977 0.360395
-0.0626946 0.0222501 0.361394
-0.0594203 0.0220366 0.36174
-0.055459 0.0219552 0.363133
-0.0519751 0.0220717 0.363116
-0.0479877 0.0218398 0.363226
-0.0442019 0.0222923 0.363286
-0.0404034 0.0222146 0.363574
-0.0369112 0.0220445 0.36327
-0.0328797 0.0222938 0.362757
-0.029551 0.022394 0.362949
-0.0259701 0.0221481 0.362132
-0.0220145 0.0222367 0.360793
-0.0184861 0.0220534 0.361257
-0.0151605 0.0221884 0.360481
-0.0110166 0.022155 0.358713
-0.00725706 0.0225279 0.358014
-0.00344125 0.0221313 0.356638
-0.000310343 0.0224647 0.355435
0.00358418 0.0221939 0.355325
0.00758675 0.022476 0.353029
0.0111791 0.0224713 0.353367
0.0148226 0.0222451 0.351903
0.01846 0.0221585 0.352284
0.0224239 0.0224883 0.348879
0.0265129 0.0223326 0.348765
0.0300531 0.0221015 0.348497
0.0334809 0.0223716 0.346328
0.0369838 0.0219278 0.346483
0.0411249 0.0224347 0.344964
0.0450191 0.0226949 0.343454
0.0486352 0.0224262 0.341971
0.0522554 0.0224633 0.340501
0.0562871 0.0224518 0.339567
0.0599293 0.0222811 0.338276
0.0635341 0.0222671 0.336099
0.0678874 0.0221964 0.335105
0.0714746 0.0223968 0.333599
0.0750311 0.022153 0.332649
0.0790379 0.0224574 0.32967
0.0826538 0.0226079 0.328434
0.0868096 0.0225026 0.32548
0.0909523 0.0229071 0.323586
0.0949785 0.0226384 0.321329
0.0987738 0.0229036 0.317225
0.102507 0.0229866 0.314874
0.106635 0.0227793 0.3113
0.110604 0.0230509 0.308947
0.114633 0.0227522 0.303732
0.118702 0.0231483 0.300032
0.122995 0.0230299 0.295643
0.126956 0.0232717 0.292168
0.131528 0.0233297 0.285751
0.136073 0.0235027 0.278785
0.140361 0.023326 0.272163
0.144997 0.0235077 0.260746
0.151299 0.0238657 0.238779
0.157112 0.0241983 0.215739
-0.439241 0.0348499 -0.214442
-0.432774 0.0347726 -0.206856
-0.426865 0.0347984 -0.202015
-0.421 0.0346004 -0.197945
-0.416415 0.0345657 -0.196353
-0.410378 0.0351976 -0.193665
-0.405122 0.034474 -0.192452
-0.400057 0.0344427 -0.191007
-0.39508 0.0346745 -0.190953
-0.390109 0.0345971 -0.189525
-0.385313 0.0346714 -0.189023
-0.379914 0.0344363 -0.188941
-0.375019 0.0346429 -0.188905
-0.370483 0.0342998 -0.189089
-0.364915 0.0348225 -0.187632
-0.359933 0.0345547 -0.187783
-0.35444 0.0345315 -0.185916
-0.349835 0.0337965 -0.184747
-0.344759 0.0342989 -0.182986
-0.338952 0.0345143 -0.178677
-0.334055 0.0340191 -0.175847
-0.328224 0.0345377 -0.170764
-0.322101 0.0342521 -0.165516
-0.316834 0.0337387 -0.160695
-0.310967 0.0345713 -0.153947
-0.305347 0.0338897 -0.150335
-0.300042 0.0339066 -0.145357
-0.294704 0.0339095 -0.139523
-0.288794 0.0338262 -0.133636
-0.282692 0.0337017 -0.124825
-0.276606 0.0331141 -0.113355
-0.268311 0.0330819 -0.0912166
-0.260947 0.0324867 -0.0688291
-0.227565 0.028925 0.164678
-0.220004 0.0286476 0.190168
-0.214912 0.02846 0.201044
-0.209739 0.0281595 0.210419
-0.204696 0.0279706 0.219986
-0.199995 0.0278119 0.226656
-0.195513 0.028024 0.233011
-0.19098 0.0282095 0.238183
-0.186014 0.0281121 0.245497
-0.181255 0.0279939 0.251686
-0.176791 0.0273584 0.258947
-0.171671 0.0270091 0.267463
-0.167152 0.0272117 0.275163
-0.162457 0.0270136 0.283828
-0.15828 0.027047 0.290871
-0.1537 0.0268935 0.297339
-0.149125 0.0268056 0.302762
-0.145366 0.0264204 0.307503
-0.141088 0.0269421 0.312413
-0.136696 0.0266622 0.316292
-0.132077 0.0261836 0.32278
-0.128344 0.0264674 0.324821
-0.124231 0.0262216 0.329427
-0.120732 0.0263977 0.332218
-0.116485 0.0264598 0.336576
-0.112263 0.0259773 0.340102
-0.107965 0.0261009 0.342981
-0.104503 0.025898 0.34591
-0.100292 0.0261357 0.347186
-0.0970936 0.026073 0.348242
-0.0928041 0.0259901 0.350354
-0.0892717 0.0256872 0.352146
-0.0852524 0.0259519 0.353398
-0.0814825 0.0260411 0.35388
-0.077993 0.0256684 0.356232
-0.0743415 0.0257742 0.356567
-0.0706395 0.0259442 0.357129
-0.0667438 0.0258009 0.358713
-0.0630989 0.0258501 0.358901
-0.0591987 0.0263451 0.359031
-0.0556615 0.0259296 0.359193
-0.0515476 0.026025 0.360322
-0.0483872 0.0258869 0.361122
-0.044385 0.0259444 0.361302
-0.0406973 0.0257958 0.360751
-0.0372546 0.0260477 0.360367
-0.0332685 0.0257613 0.360233
-0.0296799 0.0261168 0.359096
-0.0258439 0.0259102 0.358915
-0.0222721 0.0259809 0.358029
-0.0185943 0.0260931 0.358065
-0.0149617 0.0259416 0.357011
-0.0111236 0.0258773 0.357285
-0.00755825 0.0257785 0.355044
-0.00373453 0.0258563 0.354388
0.000197953 0.0258928 0.352627
0.00396505 0.0258343 0.353238
0.00734844 0.0261332 0.351918
0.0110077 0.0260028 0.350494
0.0149853 0.0263259 0.349086
0.0186391 0.0256529 0.348789
0.0225324 0.0257952 0.347205
0.0262633 0.0258332 0.345979
0.030241 0.0262538 0.344602
0.0334207 0.0262918 0.342937
0.0373632 0.0260844 0.341534
0.0412542 0.0260451 0.342034
0.0448808 0.026451 0.340165
0.048887 0.0260473 0.338724
0.0526667 0.026292 0.33787
0.0563285 0.026187 0.336569
0.0601885 0.026097 0.335583
0.063962 0.0261171 0.334076
0.0678157 0.0265595 0.33162
0.0717284 0.0262104 0.329911
0.0754087 0.02629 0.328828
0.0791309 0.0265727 0.32737
0.083024 0.0263449 0.324333
0.0864296 0.0265504 0.322318
0.0908575 0.0265358 0.319757
0.0948227 0.0263569 0.317714
0.0987736 0.0266859 0.314311
0.102989 0.027043 0.310281
0.107047 0.0266229 0.308509
0.110658 0.0265944 0.3047
0.114799 0.027015 0.299554
0.118943 0.0268728 0.295576
0.123491 0.0265818 0.291166
0.127842 0.0272972 0.285975
0.131944 0.0270907 0.280637
0.136162 0.0272195 0.273208
0.141139 0.0271861 0.26246
0.146472 0.0275448 0.245008
0.152027 0.0279172 0.227537
0.159131 0.0284282 0.192211
-0.437905 0.0402789 -0.207024
-0.43209 0.0395844 -0.202456
-0.426653 0.0401604 -0.197184
-0.420242 0.0397493 -0.193593
-0.415459 0.0395054 -0.19229
-0.409727 0.0391492 -0.191209
-0.404932 0.0390643 -0.189698
-0.399923 0.0389645 -0.188889
-0.394774 0.0397014 -0.188515
-0.389937 0.0394753 -0.187492
-0.384503 0.0394443 -0.186453
-0.380137 0.0393115 -0.187248
-0.374705 0.0393176 -0.186543
-0.369578 0.0390625 -0.185639
-0.364493 0.039367 -0.185118
-0.359429 0.0396986 -0.184914
-0.354503 0.0395663 -0.182487
-0.349441 0.0391812 -0.181819
-0.343814 0.0394775 -0.178507
-0.338821 0.0394106 -0.174931
-0.33281 0.0393141 -0.170933
-0.327745 0.0391995 -0.166185
-0.322186 0.0386283 -0.161937
-0.316168 0.0390298 -0.156949
-0.310353 0.0388046 -0.152007
-0.30514 0.0391802 -0.148321
-0.299839 0.0387611 -0.144854
-0.294368 0.0387449 -0.140584
-0.289037 0.0383852 -0.135707
-0.283221 0.0381104 -0.129526
-0.27751 0.0380943 -0.121771
-0.27102 0.0380658 -0.110097
-0.263993 0.0377389 -0.0895894
-0.230109 0.0338432 0.143748
-0.221502 0.0328534 0.180178
-0.215718 0.0326278 0.195258
-0.211015 0.0325563 0.20377
-0.205436 0.0321717 0.215403
-0.200239 0.0320457 0.222499
-0.195727 0.0319559 0.229642
-0.190669 0.0317317 0.23625
-0.186258 0.0317799 0.241612
-0.181431 0.0312048 0.249568
-0.177104 0.0317027 0.255365
-0.172229 0.0317172 0.262397
-0.167901 0.031064 0.270789
-0.163042 0.031026 0.278988
-0.15811 0.031072 0.287828
-0.153503 0.0308307 0.295402
-0.149631 0.0306298 0.299799
-0.145099 0.0307187 0.305139
-0.140769 0.0307357 0.309369
-0.136977 0.0303202 0.313715
-0.132751 0.0303507 0.317148
-0.128919 0.0301942 0.321057
-0.124822 0.0301539 0.325636
-0.120819 0.0297638 0.329483
-0.116749 0.0300158 0.332049
-0.112975 0.0303167 0.335266
-0.108949 0.0301479 0.337972
-0.104553 0.0298411 0.342434
-0.100637 0.0297403 0.344362
-0.0966929 0.0300155 0.345503
-0.0931204 0.0298337 0.347782
-0.0894935 0.029687 0.348998
-0.0860557 0.0294897 0.350345
-0.0818792 0.0297455 0.350597
-0.0779989 0.0299812 0.353001
-0.0744234 0.029692 0.353009
-0.0709036 0.0296555 0.354655
-0.0668413 0.0294939 0.356464
-0.0630941 0.0296534 0.35541
-0.0593924 0.0293593 0.356936
-0.055603 0.0293926 0.357781
-0.0518403 0.0294601 0.357911
-0.0485893 0.0297553 0.357783
-0.0442887 0.0294879 0.357869
-0.0408993 0.0297162 0.358004
-0.0368865 0.0295877 0.357837
-0.0331615 0.0295698 0.357539
-0.0297864 0.0295317 0.356553
-0.025943 0.029622 0.356262
-0.0219332 0.029457 0.3552
-0.0184598 0.0297501 0.354409
-0.0149252 0.0297862 0.352889
-0.011152 0.0294595 0.353549
-0.00747022 0.0297203 0.353095
-0.00386014 0.0294287 0.352437
-0.000251851 0.0298796 0.350758
0.0032186 0.0298971 0.350263
0.00717487 0.0295754 0.348909
0.0114129 0.0292654 0.347375
0.0149473 0.0297139 0.346906
0.0191032 0.0301713 0.345048
0.0224277 0.0298501 0.344185
0.0260365 0.0297371 0.344364
0.030123 0.0300252 0.342134
0.0337779 0.0300596 0.341305
0.0376865 0.0298568 0.340136
0.0413859 0.0297458 0.338972
0.0448785 0.0296576 0.337946
0.0487271 0.0300716 0.336639
0.0525309 0.029968 0.335343
0.0560715 0.0303699 0.334199
0.0600843 0.0304465 0.331251
0.0637665 0.0300307 0.331022
0.0677147 0.0303323 0.328654
0.0717572 0.0302702 0.32704
0.0752475 0.0303141 0.32604
0.0792385 0.0300607 0.323435
0.0834624 0.0301211 0.322271
0.0873376 0.0306026 0.318343
0.0912329 0.030292 0.31689
0.0946429 0.0299206 0.315953
0.099329 0.0309283 0.309932
0.102696 0.030496 0.30829
0.107164 0.03043 0.303999
0.111007 0.030449 0.299755
0.115501 0.0307063 0.294741
0.119149 0.0305947 0.292063
0.123498 0.0308532 0.286329
0.128178 0.0309766 0.280455
0.132365 0.0311296 0.272434
0.136998 0.0313728 0.263115
0.141805 0.0314116 0.249012
0.147176 0.0317727 0.233646
0.153203 0.0321534 0.214932
-0.444445 0.0447015 -0.213899
-0.437896 0.0449938 -0.204737
-0.431628 0.0443576 -0.199114
-0.425424 0.0443492 -0.195232
-0.420374 0.0446504 -0.192531
-0.414658 0.0447835 -0.188832
-0.409596 0.0446047 -0.188122
-0.404226 0.0441949 -0.186641
-0.399003 0.0444313 -0.186354
-0.394424 0.0441226 -0.185626
-0.389227 0.0444005 -0.184582
-0.384533 0.044561 -0.184691
-0.379368 0.0444865 -0.183792
-0.374501 0.0440028 -0.18405
-0.36922 0.0439901 -0.182748
-0.364298 0.0440823 -0.183138
-0.359067 0.0445365 -0.181663
-0.353554 0.0443267 -0.179942
-0.349196 0.0443384 -0.177797
-0.343484 0.0441468 -0.174844
-0.338121 0.0438558 -0.17145
-0.332424 0.0439276 -0.166883
-0.326766 0.0437609 -0.161543
-0.321398 0.0436338 -0.157479
-0.31598 0.0437059 -0.15372
-0.310589 0.0434983 -0.150458
-0.304726 0.043522 -0.146952
-0.299601 0.0436964 -0.143001
-0.29451 0.0435617 -0.140966
-0.288962 0.0432331 -0.135802
-0.283238 0.0433603 -0.131055
-0.277746 0.0433473 -0.124938
-0.272165 0.0431491 -0.118377
-0.265738 0.0429582 -0.108486
-0.258658 0.0424103 -0.0845082
-0.223313 0.0372842 0.165079
-0.216344 0.0370882 0.18757
-0.211052 0.0363561 0.200046
-0.20613 0.0364903 0.209506
-0.201155 0.0359076 0.217875
-0.195678 0.0358237 0.226374
-0.191374 0.036231 0.232166
-0.186714 0.0357441 0.239758
-0.181754 0.0356653 0.246307
-0.177249 0.03555 0.252898
-0.172388 0.0349691 0.260316
-0.168304 0.0351399 0.26644
-0.163069 0.0349887 0.275651
-0.158903 0.0346393 0.28401
-0.153769 0.0348518 0.291174
-0.149625 0.0344864 0.298108
-0.145577 0.0343062 0.301825
-0.141261 0.0342053 0.307529
-0.136927 0.034415 0.311682
-0.13312 0.0340873 0.315585
-0.12854 0.0341536 0.319287
-0.125033 0.0340442 0.322297
-0.120876 0.0339294 0.325435
-0.116602 0.0337136 0.330063
-0.112654 0.03368 0.332884
-0.109207 0.033963 0.336472
-0.104651 0.033603 0.337662
-0.100783 0.0339764 0.340681
-0.0971638 0.0338659 0.342042
-0.093489 0.0334635 0.345218
-0.0895202 0.0333776 0.34613
-0.085809 0.0333796 0.347419
-0.0824394 0.0335682 0.348209
-0.078268 0.0332468 0.350323
-0.0740749 0.0337116 0.350441
-0.0707732 0.0334611 0.351642
-0.0670428 0.0331429 0.353396
