ply
format ascii 1.0
element vertex 1669
property float x
property float y
property float z
end_header
-0.0229753 -0.483922 0.296303
-0.0191832 -0.483759 0.296473
-0.0154993 -0.48396 0.296883
-0.0111107 -0.483556 0.297899
-0.00766921 -0.484435 0.297096
-0.00384628 -0.483162 0.299341
8.71755e-06 -0.483431 0.299347
0.00367028 -0.482659 0.300666
0.00757572 -0.482106 0.30276
0.0110837 -0.481779 0.302847
0.0149157 -0.481992 0.303663
0.0191401 -0.482047 0.305022
0.0228358 -0.481358 0.306005
0.0267521 -0.481174 0.306678
0.0304479 -0.480979 0.307747
0.0345146 -0.480406 0.30904
0.0379502 -0.47987 0.31013
0.0421048 -0.480086 0.311061
0.0458846 -0.480154 0.311578
0.0495643 -0.479186 0.313566
0.0535599 -0.478848 0.314268
0.0568893 -0.479001 0.315049
0.0609384 -0.478371 0.316982
0.064665 -0.478595 0.317162
0.0680529 -0.477622 0.317991
0.0718192 -0.477741 0.318734
0.0759709 -0.477361 0.319906
0.0795485 -0.477622 0.320034
0.0829236 -0.477577 0.319737
0.0872347 -0.477366 0.32027
0.0906595 -0.477176 0.320746
0.0947323 -0.477271 0.320372
0.098632 -0.477215 0.320439
0.102436 -0.477542 0.319187
0.106115 -0.477958 0.317545
0.11018 -0.478915 0.315265
0.113992 -0.478975 0.314224
0.118273 -0.480569 0.309832
0.122381 -0.481378 0.305759
-0.179415 -0.486859 0.272155
-0.174852 -0.485462 0.277552
-0.171041 -0.484628 0.280116
-0.166557 -0.483903 0.283247
-0.162433 -0.483887 0.28381
-0.158499 -0.483377 0.285548
-0.154305 -0.482836 0.286982
-0.150697 -0.482837 0.287495
-0.146789 -0.483242 0.285925
-0.1428 -0.482729 0.287688
-0.139121 -0.482931 0.287076
-0.134876 -0.482407 0.288672
-0.131288 -0.482556 0.288044
-0.127185 -0.482547 0.287905
-0.123646 -0.482401 0.288758
-0.119628 -0.48277 0.288181
-0.116013 -0.482246 0.288634
-0.111989 -0.481892 0.28903
-0.107938 -0.481965 0.290084
-0.103669 -0.48169 0.290676
-0.100527 -0.482187 0.290496
-0.0965921 -0.481862 0.290866
-0.0927287 -0.482104 0.289833
-0.0884225 -0.481836 0.290177
-0.0846123 -0.481665 0.29149
-0.0808818 -0.48199 0.290644
-0.0771444 -0.481134 0.292505
-0.0732848 -0.48119 0.292825
-0.0692058 -0.480724 0.294019
-0.0651629 -0.481068 0.294247
-0.0615895 -0.480451 0.295154
-0.0576291 -0.480454 0.295335
-0.0542358 -0.480512 0.295746
-0.0499693 -0.480451 0.295566
-0.0460664 -0.480325 0.296264
-0.0425569 -0.479654 0.297269
-0.0384115 -0.479821 0.298414
-0.0343826 -0.479984 0.297538
-0.0304562 -0.479228 0.299033
-0.0268853 -0.479657 0.298564
-0.0229185 -0.479869 0.298909
-0.0194092 -0.479444 0.299835
-0.0155373 -0.47897 0.300629
-0.0112989 -0.478845 0.30085
-0.00779494 -0.478821 0.301858
-0.00377953 -0.479006 0.301092
-0.00012558 -0.477961 0.303634
0.00407237 -0.478403 0.303461
0.00787317 -0.477899 0.304627
0.0116958 -0.477556 0.306061
0.0150564 -0.477489 0.306325
0.019115 -0.477391 0.30772
0.0229251 -0.476607 0.309318
0.0265096 -0.476578 0.309538
0.0303393 -0.476098 0.310948
0.0343246 -0.476018 0.311575
0.0378402 -0.475451 0.312269
0.0417052 -0.475206 0.31413
0.0460095 -0.474849 0.31539
0.0495634 -0.474832 0.315802
0.053033 -0.474568 0.316633
0.0570242 -0.474247 0.317949
0.0606399 -0.474259 0.317843
0.064565 -0.474035 0.318511
0.0682272 -0.473634 0.319964
0.0717158 -0.473227 0.320705
0.0759124 -0.473341 0.321585
0.0794943 -0.472988 0.322166
0.0830426 -0.472787 0.323341
0.0869961 -0.472734 0.323228
0.0908145 -0.472464 0.323306
0.0948368 -0.472893 0.323194
0.098345 -0.47263 0.32298
0.10229 -0.473382 0.321343
0.106144 -0.473213 0.321962
0.109964 -0.47343 0.320321
0.113608 -0.473113 0.320527
0.11751 -0.473973 0.317727
0.121608 -0.474467 0.315806
0.125814 -0.476198 0.311127
0.1299 -0.477875 0.305317
0.134201 -0.479593 0.298526
-0.192172 -0.48616 0.261571
-0.186641 -0.483095 0.272627
-0.182674 -0.481517 0.277128
-0.178791 -0.481168 0.279199
-0.174432 -0.480755 0.281955
-0.170488 -0.480079 0.283786
-0.166036 -0.479398 0.286428
-0.162343 -0.478713 0.287305
-0.158358 -0.478798 0.287944
-0.15408 -0.478284 0.289929
-0.150488 -0.478275 0.289509
-0.146374 -0.478639 0.289015
-0.142337 -0.477836 0.291028
-0.138731 -0.478362 0.290619
-0.135143 -0.478002 0.290792
-0.131027 -0.478343 0.290032
-0.127181 -0.478179 0.290706
-0.123119 -0.477679 0.291698
-0.119258 -0.478019 0.290794
-0.115707 -0.47805 0.291175
-0.111607 -0.47782 0.291201
-0.107901 -0.477835 0.29145
-0.103976 -0.477639 0.292691
-0.100219 -0.477555 0.292716
-0.0961526 -0.477423 0.292729
-0.0926155 -0.477227 0.293447
-0.0884132 -0.477287 0.293143
-0.0849088 -0.477373 0.293853
-0.0806577 -0.477008 0.294478
-0.0768631 -0.476507 0.29487
-0.0730066 -0.476644 0.295755
-0.0690267 -0.476598 0.295078
-0.0655431 -0.476587 0.295912
-0.0616188 -0.475899 0.297005
-0.0577532 -0.476349 0.297013
-0.0533678 -0.476086 0.297769
-0.0500304 -0.476487 0.297582
-0.0462202 -0.475779 0.298451
-0.0421883 -0.475778 0.298749
-0.0381278 -0.475626 0.299324
-0.0346392 -0.475598 0.300457
-0.0304578 -0.475364 0.299589
-0.0265375 -0.475252 0.300822
-0.0229775 -0.474995 0.300288
-0.01927 -0.474854 0.302051
-0.0154227 -0.474793 0.301745
-0.0115493 -0.474812 0.302606
-0.00779378 -0.475243 0.302374
-0.00388442 -0.474899 0.30287
-3.77967e-05 -0.474162 0.304484
0.00412919 -0.473894 0.30471
0.00778414 -0.473561 0.305706
0.0112101 -0.473299 0.306702
0.0151456 -0.473763 0.307687
0.0192065 -0.472889 0.307909
0.022434 -0.472429 0.309679
0.0267553 -0.47226 0.310745
0.0305908 -0.472404 0.311971
0.0344918 -0.472058 0.312394
0.0382706 -0.471607 0.313023
0.0420164 -0.471396 0.314479
0.0454132 -0.471114 0.315454
0.0489709 -0.470608 0.317146
0.0530267 -0.470023 0.318012
0.0567802 -0.469812 0.319751
0.0605421 -0.469981 0.319209
0.0647009 -0.469723 0.321123
0.068083 -0.46952 0.320528
0.071941 -0.469134 0.321798
0.0752122 -0.468976 0.322547
0.078926 -0.468989 0.323883
0.0832791 -0.468185 0.324968
0.0866306 -0.467901 0.325062
0.0909533 -0.468263 0.325289
0.0942317 -0.468486 0.325157
0.0983118 -0.468642 0.324694
0.101913 -0.468736 0.323796
0.106075 -0.468528 0.324176
0.109788 -0.468817 0.323014
0.113046 -0.469519 0.322053
0.11766 -0.469639 0.320677
0.121167 -0.469663 0.320063
0.125174 -0.470806 0.317634
0.129516 -0.471843 0.313763
0.133611 -0.472789 0.309784
0.138093 -0.475084 0.302278
0.142133 -0.476221 0.296185
-0.195891 -0.481439 0.264634
-0.191172 -0.479756 0.271042
-0.1864 -0.478057 0.276693
-0.182337 -0.477282 0.279339
-0.178053 -0.476887 0.282085
-0.174176 -0.476442 0.283893
-0.169888 -0.475444 0.285973
-0.166296 -0.475409 0.286396
-0.161808 -0.474282 0.289557
-0.15841 -0.474443 0.289757
-0.154395 -0.474243 0.29015
-0.150083 -0.47408 0.291027
-0.146796 -0.473824 0.291725
-0.142868 -0.47374 0.292047
-0.138474 -0.474182 0.291136
-0.13461 -0.473494 0.292581
-0.130829 -0.473642 0.292158
-0.127253 -0.473733 0.292401
-0.123472 -0.474111 0.291734
-0.119457 -0.473785 0.29235
-0.115503 -0.473502 0.293401
-0.111747 -0.473769 0.292705
-0.108063 -0.473688 0.292159
-0.104003 -0.473318 0.293782
-0.0999987 -0.472854 0.29414
-0.0961782 -0.47325 0.293928
-0.0923849 -0.473108 0.293968
-0.0886548 -0.47319 0.2945
-0.0847078 -0.472926 0.295484
-0.0809599 -0.473054 0.294888
-0.0765144 -0.472914 0.295211
-0.0730091 -0.472603 0.29617
-0.0689359 -0.47265 0.296563
-0.0654815 -0.472554 0.297035
-0.0616648 -0.472428 0.297228
-0.0579936 -0.471957 0.298145
-0.0534515 -0.471643 0.299006
-0.0497254 -0.471597 0.299504
-0.0459167 -0.47213 0.298748
-0.0421803 -0.471781 0.299365
-0.0383659 -0.471669 0.299986
-0.0346976 -0.471597 0.300103
-0.0305353 -0.471305 0.301583
-0.0267369 -0.471325 0.301162
-0.0226603 -0.47105 0.301718
-0.0193744 -0.471248 0.30203
-0.0150896 -0.470781 0.30273
-0.011247 -0.470507 0.303301
-0.00756157 -0.47067 0.304346
-0.00394161 -0.470362 0.304117
-4.5686e-05 -0.470548 0.304239
0.00380894 -0.470065 0.305488
0.00730251 -0.469968 0.305688
0.0116431 -0.469641 0.307253
0.0153486 -0.469561 0.30808
0.0192984 -0.468875 0.309457
0.0229082 -0.46886 0.30969
0.0268844 -0.468356 0.311741
0.0305153 -0.46792 0.312417
0.0344886 -0.468247 0.312455
0.0378144 -0.467474 0.31506
0.0417427 -0.467089 0.315802
0.0454932 -0.466945 0.317003
0.0492278 -0.466608 0.317363
0.0529447 -0.466172 0.318756
0.0570584 -0.466431 0.318985
0.0607312 -0.465948 0.320973
0.0639291 -0.465475 0.321883
0.0685091 -0.465901 0.321736
0.0717053 -0.465006 0.323483
0.0757479 -0.464767 0.32424
0.0792753 -0.46466 0.324837
0.0831497 -0.464656 0.325125
0.0867468 -0.464424 0.326507
0.0908121 -0.464475 0.325779
0.0943615 -0.464136 0.326554
0.0977845 -0.463776 0.327852
0.10216 -0.46484 0.325545
0.10556 -0.46458 0.325893
0.109675 -0.464175 0.326061
0.113111 -0.464524 0.325007
0.117072 -0.465197 0.323576
0.121284 -0.465532 0.322409
0.124966 -0.465798 0.320984
0.129175 -0.466476 0.318544
0.132748 -0.467091 0.316214
0.137109 -0.468151 0.31228
0.141648 -0.470508 0.304782
0.145754 -0.471803 0.299318
0.149973 -0.47469 0.289512
-0.205769 -0.482817 0.246344
-0.200151 -0.478577 0.260865
-0.195008 -0.476068 0.269256
-0.190709 -0.474643 0.274431
-0.186549 -0.473896 0.277532
-0.182483 -0.473227 0.28066
-0.178246 -0.472409 0.283386
-0.173976 -0.471589 0.285619
-0.169678 -0.47104 0.286889
-0.165839 -0.471195 0.28837
-0.162021 -0.470492 0.290459
-0.158401 -0.470649 0.290501
-0.154144 -0.470431 0.291048
-0.150312 -0.469894 0.29248
-0.146466 -0.470268 0.292452
-0.142718 -0.469516 0.292987
-0.138802 -0.469659 0.292965
-0.134728 -0.46933 0.293959
-0.130859 -0.470118 0.292723
-0.127085 -0.469473 0.292796
-0.123166 -0.46969 0.293589
-0.119414 -0.469816 0.29371
-0.115432 -0.469464 0.293607
-0.111262 -0.469486 0.294013
-0.107808 -0.46933 0.294455
-0.103747 -0.469686 0.29382
-0.0997762 -0.468901 0.294627
-0.0961418 -0.468832 0.295361
-0.0922131 -0.469003 0.295441
-0.0885859 -0.468919 0.295301
-0.0848241 -0.469171 0.295474
-0.0806921 -0.468882 0.296268
-0.077051 -0.468893 0.295546
-0.0729656 -0.468603 0.296532
-0.0693394 -0.46834 0.296946
-0.0652787 -0.468111 0.298207
-0.0611691 -0.468121 0.298098
-0.0577009 -0.467823 0.298854
-0.0538178 -0.467947 0.299387
-0.0497313 -0.467679 0.299656
-0.04603 -0.468055 0.299933
-0.0421494 -0.468026 0.299874
-0.0382267 -0.467579 0.300794
-0.0346172 -0.467695 0.300868
-0.0309794 -0.46745 0.301466
-0.0267666 -0.46744 0.301133
-0.0230609 -0.467447 0.301888
-0.0194417 -0.466944 0.302642
-0.0150264 -0.467265 0.303509
-0.0118632 -0.466849 0.3028
-0.00771987 -0.4666 0.303674
-0.00402389 -0.466112 0.305481
0.000197656 -0.466582 0.304646
0.00364805 -0.466358 0.305439
0.00747601 -0.465737 0.306692
0.0116208 -0.465636 0.308246
0.0152722 -0.465685 0.308545
0.0190906 -0.465085 0.310134
0.0231171 -0.464534 0.3112
0.026818 -0.464546 0.311692
0.0307006 -0.463729 0.313005
0.0339972 -0.463913 0.314176
0.0384423 -0.46368 0.31482
0.0417508 -0.463099 0.315703
0.045846 -0.463125 0.316807
0.049276 -0.46294 0.318251
0.0529145 -0.461999 0.319506
0.0568155 -0.462275 0.320017
0.0602978 -0.462015 0.32151
0.0644652 -0.4619 0.321757
0.0681948 -0.461326 0.323767
0.0719196 -0.461443 0.323131
0.0756739 -0.461147 0.32513
0.0791306 -0.460443 0.32647
0.0831506 -0.460721 0.325883
0.0865653 -0.460183 0.326653
0.0905141 -0.460066 0.327564
0.0939461 -0.459968 0.327763
0.0979901 -0.459911 0.328003
0.102269 -0.460397 0.326705
0.105652 -0.460264 0.327317
0.109355 -0.460083 0.327209
0.112904 -0.460358 0.326377
0.117193 -0.460918 0.325363
0.120979 -0.460714 0.325293
0.124728 -0.461547 0.323144
0.128512 -0.461783 0.321631
0.132961 -0.46325 0.317993
0.13662 -0.462747 0.317046
0.140789 -0.463799 0.313483
0.144857 -0.465481 0.307935
0.149433 -0.467246 0.301784
0.153846 -0.469608 0.29355
0.159066 -0.472399 0.281705
-0.210535 -0.480051 0.240229
-0.204391 -0.476427 0.254997
-0.200005 -0.473896 0.263383
-0.19492 -0.471721 0.270499
-0.190497 -0.470371 0.275349
-0.186632 -0.469723 0.27874
-0.182211 -0.468822 0.282093
-0.178362 -0.46802 0.283293
-0.173781 -0.467915 0.285576
-0.169765 -0.466924 0.288487
-0.165904 -0.466723 0.288748
-0.162066 -0.466439 0.290412
-0.157999 -0.4664 0.291074
-0.153999 -0.466009 0.292228
-0.149914 -0.465994 0.292416
-0.146348 -0.465862 0.292354
-0.142733 -0.465697 0.292869
-0.138267 -0.46537 0.29371
-0.134592 -0.465885 0.29321
-0.130659 -0.465589 0.294181
-0.126912 -0.465663 0.293462
-0.123416 -0.465734 0.293568
-0.119034 -0.465452 0.295001
-0.115524 -0.46564 0.293889
-0.111361 -0.465396 0.294051
-0.107877 -0.465627 0.294106
-0.103884 -0.465626 0.294476
-0.0996962 -0.46521 0.294837
-0.0963016 -0.465015 0.296204
-0.0920653 -0.465499 0.295712
-0.0881641 -0.465544 0.295256
-0.084209 -0.465001 0.296403
-0.0809549 -0.464551 0.296037
-0.0768785 -0.464848 0.296596
-0.0726249 -0.465082 0.297007
-0.069052 -0.464348 0.297595
-0.0657694 -0.46438 0.297795
-0.0610366 -0.46443 0.298421
-0.0575884 -0.46425 0.298531
-0.0538354 -0.464048 0.298709
-0.0500279 -0.463905 0.30017
-0.0460709 -0.464185 0.299787
-0.042201 -0.464117 0.300116
-0.0384806 -0.463966 0.300539
-0.0347544 -0.46394 0.300965
-0.0309959 -0.463506 0.301703
-0.0269501 -0.463376 0.302161
-0.0228723 -0.463069 0.303038
-0.0192271 -0.463115 0.302762
-0.0151664 -0.46262 0.303308
-0.0116469 -0.462722 0.303409
-0.00762408 -0.462545 0.304288
-0.0032596 -0.462619 0.304803
0.000170371 -0.462775 0.304656
0.00349747 -0.462159 0.306066
0.00757733 -0.462172 0.30629
0.0117063 -0.461571 0.308035
0.0151235 -0.461433 0.308257
0.019295 -0.461583 0.310157
0.0227468 -0.460934 0.310635
0.0268372 -0.46075 0.312112
0.0302093 -0.460544 0.313363
0.0342172 -0.459923 0.314288
0.0376465 -0.459856 0.314971
0.0418673 -0.459533 0.316468
0.0457806 -0.459267 0.316844
0.0493761 -0.458854 0.317847
0.0532517 -0.45841 0.320314
0.0569091 -0.458524 0.319961
0.0607588 -0.45808 0.321516
0.0643878 -0.45771 0.322118
0.0680745 -0.457871 0.323226
0.0719435 -0.457336 0.324847
0.0756224 -0.45699 0.324923
0.0795588 -0.456821 0.325718
0.0828305 -0.456625 0.326592
0.086566 -0.456228 0.327348
0.0902833 -0.456222 0.328556
0.0940015 -0.455697 0.328819
0.0980666 -0.455971 0.328364
0.101652 -0.455935 0.328951
0.105393 -0.455947 0.329174
0.109453 -0.45629 0.328578
0.113409 -0.45597 0.328489
0.117132 -0.456649 0.326757
0.120847 -0.456618 0.326339
0.124955 -0.457373 0.32467
0.128232 -0.457887 0.323653
0.132211 -0.457321 0.322703
0.13661 -0.45862 0.319278
0.140106 -0.458992 0.317186
0.144319 -0.46046 0.313546
0.148786 -0.461391 0.309333
0.152929 -0.463256 0.303724
0.157669 -0.464851 0.296034
0.162029 -0.467105 0.287595
0.167695 -0.471557 0.271332
0.173698 -0.477925 0.249226
-0.20981 -0.474312 0.246631
-0.204324 -0.471828 0.257241
-0.199737 -0.469684 0.264506
-0.195003 -0.468071 0.270368
-0.190945 -0.466722 0.274953
-0.186199 -0.465744 0.278335
-0.182104 -0.464972 0.282187
-0.177818 -0.464223 0.284278
-0.173577 -0.463605 0.286149
-0.169772 -0.463319 0.288313
-0.1658 -0.46288 0.289552
-0.161836 -0.463045 0.29007
-0.157757 -0.461724 0.292276
-0.153807 -0.461916 0.292453
-0.150039 -0.462415 0.292647
-0.146496 -0.462101 0.292948
-0.14257 -0.461675 0.293688
-0.138906 -0.462395 0.29251
-0.134614 -0.461647 0.293986
-0.130923 -0.461899 0.293644
-0.126685 -0.461423 0.29419
-0.123273 -0.461449 0.294722
-0.11917 -0.461812 0.29368
-0.115386 -0.461741 0.293942
-0.111968 -0.46156 0.294366
-0.107704 -0.461277 0.295046
-0.103922 -0.461466 0.294716
-0.0999458 -0.461314 0.295035
-0.0959287 -0.461279 0.295258
-0.0919292 -0.461336 0.295647
-0.0886144 -0.461066 0.296637
-0.0844548 -0.4613 0.296184
-0.0808568 -0.460834 0.296748
-0.0767556 -0.461021 0.297004
-0.0726161 -0.460893 0.298003
-0.0691199 -0.460952 0.297698
-0.0653047 -0.461039 0.297847
-0.0610497 -0.460464 0.298044
-0.0575048 -0.460312 0.298321
-0.0538209 -0.460454 0.298997
-0.0494937 -0.460361 0.299885
-0.0463672 -0.460198 0.29957
-0.042287 -0.459533 0.301707
-0.0380955 -0.459859 0.300822
-0.0346167 -0.459884 0.301666
-0.0305769 -0.459198 0.302024
-0.0265609 -0.459478 0.301698
-0.0232347 -0.459386 0.301952
-0.0192434 -0.459468 0.303001
-0.0151048 -0.45907 0.303413
-0.0111697 -0.458784 0.303771
-0.00781951 -0.458298 0.305088
-0.00397944 -0.458736 0.304798
0.000355955 -0.458993 0.305355
0.00386139 -0.458157 0.306672
0.00773786 -0.457951 0.30695
0.0115361 -0.457867 0.307773
0.0155099 -0.457609 0.309121
0.0187562 -0.457461 0.310061
0.0226517 -0.457313 0.311104
0.0263562 -0.456633 0.312186
0.0305044 -0.456419 0.313109
0.0342873 -0.455914 0.31431
0.0382385 -0.456407 0.314799
0.0418903 -0.455844 0.316448
0.0456231 -0.455513 0.316816
0.0496856 -0.455122 0.318894
0.0532001 -0.454915 0.31957
0.0566542 -0.454465 0.320733
0.0608567 -0.454084 0.321586
0.0641182 -0.454102 0.322754
0.0675652 -0.45366 0.323891
0.0719154 -0.453071 0.325037
0.0754315 -0.453562 0.324298
0.0789784 -0.453177 0.32559
0.0829965 -0.453005 0.326889
0.086876 -0.452074 0.328272
0.0903413 -0.451997 0.329046
0.0940794 -0.451978 0.329686
0.0979126 -0.452225 0.329083
0.101697 -0.452059 0.329359
0.105194 -0.452263 0.329022
0.109346 -0.45218 0.329041
0.113279 -0.452869 0.327378
0.11678 -0.452454 0.327658
0.120609 -0.452614 0.327057
0.124321 -0.453216 0.325952
0.128339 -0.45322 0.326316
0.132181 -0.453395 0.324351
0.136157 -0.454069 0.321649
0.140122 -0.454904 0.320148
0.144414 -0.455231 0.318053
0.148213 -0.456305 0.313525
0.152325 -0.457372 0.309659
0.156585 -0.459212 0.303455
0.161393 -0.461284 0.296275
0.166388 -0.464218 0.28664
0.170894 -0.465927 0.278383
0.176005 -0.469074 0.266772
0.180985 -0.472164 0.255326
0.18631 -0.475425 0.243957
0.190918 -0.477565 0.236122
-0.215392 -0.474541 0.232119
-0.209242 -0.469993 0.24898
-0.204653 -0.467805 0.256199
-0.199852 -0.465811 0.263541
-0.195539 -0.464499 0.269155
-0.190754 -0.463357 0.274538
-0.186462 -0.462004 0.277942
-0.182413 -0.461325 0.280979
-0.177794 -0.460779 0.284183
-0.173869 -0.459538 0.286494
-0.169949 -0.459516 0.286963
-0.165809 -0.458899 0.289863
-0.162024 -0.459224 0.289915
-0.158069 -0.458494 0.29104
-0.153941 -0.458527 0.29143
-0.150186 -0.458113 0.293532
-0.146484 -0.458124 0.292882
-0.142216 -0.457943 0.293581
-0.13923 -0.457994 0.293739
-0.134746 -0.457745 0.293866
-0.130765 -0.458093 0.294268
-0.126564 -0.45763 0.294018
-0.122933 -0.45832 0.293695
-0.119569 -0.458149 0.294346
-0.115387 -0.457998 0.294551
-0.111668 -0.458052 0.294915
-0.107576 -0.457411 0.295409
-0.103585 -0.457592 0.295573
-0.100171 -0.45749 0.295422
-0.0964791 -0.457854 0.295063
-0.092077 -0.45756 0.295382
-0.0887829 -0.457303 0.296461
-0.0842749 -0.457064 0.297051
-0.0807857 -0.457256 0.295874
-0.0768576 -0.456945 0.297455
-0.0732396 -0.456845 0.298438
-0.0690869 -0.456674 0.298079
-0.0654859 -0.457063 0.297527
-0.0611873 -0.456419 0.298196
-0.05765 -0.456137 0.299302
-0.0535453 -0.45623 0.299645
-0.0497274 -0.456336 0.299711
-0.0463268 -0.456729 0.299394
-0.042276 -0.456436 0.299903
-0.0382499 -0.456045 0.301224
-0.0345917 -0.455743 0.301097
-0.0305498 -0.455979 0.301946
-0.0268352 -0.455901 0.301495
-0.0230046 -0.455063 0.303308
-0.019013 -0.455583 0.303176
-0.0155841 -0.455875 0.302376
-0.0112885 -0.455428 0.304142
-0.00764579 -0.455094 0.303958
-0.00372087 -0.454987 0.305026
0.000360945 -0.454927 0.305637
0.00345859 -0.454294 0.306815
0.00764774 -0.45395 0.307954
0.0112905 -0.454091 0.308504
0.0154671 -0.453789 0.309108
0.0191464 -0.453385 0.310061
0.0228029 -0.452869 0.311983
0.0263966 -0.452774 0.313426
0.0303225 -0.452911 0.313606
0.0339439 -0.452179 0.314807
0.038078 -0.452305 0.315601
0.0416931 -0.451411 0.317052
0.0458251 -0.451423 0.317297
0.0494916 -0.45148 0.318746
0.0530316 -0.451241 0.319681
0.0566101 -0.450214 0.321298
0.0604002 -0.450268 0.3225
0.0638725 -0.450284 0.322985
0.0682973 -0.449283 0.325248
0.0715794 -0.449313 0.325469
0.0755219 -0.449187 0.325473
0.0793843 -0.449264 0.326626
0.0831028 -0.448757 0.326946
0.0867817 -0.449304 0.327303
0.0905592 -0.448273 0.328943
0.094235 -0.448751 0.328818
0.0976984 -0.448427 0.329253
0.101435 -0.448319 0.330383
0.105302 -0.448365 0.33026
0.109101 -0.448017 0.330025
0.113282 -0.448512 0.329172
0.116912 -0.448602 0.328699
0.120495 -0.448727 0.32835
0.124141 -0.449029 0.32789
0.128041 -0.448981 0.327128
0.132099 -0.448696 0.325523
0.136116 -0.450026 0.324259
0.140173 -0.450137 0.322658
0.143806 -0.450885 0.320425
0.148255 -0.451936 0.316504
0.152109 -0.452101 0.314427
0.156605 -0.453496 0.309278
0.160717 -0.455299 0.303978
0.164876 -0.45669 0.298543
0.169805 -0.458574 0.291089
0.174318 -0.461173 0.281968
0.179353 -0.463479 0.272668
0.184064 -0.465442 0.265711
0.188472 -0.467127 0.259663
0.193013 -0.467952 0.255137
0.197927 -0.470467 0.247239
0.20221 -0.470924 0.24433
0.206325 -0.472138 0.240195
0.210735 -0.473352 0.23594
0.214982 -0.474169 0.232565
0.219843 -0.475468 0.22786
0.22524 -0.478563 0.21704
-0.320469 -0.491611 0.153988
-0.315471 -0.489907 0.159623
-0.310367 -0.488188 0.164992
-0.305354 -0.487554 0.167482
-0.301682 -0.48717 0.167495
-0.297168 -0.487131 0.168515
-0.293188 -0.487682 0.16846
-0.289212 -0.488182 0.166866
-0.285129 -0.487456 0.168471
-0.280363 -0.487448 0.16893
-0.27633 -0.486935 0.169926
-0.272539 -0.487247 0.169445
-0.267884 -0.487054 0.169536
-0.264265 -0.486517 0.170995
-0.260027 -0.48818 0.16718
-0.256021 -0.487429 0.168715
-0.251928 -0.487001 0.170078
-0.248123 -0.487775 0.168384
-0.243171 -0.486631 0.171789
-0.238499 -0.485457 0.175202
-0.234085 -0.485012 0.177968
-0.229727 -0.483798 0.181639
-0.222597 -0.477608 0.205361
-0.21454 -0.469169 0.237862
-0.209367 -0.465954 0.248853
-0.20446 -0.464272 0.256234
-0.19924 -0.461922 0.263901
-0.19471 -0.45995 0.270422
-0.190561 -0.458879 0.275219
-0.186519 -0.458017 0.27741
-0.182344 -0.457472 0.28099
-0.177985 -0.456989 0.283469
-0.173891 -0.456562 0.28571
-0.170077 -0.456117 0.286427
-0.165404 -0.455405 0.289848
-0.161828 -0.454932 0.290634
-0.158025 -0.455022 0.290621
-0.154116 -0.454729 0.29177
-0.150068 -0.454598 0.292639
-0.146463 -0.454211 0.292433
-0.142527 -0.453809 0.294281
-0.138455 -0.453978 0.293716
-0.134889 -0.454026 0.293401
-0.131265 -0.45424 0.293447
-0.126984 -0.453806 0.294238
-0.123403 -0.454108 0.29396
-0.119303 -0.454293 0.29364
-0.115495 -0.453732 0.294954
-0.111506 -0.453709 0.294768
-0.107509 -0.453519 0.295135
-0.103691 -0.453831 0.29461
-0.0999417 -0.453371 0.295207
-0.0959369 -0.453457 0.295939
-0.0925174 -0.454043 0.295351
-0.0885177 -0.453485 0.295319
-0.0847135 -0.453773 0.295521
-0.0805855 -0.453424 0.29604
-0.0770506 -0.453114 0.29745
-0.0728834 -0.453156 0.297182
-0.0688935 -0.452819 0.297976
-0.0651923 -0.452706 0.298185
-0.0612818 -0.452995 0.297276
-0.0572494 -0.452351 0.299218
-0.0536348 -0.45247 0.29986
-0.049719 -0.452525 0.298938
-0.0460681 -0.452516 0.300501
-0.0423294 -0.452368 0.299988
-0.0385781 -0.452207 0.301021
-0.0344558 -0.452357 0.301298
-0.0303767 -0.451935 0.300771
-0.0264322 -0.451986 0.301901
-0.022949 -0.451808 0.302832
-0.0189789 -0.45172 0.302698
-0.0152879 -0.45138 0.303845
-0.0114947 -0.451216 0.303817
-0.00794166 -0.45094 0.304588
-0.00377188 -0.450842 0.305075
-2.56458e-05 -0.450561 0.30604
0.0036674 -0.450687 0.306581
0.00761472 -0.450626 0.30709
0.0113333 -0.450032 0.308652
0.0151121 -0.449647 0.310209
0.0192404 -0.449796 0.310691
0.0228276 -0.449167 0.312252
0.026613 -0.448829 0.313608
0.0308795 -0.448671 0.31384
0.0342451 -0.448679 0.314487
0.0377186 -0.448386 0.316306
0.0420808 -0.447766 0.316975
0.0454171 -0.447442 0.317704
0.0489459 -0.447605 0.318944
0.0531266 -0.447035 0.319728
0.0566411 -0.446745 0.321166
0.060287 -0.446046 0.322841
0.0644771 -0.446648 0.322626
0.0682749 -0.446049 0.323764
0.0715653 -0.446182 0.325172
0.0757025 -0.445493 0.326089
0.079783 -0.444979 0.326621
0.0829004 -0.445065 0.327275
0.0869496 -0.444627 0.328721
0.0902981 -0.445097 0.328165
0.0941684 -0.444865 0.329474
0.09807 -0.444657 0.330112
0.101752 -0.444396 0.330562
0.105459 -0.444288 0.330259
0.109497 -0.444431 0.330358
0.112558 -0.444177 0.331201
0.116442 -0.444829 0.329791
0.120767 -0.445041 0.328648
0.124375 -0.444622 0.328327
0.128077 -0.444359 0.328623
0.132143 -0.445179 0.326542
0.136229 -0.445549 0.325779
0.139552 -0.446049 0.324795
0.143872 -0.44665 0.322104
0.147947 -0.447127 0.319604
0.151679 -0.447973 0.316258
0.155725 -0.448621 0.314064
0.159982 -0.450006 0.309323
0.164852 -0.451658 0.302938
0.169222 -0.453375 0.297308
0.173266 -0.454206 0.292254
0.178103 -0.456551 0.284657
0.182699 -0.457723 0.279
0.186912 -0.460632 0.270683
0.191161 -0.4612 0.266854
0.195529 -0.462297 0.262779
0.200052 -0.463313 0.259205
0.204322 -0.464136 0.255649
0.208527 -0.464878 0.253492
0.212863 -0.465915 0.249862
0.217669 -0.466512 0.247272
0.221368 -0.466238 0.246866
0.225207 -0.467024 0.244454
0.229843 -0.467829 0.242136
0.234115 -0.468035 0.240823
0.238486 -0.46922 0.236619
0.242503 -0.469618 0.234904
0.248502 -0.473718 0.220773
-0.346449 -0.488532 0.149711
-0.341599 -0.486942 0.155444
-0.336049 -0.4853 0.160483
-0.331335 -0.484418 0.162829
-0.32735 -0.484579 0.163952
-0.322427 -0.483339 0.167013
-0.31757 -0.48308 0.168858
-0.313396 -0.482936 0.170153
-0.309197 -0.482584 0.17115
-0.305228 -0.481858 0.172855
-0.300973 -0.48198 0.173214
-0.296577 -0.482345 0.172646
-0.292477 -0.482327 0.173054
-0.288582 -0.482073 0.173155
-0.283935 -0.481495 0.174468
-0.279757 -0.481831 0.174622
-0.275817 -0.481548 0.174979
-0.271285 -0.480695 0.176467
-0.267113 -0.480912 0.176402
-0.263185 -0.481538 0.175643
-0.25924 -0.481454 0.1756
-0.255134 -0.481018 0.176345
-0.251105 -0.480768 0.177052
-0.246552 -0.480738 0.177499
-0.24204 -0.480789 0.178542
-0.238155 -0.479831 0.180233
-0.233404 -0.479589 0.183185
-0.227855 -0.477361 0.191938
-0.221926 -0.471761 0.211934
-0.213912 -0.463979 0.240121
-0.209357 -0.461816 0.248401
-0.204758 -0.460439 0.254423
-0.200147 -0.458211 0.262076
-0.195099 -0.456907 0.26854
-0.191406 -0.455635 0.271443
-0.186509 -0.454635 0.277148
-0.182257 -0.454162 0.279468
-0.178176 -0.453036 0.282578
-0.173714 -0.452378 0.285326
-0.169826 -0.452108 0.287108
-0.165683 -0.451288 0.289393
-0.162055 -0.451704 0.289242
-0.158214 -0.451126 0.290378
-0.154188 -0.450868 0.291167
-0.15017 -0.450814 0.292059
-0.146423 -0.450588 0.292774
-0.142157 -0.45028 0.293707
-0.138383 -0.450011 0.293246
-0.134631 -0.449976 0.293157
-0.130693 -0.450314 0.293074
-0.126923 -0.45031 0.294214
-0.123282 -0.450379 0.293602
-0.119427 -0.450162 0.294844
-0.115743 -0.450055 0.294575
-0.111308 -0.450117 0.294835
-0.107417 -0.449733 0.294488
-0.103889 -0.449924 0.295222
-0.100173 -0.449925 0.295236
-0.0961807 -0.449599 0.295913
-0.0922887 -0.449621 0.296119
-0.0886413 -0.449867 0.295939
-0.084553 -0.449174 0.296494
-0.0806439 -0.449531 0.296317
-0.0765834 -0.449379 0.297
-0.0731845 -0.449133 0.296867
-0.0691112 -0.448969 0.297521
-0.0649762 -0.449092 0.297487
-0.0613548 -0.449169 0.298298
-0.0570243 -0.448904 0.29853
-0.0537659 -0.448552 0.299278
-0.0498624 -0.44884 0.298544
-0.046565 -0.448891 0.300031
-0.0421296 -0.448977 0.299932
-0.0383394 -0.448138 0.300362
-0.0347487 -0.44821 0.30124
-0.030826 -0.448296 0.30105
-0.026647 -0.44809 0.302091
-0.0227633 -0.448032 0.301905
-0.018918 -0.448002 0.302613
-0.0155097 -0.447461 0.302939
-0.0113761 -0.447934 0.304501
-0.00744828 -0.44777 0.303813
-0.00405511 -0.447281 0.304929
-0.000134965 -0.44734 0.305132
0.00381436 -0.446653 0.307119
0.0077369 -0.445968 0.308967
0.0116869 -0.446271 0.309417
0.0153207 -0.446 0.309759
0.0191782 -0.445178 0.31209
0.0226678 -0.445185 0.313305
0.0264151 -0.445167 0.313643
0.030456 -0.444905 0.315097
0.0342338 -0.444266 0.316416
0.037936 -0.443627 0.317042
0.0416212 -0.44436 0.317452
0.0456863 -0.443542 0.318793
0.0491834 -0.443209 0.31988
0.0532092 -0.443522 0.320733
0.0567556 -0.442922 0.321593
0.0603231 -0.442534 0.322615
0.0640285 -0.442223 0.323652
0.0678179 -0.441996 0.324224
0.0715934 -0.441851 0.325407
0.0753049 -0.441982 0.325149
0.0792562 -0.441373 0.327277
0.0829526 -0.441813 0.326809
0.0868084 -0.441161 0.328778
0.0905306 -0.441032 0.328589
0.094273 -0.440527 0.329554
0.0980545 -0.440633 0.330006
0.101635 -0.440448 0.330699
0.10568 -0.440419 0.33094
0.109389 -0.440387 0.330428
0.112942 -0.440691 0.330043
0.117065 -0.440778 0.329967
0.120476 -0.440589 0.329522
0.124641 -0.440976 0.328661
0.128637 -0.441157 0.328128
0.131959 -0.441482 0.326832
0.135431 -0.441613 0.326654
0.139928 -0.441767 0.325587
0.143756 -0.442445 0.323424
0.147661 -0.443123 0.321316
0.151842 -0.443441 0.318791
0.155667 -0.444114 0.316019
0.159834 -0.44509 0.312819
0.164375 -0.446878 0.307274
0.168304 -0.447765 0.303094
0.172374 -0.4482 0.299165
0.176738 -0.45007 0.293789
0.181554 -0.452016 0.287287
0.185781 -0.453067 0.282191
0.190238 -0.454723 0.27699
0.194657 -0.455606 0.273153
0.199167 -0.457248 0.26796
0.203162 -0.457344 0.2664
0.207701 -0.457669 0.263922
0.211666 -0.458555 0.26217
0.215761 -0.459347 0.259706
0.219836 -0.459155 0.259282
0.22411 -0.459594 0.25755
0.227926 -0.459921 0.256824
0.232015 -0.459888 0.256636
0.235989 -0.460268 0.255139
0.240344 -0.460828 0.253577
0.244355 -0.461497 0.251812
0.248513 -0.461115 0.252027
0.252611 -0.461981 0.249032
0.257331 -0.462588 0.246085
0.262729 -0.465926 0.235074
-0.354601 -0.484505 0.148415
-0.349548 -0.482377 0.155369
-0.344448 -0.481678 0.159157
-0.339615 -0.480898 0.162665
-0.335661 -0.479948 0.164851
-0.330677 -0.479816 0.167246
-0.325995 -0.478887 0.169899
-0.321594 -0.478627 0.170652
-0.317877 -0.478386 0.172034
-0.313079 -0.477595 0.173709
-0.308845 -0.477529 0.173912
-0.304274 -0.477643 0.174327
-0.300614 -0.477218 0.174997
-0.296017 -0.477521 0.175309
-0.291876 -0.477009 0.176693
-0.287835 -0.477228 0.176077
-0.283807 -0.476788 0.177124
-0.279014 -0.477024 0.177286
-0.27543 -0.476832 0.177252
-0.270823 -0.476466 0.179098
-0.267251 -0.476087 0.178384
-0.262675 -0.476134 0.178872
-0.258778 -0.476546 0.179631
-0.254991 -0.476404 0.179513
-0.250431 -0.476313 0.179145
-0.246534 -0.475981 0.179546
-0.24207 -0.476139 0.180121
-0.238 -0.475597 0.182389
-0.233188 -0.47452 0.185999
-0.228151 -0.472257 0.19473
-0.221647 -0.467161 0.214078
-0.214878 -0.461086 0.236978
-0.209109 -0.458096 0.248419
-0.204399 -0.456345 0.255112
-0.200146 -0.455383 0.260409
-0.195579 -0.453574 0.265147
-0.191456 -0.452541 0.269356
-0.187094 -0.451364 0.274986
-0.182711 -0.450383 0.278799
-0.178341 -0.44956 0.280745
-0.174464 -0.449155 0.283043
-0.170127 -0.448515 0.285903
-0.165997 -0.44777 0.287823
-0.162192 -0.447702 0.288178
-0.15791 -0.447323 0.289772
-0.153828 -0.44699 0.291471
-0.150278 -0.446837 0.291477
-0.146225 -0.447224 0.291832
-0.142629 -0.446547 0.292746
-0.138554 -0.447252 0.291567
-0.134839 -0.446788 0.293725
-0.130724 -0.446631 0.292872
-0.126832 -0.446556 0.293398
-0.123321 -0.446226 0.294175
-0.119346 -0.446715 0.293163
-0.115557 -0.446548 0.293776
-0.111234 -0.446442 0.293848
-0.108063 -0.446808 0.293115
-0.103774 -0.446381 0.294203
-0.100013 -0.446072 0.294453
-0.0961457 -0.446026 0.294814
-0.0920312 -0.44588 0.295189
-0.0883589 -0.44562 0.296477
-0.0844954 -0.445847 0.295469
-0.0806741 -0.446191 0.295695
-0.0771243 -0.445826 0.296684
-0.0732475 -0.445608 0.296635
-0.0693491 -0.445732 0.296165
-0.0653347 -0.44543 0.297833
-0.0616694 -0.445679 0.297706
-0.0571832 -0.444746 0.29959
-0.0538436 -0.445137 0.298714
-0.0503158 -0.445002 0.298533
-0.0458459 -0.44486 0.299446
-0.0418842 -0.445337 0.299147
-0.0381775 -0.444279 0.301246
-0.0346708 -0.444192 0.300912
-0.0307311 -0.444861 0.300709
-0.0266573 -0.444693 0.301525
-0.0228628 -0.444049 0.302781
-0.0192131 -0.443954 0.303035
-0.015165 -0.443589 0.303688
-0.0117404 -0.443719 0.304542
-0.00774412 -0.443382 0.305005
-0.00384498 -0.443013 0.305806
-0.000166143 -0.443246 0.306546
0.00380234 -0.443042 0.30681
0.00727523 -0.442531 0.308508
0.0111824 -0.442439 0.309269
0.0155732 -0.441924 0.311135
0.0187686 -0.441176 0.31313
0.0226638 -0.441132 0.313407
0.0268104 -0.440859 0.314511
0.0303806 -0.440597 0.31568
0.034027 -0.440216 0.317123
0.0378684 -0.440314 0.31665
0.0417914 -0.43956 0.319472
0.0450381 -0.439565 0.320344
0.0491379 -0.439181 0.320203
0.0530174 -0.439453 0.321216
0.0566998 -0.438762 0.322093
0.0608498 -0.438694 0.322917
0.0643596 -0.438831 0.323456
0.0682675 -0.438396 0.324049
0.0715651 -0.437854 0.325136
0.0753833 -0.438288 0.324729
0.0791285 -0.437687 0.32646
0.0830067 -0.437114 0.327673
0.0867524 -0.437221 0.328935
0.0904707 -0.437447 0.328338
0.0944081 -0.437255 0.328854
0.0978363 -0.437128 0.329785
0.101829 -0.437089 0.329936
0.105537 -0.436985 0.330027
0.109233 -0.437247 0.329584
0.113 -0.437242 0.329988
0.116855 -0.436946 0.329016
0.120286 -0.437182 0.329684
0.124687 -0.436873 0.32903
0.128547 -0.437414 0.32783
0.13183 -0.437548 0.327271
0.135829 -0.437804 0.326547
0.139597 -0.437947 0.325469
0.143442 -0.438217 0.323941
0.147935 -0.439243 0.321844
0.151228 -0.43884 0.32117
0.155563 -0.440444 0.317914
0.159373 -0.440809 0.31523
0.163724 -0.44185 0.311032
0.167569 -0.442593 0.307679
0.172285 -0.44389 0.303236
0.176306 -0.445279 0.298813
0.180887 -0.445896 0.294442
0.185139 -0.447125 0.28942
0.18962 -0.449173 0.283384
0.194075 -0.450052 0.279877
0.19795 -0.45067 0.276705
0.202073 -0.451572 0.273662
0.206411 -0.451771 0.271652
0.211184 -0.453152 0.26825
0.214806 -0.453147 0.267613
0.21888 -0.454052 0.265653
0.22315 -0.45331 0.266116
0.226677 -0.453956 0.264492
0.230764 -0.453929 0.264682
0.234833 -0.454524 0.263684
0.238607 -0.454245 0.264029
0.242816 -0.454174 0.264052
0.246621 -0.454759 0.26361
0.250418 -0.454352 0.263494
0.254441 -0.454543 0.262969
0.258942 -0.454415 0.262335
0.262571 -0.455151 0.260236
0.266906 -0.455639 0.257821
0.271684 -0.457261 0.252392
0.276931 -0.458855 0.245654
-0.359738 -0.480904 0.145196
-0.353299 -0.47844 0.154796
-0.349596 -0.477598 0.15815
-0.343437 -0.47596 0.163859
-0.339507 -0.475555 0.165087
-0.334757 -0.475283 0.167623
-0.330157 -0.474862 0.16954
-0.325831 -0.47414 0.171436
-0.321385 -0.473995 0.172728
-0.316961 -0.47366 0.173388
-0.31306 -0.473606 0.174133
-0.309068 -0.473912 0.173239
-0.304213 -0.47351 0.175581
-0.300796 -0.473274 0.175375
-0.296251 -0.473522 0.175202
-0.29221 -0.472716 0.176057
-0.287611 -0.472897 0.177099
-0.283253 -0.472657 0.177277
-0.279652 -0.47234 0.177721
-0.274892 -0.472469 0.178908
-0.271107 -0.472142 0.179073
-0.266681 -0.471899 0.180452
-0.262575 -0.471784 0.179854
-0.258924 -0.472335 0.179562
-0.254485 -0.472073 0.179804
-0.250089 -0.472046 0.179743
-0.246318 -0.472014 0.18068
-0.241578 -0.472007 0.181372
-0.237789 -0.471051 0.183554
-0.23287 -0.469915 0.18792
-0.227745 -0.46764 0.196522
-0.220994 -0.462619 0.215689
-0.215114 -0.457779 0.234862
-0.209463 -0.454764 0.245773
-0.20505 -0.452909 0.253129
-0.200473 -0.451805 0.257741
-0.195901 -0.450642 0.26309
-0.191818 -0.449015 0.268515
-0.187124 -0.447876 0.271427
-0.182855 -0.447298 0.276023
-0.177949 -0.446096 0.279302
-0.17467 -0.445452 0.281842
-0.170389 -0.444635 0.284985
-0.165928 -0.444587 0.286515
-0.162093 -0.443936 0.28835
-0.158248 -0.443492 0.289379
-0.154291 -0.443438 0.290802
-0.150255 -0.443284 0.291236
-0.146257 -0.443431 0.292162
-0.142338 -0.443025 0.292359
-0.138388 -0.442733 0.293081
-0.134462 -0.442347 0.292994
-0.130829 -0.442302 0.293369
-0.127258 -0.442625 0.292181
-0.122857 -0.4423 0.294875
-0.119351 -0.442719 0.293501
-0.115291 -0.442806 0.293634
-0.111297 -0.442561 0.293765
-0.107744 -0.44259 0.294073
-0.103867 -0.442595 0.293031
-0.0995132 -0.442112 0.296193
-0.0960898 -0.442357 0.293837
-0.092274 -0.442283 0.294971
-0.0881703 -0.442024 0.294829
-0.0845146 -0.442498 0.295422
-0.0808073 -0.442039 0.295564
-0.0768659 -0.441955 0.295781
-0.0726994 -0.44167 0.297359
-0.0692334 -0.441661 0.296473
-0.065414 -0.441625 0.296354
-0.0615074 -0.441531 0.296607
-0.0574568 -0.441213 0.298096
-0.0534798 -0.441339 0.298447
-0.0501339 -0.441455 0.297913
-0.0460258 -0.441422 0.299438
-0.0422257 -0.440861 0.299954
-0.0381728 -0.440706 0.300239
-0.0344196 -0.440831 0.300266
-0.030565 -0.440692 0.300581
-0.0269356 -0.440335 0.301393
-0.0229274 -0.440332 0.302763
-0.0194425 -0.440242 0.303301
-0.0152287 -0.440005 0.303979
-0.0116446 -0.439845 0.304546
-0.00764319 -0.439504 0.305521
-0.00341316 -0.439143 0.306521
0.000230807 -0.438831 0.307563
0.00383188 -0.43838 0.30936
0.00755899 -0.438486 0.309759
0.0116295 -0.437722 0.312132
0.0153284 -0.437469 0.313251
0.0195444 -0.436348 0.315611
0.0226939 -0.436911 0.316219
0.0267069 -0.436166 0.318441
0.0302561 -0.436223 0.318193
0.0343935 -0.435983 0.31849
0.0376771 -0.435754 0.319962
0.0417304 -0.43581 0.320145
0.0453273 -0.435627 0.320949
0.0492033 -0.435082 0.32209
0.0535165 -0.43555 0.321096
0.0567212 -0.435074 0.322934
0.0606735 -0.43466 0.323888
0.0642657 -0.43491 0.32343
0.0679741 -0.434751 0.323614
0.0717034 -0.434378 0.325324
0.0755843 -0.434375 0.325784
0.0792137 -0.433991 0.326578
0.0828165 -0.434048 0.327193
0.0867701 -0.433749 0.327664
0.0904576 -0.43348 0.328063
0.0943082 -0.432987 0.328952
0.0979059 -0.433193 0.330058
0.10172 -0.433509 0.32966
0.105739 -0.433184 0.329335
0.109389 -0.433214 0.329893
0.11314 -0.433385 0.32974
0.116912 -0.433212 0.329292
0.120575 -0.432926 0.329651
0.124577 -0.433426 0.328762
0.128433 -0.433936 0.32835
0.132038 -0.433598 0.328267
0.135702 -0.434016 0.327247
0.13964 -0.434168 0.326589
0.14352 -0.434221 0.325297
0.147555 -0.435009 0.322876
0.151614 -0.435371 0.321612
0.155266 -0.435448 0.319804
0.159563 -0.436599 0.316904
0.163297 -0.437278 0.313946
0.167689 -0.438403 0.310166
0.171453 -0.438988 0.307105
0.175437 -0.440079 0.303738
0.180134 -0.441571 0.297999
0.184457 -0.44221 0.29477
0.189071 -0.443631 0.290012
0.19336 -0.44478 0.285147
0.197279 -0.445186 0.282375
0.201689 -0.446404 0.278977
0.20626 -0.447145 0.276546
0.210205 -0.44772 0.273347
0.214411 -0.447843 0.273846
0.218225 -0.448326 0.271631
0.222518 -0.448947 0.269796
0.226139 -0.448222 0.270435
0.229842 -0.448285 0.270931
0.233536 -0.447933 0.271602
0.237863 -0.448451 0.271178
0.24164 -0.448882 0.27065
0.24539 -0.448294 0.272169
0.249513 -0.448257 0.271772
0.253333 -0.448385 0.271745
0.256868 -0.447701 0.273764
0.261229 -0.448485 0.27211
0.264976 -0.448019 0.271501
0.2695 -0.448429 0.270182
0.273808 -0.450287 0.265803
0.277755 -0.450371 0.264004
0.282971 -0.452123 0.258014
0.288813 -0.455078 0.247047
0.293754 -0.456214 0.239804
-0.365106 -0.478927 0.1378
-0.35861 -0.475488 0.150699
-0.353543 -0.47403 0.15628
-0.348724 -0.472913 0.160728
-0.343431 -0.471797 0.163896
-0.338992 -0.471181 0.167225
-0.334686 -0.470645 0.168599
-0.330069 -0.470132 0.170102
-0.325954 -0.470124 0.172081
-0.321205 -0.469702 0.173042
-0.317041 -0.469774 0.174025
-0.312991 -0.469165 0.173738
-0.308544 -0.469555 0.175483
-0.304799 -0.469628 0.174888
-0.300072 -0.469068 0.175704
-0.296173 -0.468706 0.17709
-0.291669 -0.468379 0.177101
-0.287539 -0.468729 0.176947
-0.283058 -0.468435 0.177482
-0.279157 -0.468515 0.178309
-0.274872 -0.468313 0.178905
-0.271247 -0.468399 0.178593
-0.26689 -0.468164 0.179091
-0.263191 -0.467898 0.179772
-0.25871 -0.467752 0.179311
-0.254181 -0.467765 0.179811
-0.250142 -0.467386 0.180427
-0.246275 -0.468004 0.180593
-0.241831 -0.467218 0.182298
-0.237588 -0.467246 0.183241
-0.232347 -0.465365 0.189556
-0.2279 -0.464089 0.196099
-0.221354 -0.459597 0.213583
-0.215066 -0.454141 0.23279
-0.209554 -0.451154 0.2442
-0.204918 -0.449704 0.251034
-0.200808 -0.4489 0.255275
-0.195628 -0.447292 0.261688
-0.192221 -0.4459 0.264738
-0.1874 -0.444809 0.269584
-0.182775 -0.443604 0.274693
-0.178931 -0.44279 0.277076
-0.17435 -0.442133 0.281123
-0.170501 -0.44146 0.281866
-0.166145 -0.4409 0.285688
-0.162412 -0.440324 0.286644
-0.158151 -0.440486 0.288862
-0.154379 -0.439519 0.28898
-0.150356 -0.43972 0.289669
-0.146417 -0.439365 0.290509
-0.142705 -0.439068 0.291741
-0.138917 -0.43917 0.290962
-0.134649 -0.438822 0.292327
-0.130951 -0.43933 0.291752
-0.126871 -0.43871 0.292741
-0.123327 -0.438916 0.292483
-0.119228 -0.438931 0.293274
-0.115381 -0.438931 0.293038
-0.111588 -0.438359 0.29311
-0.107843 -0.43873 0.29286
-0.103945 -0.439188 0.293172
-0.100196 -0.438617 0.293509
-0.0962426 -0.438499 0.293551
-0.0922049 -0.438623 0.293964
-0.0884313 -0.438708 0.294955
-0.0845212 -0.437905 0.294378
-0.0806058 -0.438094 0.295065
-0.0770371 -0.438235 0.295001
-0.073041 -0.43837 0.295919
-0.0689859 -0.438481 0.295617
-0.0652017 -0.437992 0.296971
-0.0613358 -0.437951 0.297289
-0.0578682 -0.437995 0.29655
-0.0540386 -0.437596 0.298326
-0.0496938 -0.437615 0.29876
-0.0460814 -0.437181 0.299337
-0.0422033 -0.436911 0.300365
-0.0383233 -0.436981 0.299512
-0.0345207 -0.437031 0.299966
-0.0305116 -0.436808 0.301281
-0.0268623 -0.436169 0.30198
-0.0228791 -0.436661 0.302388
-0.0190871 -0.436372 0.303284
-0.0151846 -0.435609 0.304502
-0.0112648 -0.435931 0.304488
-0.00742241 -0.434903 0.307546
-0.00381795 -0.435493 0.307048
0.000238853 -0.435047 0.30916
0.00360193 -0.434259 0.311343
0.00747226 -0.433752 0.313145
0.0110664 -0.433009 0.31506
0.0152006 -0.432503 0.317324
0.0189552 -0.432797 0.316949
0.022796 -0.432795 0.317543
0.0264652 -0.432277 0.319958
0.02995 -0.431989 0.319799
0.0341796 -0.43139 0.321798
0.0379777 -0.431438 0.321815
0.0416033 -0.43159 0.322065
0.045506 -0.431396 0.323178
0.0488668 -0.431318 0.322959
0.0527932 -0.431192 0.323928
0.0565813 -0.430979 0.323438
0.0605126 -0.43094 0.323979
0.0642972 -0.430364 0.324692
0.0679122 -0.430598 0.325224
0.0720345 -0.430401 0.325215
0.0757073 -0.429549 0.327445
0.0792232 -0.430249 0.327102
0.0832705 -0.430172 0.327494
0.086873 -0.429768 0.327798
0.0906879 -0.429594 0.328226
0.0943315 -0.429633 0.32904
0.0979803 -0.429469 0.33009
0.101674 -0.429262 0.33011
0.105395 -0.429644 0.328472
0.109512 -0.429301 0.330392
0.112977 -0.42934 0.32946
0.116458 -0.429594 0.329584
0.12094 -0.429402 0.32876
0.124359 -0.429614 0.328933
0.128359 -0.430124 0.328549
0.131662 -0.430129 0.327609
0.136012 -0.430544 0.326565
0.139628 -0.430564 0.326088
0.143614 -0.430895 0.324014
0.14758 -0.430956 0.322776
0.151429 -0.431253 0.322214
0.15537 -0.43216 0.320125
0.159558 -0.432597 0.317533
0.163451 -0.432916 0.31565
0.167335 -0.43375 0.313363
0.171443 -0.434707 0.309639
0.175658 -0.435272 0.306847
0.179846 -0.436621 0.302118
0.183954 -0.436971 0.299142
0.188398 -0.43864 0.29477
0.192787 -0.439568 0.291033
0.197084 -0.440857 0.285984
0.20124 -0.441345 0.284029
0.205357 -0.441712 0.282234
0.209631 -0.442114 0.280384
0.213891 -0.442951 0.277592
0.217666 -0.443023 0.276832
0.221569 -0.443564 0.275796
0.225297 -0.443216 0.275027
0.229069 -0.443511 0.274729
0.233042 -0.443191 0.276026
0.237293 -0.443392 0.275986
0.241208 -0.442643 0.277996
0.244947 -0.442709 0.277996
0.248016 -0.442319 0.279021
0.25197 -0.44188 0.280336
0.255905 -0.442458 0.279794
0.259876 -0.442186 0.280903
0.263916 -0.441816 0.28144
0.267969 -0.442003 0.28111
0.271396 -0.442048 0.279798
0.27551 -0.442684 0.278634
0.279331 -0.442928 0.276743
0.284863 -0.444515 0.271622
0.288941 -0.445566 0.268072
0.293886 -0.446646 0.262787
0.29883 -0.44841 0.255383
0.305124 -0.451465 0.242463
-0.364552 -0.473757 0.140734
-0.358808 -0.471585 0.150707
-0.353706 -0.46988 0.156468
-0.34852 -0.468724 0.161675
-0.343134 -0.467621 0.165572
-0.339185 -0.466778 0.167351
-0.33452 -0.466469 0.169844
-0.330176 -0.466321 0.171034
-0.325756 -0.465633 0.172266
-0.321283 -0.465683 0.173205
-0.316896 -0.465391 0.174105
-0.312842 -0.465353 0.174455
-0.308826 -0.465282 0.175279
-0.304417 -0.464481 0.176075
-0.300352 -0.465214 0.175873
-0.29626 -0.465037 0.175569
-0.292362 -0.464696 0.175744
-0.287484 -0.464552 0.177419
-0.283836 -0.464362 0.177406
-0.279791 -0.46491 0.177697
-0.275452 -0.464326 0.178058
-0.270956 -0.464301 0.178537
-0.266926 -0.464086 0.179153
-0.262721 -0.463836 0.179275
-0.258454 -0.463851 0.179525
-0.254811 -0.464071 0.179179
-0.250653 -0.463942 0.179472
-0.246533 -0.463476 0.1801
-0.241693 -0.46331 0.181246
-0.237556 -0.462859 0.184235
-0.232405 -0.461888 0.188705
-0.227736 -0.459729 0.1954
-0.221803 -0.456164 0.210852
-0.215897 -0.451519 0.227652
-0.210203 -0.448093 0.240015
-0.205452 -0.446523 0.247952
-0.200849 -0.445191 0.25294
-0.19632 -0.444087 0.258205
-0.19196 -0.442995 0.262566
-0.187468 -0.441536 0.266788
-0.183089 -0.440373 0.271179
-0.179118 -0.439582 0.274958
-0.174672 -0.438446 0.279178
-0.170386 -0.437775 0.281493
-0.165899 -0.437015 0.284668
-0.162088 -0.436721 0.285888
-0.158635 -0.436438 0.28638
-0.154686 -0.436769 0.287293
-0.150601 -0.435609 0.288697
-0.14665 -0.435872 0.290025
-0.142775 -0.435726 0.290387
-0.138908 -0.435618 0.290745
-0.135131 -0.43537 0.291243
-0.130886 -0.435738 0.291687
-0.127113 -0.435567 0.291039
-0.123506 -0.435441 0.291298
-0.119857 -0.434965 0.292393
-0.115337 -0.435251 0.291581
-0.112038 -0.435089 0.291742
-0.107849 -0.435164 0.291602
-0.104049 -0.43545 0.292218
-0.100355 -0.435419 0.291879
-0.0960247 -0.434978 0.292766
-0.092685 -0.434844 0.293182
-0.0883975 -0.434822 0.29328
-0.0845944 -0.434979 0.293939
-0.0806909 -0.434859 0.293842
-0.0766965 -0.434701 0.294145
-0.073085 -0.434252 0.296049
-0.069299 -0.435088 0.295374
-0.0656736 -0.434166 0.2964
-0.0615506 -0.433828 0.295957
-0.0579151 -0.43413 0.296623
-0.0538486 -0.433935 0.297338
-0.0498047 -0.43371 0.298561
-0.0459559 -0.433515 0.298738
-0.0422613 -0.433511 0.299312
-0.0383545 -0.433588 0.300646
-0.0343242 -0.433144 0.300771
-0.0306761 -0.432658 0.301733
-0.0266744 -0.432258 0.303476
-0.0228684 -0.432288 0.303498
-0.0193226 -0.432292 0.304699
-0.0150589 -0.431819 0.306526
-0.0115946 -0.431848 0.307033
-0.00778832 -0.431111 0.308439
-0.00394462 -0.430772 0.310104
1.00604e-06 -0.430271 0.312151
0.00370018 -0.429626 0.313901
0.00785832 -0.428723 0.317027
0.0112291 -0.42854 0.318636
0.0152747 -0.427751 0.320949
0.0190072 -0.427473 0.323409
0.0230176 -0.427123 0.324189
0.0266363 -0.426951 0.324245
0.0304088 -0.427065 0.325162
0.0341393 -0.426395 0.326012
0.0379395 -0.426585 0.326737
0.0415363 -0.427065 0.326272
0.0453942 -0.426077 0.326681
0.0491707 -0.426716 0.325796
0.052718 -0.427 0.325278
0.0567194 -0.42696 0.325356
0.0602467 -0.426697 0.325072
0.0638715 -0.426525 0.326417
0.0680747 -0.42687 0.326157
0.0714855 -0.426531 0.326602
0.075461 -0.42635 0.327452
0.0794399 -0.426061 0.32754
0.0833255 -0.426425 0.327014
0.0870097 -0.425918 0.328019
0.0906003 -0.426006 0.328351
0.094382 -0.425848 0.329105
0.097771 -0.425572 0.329224
0.101683 -0.425572 0.329365
0.105956 -0.425824 0.329379
0.109299 -0.425281 0.329505
0.113212 -0.425851 0.329357
0.11683 -0.425771 0.329501
0.120314 -0.42626 0.329053
0.124463 -0.42618 0.328822
0.128267 -0.426021 0.327656
0.132197 -0.426178 0.32743
0.136194 -0.426351 0.32669
0.139691 -0.426573 0.326277
0.143363 -0.426475 0.324853
0.147266 -0.427357 0.324139
0.151756 -0.427553 0.322344
0.155149 -0.428195 0.320937
0.159004 -0.428053 0.319947
0.163076 -0.42864 0.317155
0.167447 -0.429296 0.315161
0.171115 -0.429964 0.312746
0.175684 -0.431144 0.308824
0.179382 -0.43138 0.306551
0.183583 -0.432345 0.303156
0.188036 -0.433365 0.299625
0.192512 -0.434359 0.295484
0.196161 -0.435362 0.291754
0.200635 -0.436427 0.288691
0.204709 -0.436707 0.286625
0.209114 -0.437257 0.283686
0.212916 -0.438098 0.281324
0.217349 -0.438471 0.280648
0.221226 -0.438631 0.279414
0.224865 -0.43852 0.279608
0.229186 -0.438432 0.279761
0.232937 -0.438269 0.279631
0.236732 -0.43807 0.280356
0.240225 -0.438113 0.281426
0.243573 -0.437537 0.283423
0.247281 -0.436872 0.285139
0.251302 -0.436695 0.285797
0.255311 -0.436359 0.287326
0.258934 -0.436082 0.28784
0.262572 -0.43621 0.28832
0.266613 -0.43633 0.287845
0.270402 -0.43631 0.288499
0.274282 -0.435966 0.288398
0.27816 -0.436842 0.286332
0.282594 -0.436987 0.284391
0.286822 -0.437892 0.281752
0.291013 -0.438012 0.280039
0.295496 -0.439378 0.275736
0.299919 -0.440217 0.271786
0.304881 -0.441473 0.26646
0.31118 -0.445491 0.252346
-0.371786 -0.472773 0.126306
-0.364866 -0.46948 0.140978
-0.358745 -0.466711 0.150937
-0.353462 -0.465308 0.157449
-0.34837 -0.464637 0.161051
-0.344013 -0.463498 0.164231
-0.339195 -0.462972 0.167052
-0.334501 -0.462151 0.169578
-0.329979 -0.462009 0.17065
-0.325749 -0.462052 0.171549
-0.321515 -0.461555 0.172896
-0.317128 -0.461427 0.173424
-0.313096 -0.461282 0.173879
-0.308838 -0.461059 0.175021
-0.304509 -0.461054 0.175142
-0.300425 -0.460947 0.175308
-0.296086 -0.460943 0.174946
-0.292214 -0.461152 0.17464
-0.288348 -0.460722 0.175913
-0.283467 -0.46062 0.176576
-0.279247 -0.460345 0.178327
-0.275469 -0.460184 0.177652
-0.271453 -0.460496 0.177972
-0.267036 -0.459919 0.178198
-0.262991 -0.45976 0.178574
-0.258807 -0.459866 0.179392
-0.254544 -0.459459 0.179937
