ply
format ascii 1.0
element vertex 1633
property float x
property float y
property float z
end_header
-0.220917 0.0375025 0.151101
-0.216872 0.0371472 0.15145
-0.212427 0.0374471 0.153006
-0.207921 0.0375977 0.153959
-0.203963 0.0374139 0.155187
-0.199941 0.0376653 0.155271
-0.195407 0.0372496 0.155776
-0.191364 0.0372578 0.156598
-0.187332 0.0371723 0.158149
-0.183139 0.0372253 0.157663
-0.178701 0.0370452 0.158058
-0.174263 0.0371881 0.159278
-0.170181 0.0374101 0.157864
-0.166297 0.0374797 0.157455
-0.162443 0.0375625 0.15777
-0.157341 0.0371059 0.159164
-0.153474 0.037433 0.15825
-0.149703 0.0372436 0.15841
-0.145173 0.0374025 0.157318
-0.141015 0.0376165 0.158406
-0.136891 0.0373234 0.158056
-0.133015 0.0370575 0.157774
-0.128986 0.037306 0.158016
-0.124796 0.0375005 0.156832
-0.120679 0.0376768 0.156569
-0.116443 0.0374411 0.156413
-0.112153 0.0376249 0.154653
-0.107923 0.0377586 0.154719
-0.104059 0.0375004 0.154664
-0.0998728 0.0375525 0.154656
-0.0955035 0.0372745 0.153648
-0.0915856 0.0374692 0.152895
-0.087477 0.0373273 0.151308
-0.0833619 0.0374964 0.151682
-0.0796963 0.0375768 0.149623
-0.0749679 0.0376088 0.146417
-0.0710594 0.037728 0.143891
-0.0668218 0.0377989 0.141925
-0.0632953 0.037928 0.139105
-0.0587495 0.03785 0.136804
-0.0547943 0.0381301 0.133682
-0.0502108 0.0380965 0.129851
-0.0463398 0.0377555 0.12819
-0.0420304 0.0380827 0.125628
-0.0380179 0.0374524 0.124765
-0.0339699 0.0382238 0.122372
-0.0295047 0.0380156 0.119716
-0.0257243 0.037971 0.118714
-0.0217286 0.0382162 0.11657
-0.0171243 0.0385607 0.114844
-0.0131217 0.0382317 0.11251
-0.00847899 0.038506 0.11134
-0.00415985 0.0381965 0.109575
-0.000260341 0.0383622 0.107538
0.00427306 0.037956 0.105643
0.0086491 0.0387892 0.10386
0.0133835 0.0387491 0.101325
0.0171238 0.0385122 0.100944
0.0216515 0.0391286 0.0985357
0.0257858 0.0384878 0.0971138
0.0305529 0.038555 0.0945898
0.0343996 0.0387603 0.0921854
0.0390669 0.0383153 0.0905724
0.0428458 0.0387242 0.0885328
0.0478799 0.0386604 0.0854886
0.0518722 0.0392194 0.0820148
0.0560667 0.0392325 0.0788609
0.0612217 0.0394614 0.0763133
0.0650257 0.0392231 0.0752343
0.0697013 0.0390534 0.0707856
0.0738142 0.0394125 0.0693603
0.0787309 0.0387467 0.0673264
0.0827257 0.0391389 0.0661203
0.087381 0.0396096 0.064275
0.0916459 0.0396195 0.0626292
0.0963116 0.0391381 0.0612946
0.100702 0.039776 0.0589026
0.105196 0.0395042 0.0572095
0.109684 0.0395052 0.0553616
0.114254 0.0391163 0.0537765
0.118554 0.0395815 0.0528843
0.123245 0.0393115 0.0510458
0.127275 0.0396754 0.0490463
0.132024 0.0396243 0.0466079
0.136514 0.0396042 0.045949
0.140954 0.039674 0.0439739
0.145501 0.0399852 0.0428028
0.150748 0.0397017 0.0411506
0.154716 0.0396477 0.0410821
0.159558 0.0393729 0.0387429
0.163879 0.0399105 0.0383461
0.168131 0.0397067 0.0360872
0.172728 0.039936 0.0351369
0.177416 0.0401032 0.0330008
0.181788 0.0405648 0.0320934
0.187011 0.0401786 0.0305914
0.190953 0.0398973 0.0301402
0.195725 0.0400036 0.0292435
0.20023 0.0401011 0.027153
0.204632 0.0401186 0.025826
0.209371 0.0402767 0.0242957
0.214228 0.0399262 0.0227548
0.218473 0.0398527 0.0204117
0.223412 0.0403728 0.0181425
0.228353 0.0398216 0.0163337
0.232663 0.0406089 0.0141294
0.237373 0.0405865 0.011831
0.242269 0.0404028 0.00948179
0.247311 0.0403889 0.00683188
0.251639 0.0406761 0.0043633
0.257025 0.0409666 0.000100255
0.261622 0.0405274 -0.0016253
0.266974 0.0408777 -0.00623274
0.272069 0.0409245 -0.0108206
0.277029 0.0408704 -0.0145965
0.28243 0.0409789 -0.0200741
0.287371 0.0409406 -0.0248034
0.293448 0.0415852 -0.0310421
0.298868 0.0412757 -0.0354121
0.303697 0.0414688 -0.0407476
0.308987 0.0412326 -0.0454881
0.314601 0.0412087 -0.050951
0.319453 0.0416471 -0.0547538
0.325241 0.0415142 -0.0593729
0.330535 0.0420116 -0.0647695
0.335804 0.0416023 -0.0685041
0.341488 0.0421869 -0.0735683
0.346448 0.041819 -0.077271
0.352015 0.0422092 -0.0818729
0.357566 0.0422737 -0.0859373
0.363629 0.042121 -0.0922594
0.368675 0.0425716 -0.0971057
0.374959 0.042533 -0.103881
0.381071 0.0430811 -0.11138
0.387563 0.0434332 -0.119623
0.393358 0.042986 -0.127832
0.400063 0.0432324 -0.137455
0.406761 0.0437031 -0.148353
0.416074 0.0438574 -0.171068
-0.352778 0.0449578 -0.00543094
-0.344337 0.0449154 0.0180779
-0.335403 0.0441573 0.0415236
-0.328805 0.0439398 0.0569258
-0.321567 0.0433669 0.0732603
-0.315511 0.0432136 0.0839868
-0.309605 0.0432477 0.092338
-0.304096 0.0425662 0.100919
-0.299587 0.0431011 0.104962
-0.294489 0.0428335 0.109334
-0.288931 0.0427095 0.114409
-0.284149 0.042617 0.117911
-0.279776 0.0424584 0.120916
-0.274894 0.0420992 0.125174
-0.270222 0.0422749 0.127219
-0.266282 0.0422861 0.128919
-0.261121 0.0421397 0.131483
-0.256772 0.0417628 0.133327
-0.252655 0.0422305 0.134762
-0.247966 0.0420813 0.136754
-0.243181 0.0418714 0.138853
-0.239185 0.0421248 0.1404
-0.234362 0.0419036 0.142609
-0.230081 0.0421061 0.144001
-0.225487 0.0414917 0.146738
-0.221659 0.0418707 0.14764
-0.217134 0.0415433 0.149065
-0.212798 0.0415987 0.149897
-0.20837 0.0422609 0.151155
-0.204352 0.0416659 0.152377
-0.199926 0.0415906 0.152552
-0.195794 0.0414384 0.152973
-0.191505 0.0413207 0.154768
-0.187554 0.0414896 0.154289
-0.182684 0.0415356 0.155021
-0.179137 0.0415113 0.156171
-0.174664 0.0416606 0.155505
-0.170495 0.0412381 0.156867
-0.166803 0.0414428 0.156567
-0.162428 0.0417917 0.156272
-0.15848 0.0415148 0.15628
-0.153679 0.0415616 0.156862
-0.149714 0.0416793 0.156352
-0.145528 0.0418203 0.155939
-0.141353 0.0415624 0.155669
-0.137124 0.0416749 0.156816
-0.133593 0.0415506 0.155246
-0.129353 0.0415557 0.154989
-0.124659 0.0416565 0.154657
-0.120697 0.0415583 0.153986
-0.11696 0.0416381 0.154203
-0.112331 0.0419716 0.153306
-0.108452 0.0415256 0.153481
-0.104425 0.0414587 0.152224
-0.100179 0.0415742 0.151233
-0.0953828 0.0413544 0.15152
-0.0916716 0.0416647 0.150111
-0.0878158 0.0418793 0.147788
-0.0834976 0.0417922 0.146676
-0.0799087 0.0418017 0.145462
-0.0755479 0.0416374 0.143453
-0.0712615 0.0419081 0.141633
-0.0670449 0.0418734 0.138844
-0.0626209 0.0420665 0.135489
-0.0589462 0.0421947 0.133355
-0.0546124 0.0417508 0.130215
-0.0504784 0.0421685 0.127009
-0.0467203 0.0418074 0.124487
-0.042339 0.0422714 0.122836
-0.0380713 0.0422335 0.12095
-0.0337855 0.0426247 0.118543
-0.0296231 0.0425003 0.117592
-0.0252826 0.0423195 0.115493
-0.0212641 0.0425798 0.114174
-0.0169258 0.0427359 0.111895
-0.0129276 0.0426873 0.110327
-0.00838546 0.0429118 0.107552
-0.0042906 0.042825 0.106074
9.71765e-06 0.0429728 0.104243
0.00424783 0.0430048 0.102793
0.0084595 0.0426309 0.101365
0.0129235 0.0429975 0.0984036
0.0171484 0.0428407 0.0971336
0.0215442 0.0429995 0.0951731
0.0261488 0.0430917 0.093304
0.0303757 0.0429471 0.0899078
0.0346926 0.0431799 0.0883187
0.0391389 0.0432967 0.0864402
0.043815 0.0434043 0.0827062
0.0477449 0.0430588 0.0796244
0.0521059 0.0434355 0.0769823
0.0560667 0.0433769 0.0754344
0.0610886 0.0435614 0.0717688
0.0647999 0.0434352 0.0703559
0.0697934 0.0436824 0.0680701
0.0737445 0.043817 0.0657998
0.0787996 0.0434471 0.064106
0.0831089 0.0430988 0.0616715
0.0874351 0.0435813 0.06029
0.0920682 0.0435946 0.0588876
0.0964364 0.0438578 0.0570772
0.101207 0.0440947 0.054248
0.105514 0.0436551 0.053195
0.110059 0.0441143 0.0508533
0.114385 0.0439406 0.0490848
0.119083 0.0439194 0.0484937
0.123587 0.0438899 0.0456953
0.127896 0.0438996 0.0438826
0.132712 0.0441364 0.0427313
0.136984 0.0440023 0.0411819
0.141257 0.0441553 0.039113
0.146021 0.0441054 0.0400137
0.150485 0.0441241 0.0377587
0.155097 0.0443627 0.0367229
0.159411 0.0443042 0.0363895
0.16431 0.0441625 0.0352166
0.168764 0.0445478 0.0334774
0.173074 0.0441155 0.0326324
0.17769 0.0444522 0.0314332
0.18215 0.0444417 0.0302103
0.186433 0.0445363 0.0291431
0.191069 0.0445051 0.0282356
0.195625 0.0445068 0.0266916
0.200012 0.044386 0.0257227
0.204913 0.0442067 0.0242392
0.209604 0.0445554 0.0211356
0.214014 0.0448065 0.0206835
0.218818 0.0446308 0.0190068
0.224031 0.0452173 0.016741
0.228394 0.045267 0.0138446
0.232589 0.0447631 0.0125349
0.237916 0.0451339 0.00903952
0.242479 0.0451904 0.00643587
0.247125 0.0449317 0.00486588
0.25235 0.0444632 0.00172436
0.257153 0.045449 -0.00296187
0.262483 0.045271 -0.00684023
0.267617 0.0456125 -0.0114129
0.272664 0.0453371 -0.0150194
0.277853 0.0455739 -0.0195658
0.282771 0.0453378 -0.0237057
0.288567 0.046098 -0.029423
0.293562 0.0458826 -0.0342782
0.298847 0.0462023 -0.0391393
0.3044 0.0458395 -0.0443056
0.310051 0.0466363 -0.0495467
0.314893 0.046532 -0.0523829
0.320103 0.046408 -0.057168
0.325626 0.04667 -0.0616987
0.330667 0.0468131 -0.064805
0.33562 0.0464059 -0.0682907
0.34103 0.0464285 -0.0719249
0.346621 0.0468618 -0.0771871
0.351793 0.0469838 -0.0799899
0.357311 0.0469338 -0.0850148
0.363125 0.0469204 -0.0906179
0.369127 0.0472652 -0.0955961
0.37398 0.0469241 -0.101253
0.380179 0.0475514 -0.107475
0.386719 0.0475227 -0.116144
0.392762 0.0482372 -0.123874
0.399167 0.0482188 -0.131939
0.406016 0.0484671 -0.142263
0.41364 0.0487335 -0.157915
-0.346492 0.0493743 0.00281942
-0.338397 0.0489123 0.0246028
-0.330862 0.0488646 0.0428765
-0.324301 0.0480958 0.0587356
-0.316996 0.0479863 0.0737879
-0.310476 0.0476621 0.0851053
-0.305499 0.0477597 0.0917381
-0.300135 0.0474922 0.0992115
-0.294686 0.047016 0.10447
-0.289853 0.0468323 0.108761
-0.285263 0.0466172 0.112866
-0.280445 0.0472022 0.11623
-0.275454 0.0466456 0.120291
-0.271259 0.0466031 0.122519
-0.266619 0.0466464 0.124555
-0.262232 0.0468418 0.126595
-0.257842 0.0465038 0.128244
-0.252937 0.0461227 0.131661
-0.248278 0.0462554 0.133093
-0.244014 0.0464383 0.135531
-0.239763 0.0463281 0.137059
-0.234983 0.0457703 0.138701
-0.230608 0.0454955 0.141759
-0.226299 0.0455982 0.142855
-0.221585 0.0459295 0.144764
-0.217468 0.0461491 0.145759
-0.213346 0.0459316 0.146686
-0.208787 0.0457508 0.148977
-0.204741 0.0457109 0.148689
-0.200149 0.0459396 0.150205
-0.195823 0.0459323 0.150837
-0.191769 0.0461027 0.151253
-0.187881 0.0458275 0.152292
-0.183073 0.0461559 0.151436
-0.179372 0.0458674 0.152404
-0.174811 0.0456947 0.15397
-0.170829 0.0458679 0.152642
-0.166407 0.0458472 0.154184
-0.162442 0.0452781 0.154716
-0.158247 0.0456835 0.155141
-0.154267 0.0456189 0.15452
-0.149922 0.0456489 0.155244
-0.145889 0.0456861 0.154273
-0.141872 0.0460884 0.153857
-0.137076 0.0457403 0.154084
-0.133311 0.0457481 0.153425
-0.12951 0.0460846 0.152952
-0.125164 0.0458038 0.152623
-0.120666 0.0457347 0.152517
-0.116252 0.0460031 0.150331
-0.11259 0.0459373 0.150576
-0.108582 0.0460974 0.149432
-0.104418 0.0461989 0.148998
-0.100116 0.0456041 0.149721
-0.0965191 0.0460491 0.147983
-0.0918258 0.0456807 0.147436
-0.0874927 0.0459833 0.144386
-0.0837581 0.0462701 0.143708
-0.0791237 0.0458059 0.141665
-0.0757433 0.0457811 0.140829
-0.0715542 0.046417 0.13726
-0.0674702 0.0464721 0.134494
-0.0633532 0.0460642 0.133046
-0.0587776 0.0465708 0.128967
-0.0550429 0.0466539 0.126464
-0.050492 0.0462987 0.12316
-0.0464558 0.0464325 0.121614
-0.0425601 0.0471234 0.118275
-0.0384308 0.0468354 0.116649
-0.033883 0.0465874 0.115702
-0.029787 0.046934 0.114051
-0.0258466 0.0466236 0.113126
-0.0211971 0.0467489 0.110711
-0.0168498 0.0466428 0.109232
-0.0126641 0.0468527 0.107017
-0.00889964 0.0468289 0.105669
-0.00407875 0.047344 0.102747
0.000236685 0.0468218 0.101857
0.0041475 0.0470191 0.099642
0.00857098 0.047266 0.0979199
0.0133046 0.0474746 0.0944283
0.0171044 0.04713 0.0930119
0.0213506 0.0473906 0.0909458
0.0255527 0.0474475 0.0881237
0.0301293 0.0478072 0.0857019
0.0346134 0.0472699 0.0839475
0.0392252 0.0475452 0.0796368
0.0433201 0.0476103 0.0775163
0.0479863 0.0480446 0.0738063
0.0521399 0.0478359 0.0720475
0.0565931 0.0478703 0.070567
0.0613366 0.0481466 0.0674828
0.0651761 0.0479447 0.0657572
0.0695805 0.048505 0.0638435
0.0743411 0.0478652 0.062346
0.0791479 0.047744 0.0596119
0.0834741 0.0483467 0.0578249
0.0880135 0.0484076 0.0564944
0.0922464 0.0480569 0.0555066
0.0968438 0.0479728 0.0519668
0.101212 0.0483892 0.0503364
0.105695 0.0482111 0.048749
0.109821 0.0484708 0.0464569
0.114574 0.0486554 0.0442033
0.119065 0.0487374 0.0435251
0.123723 0.0484486 0.0425837
0.128056 0.0484449 0.0396459
0.133032 0.0488096 0.0373855
0.137612 0.0487071 0.0365365
0.142009 0.0486929 0.0351081
0.146117 0.0487365 0.0340867
0.150676 0.0489087 0.0355202
0.155105 0.0484145 0.0338581
0.160383 0.0488582 0.033139
0.164327 0.0486858 0.0317692
0.168794 0.0487733 0.031579
0.173195 0.0484374 0.0298873
0.17774 0.0486667 0.0291005
0.182414 0.0485939 0.0285761
0.186784 0.0494138 0.0265903
0.191045 0.0485328 0.0266255
0.195989 0.0488057 0.0248476
0.200583 0.0491868 0.0234325
0.205076 0.0492056 0.0227593
0.209447 0.0492374 0.0209888
0.213855 0.0492787 0.0183141
0.218965 0.049261 0.0163525
0.224093 0.0493305 0.0132986
0.228854 0.0494201 0.0100827
0.233542 0.0489641 0.00988173
0.238401 0.0493671 0.0055598
0.243267 0.0492561 0.00385535
0.247847 0.0496265 0.000733256
0.252857 0.0496603 -0.00350642
0.257899 0.0494977 -0.00692534
0.262424 0.0499924 -0.0102532
0.268422 0.0499034 -0.0153012
0.273056 0.0503206 -0.0188141
0.278113 0.0502002 -0.023536
0.28377 0.0504917 -0.0288429
0.289131 0.0503478 -0.0340412
0.294225 0.0504093 -0.0383205
0.299115 0.0508245 -0.0424981
0.305346 0.0506221 -0.0483656
0.310068 0.0512504 -0.0516307
0.3151 0.0511385 -0.055275
0.320118 0.0510821 -0.0580144
0.325499 0.0511109 -0.0620689
0.33116 0.0511416 -0.0650058
0.335824 0.051386 -0.0689669
0.341364 0.0515303 -0.0714855
0.346338 0.0511496 -0.0753393
0.351715 0.052058 -0.0795949
0.357186 0.0512926 -0.0841959
0.362373 0.0516531 -0.0875766
0.367924 0.0521306 -0.0923502
0.374081 0.0522613 -0.0982697
0.379535 0.0522507 -0.103957
0.385739 0.0521954 -0.112302
0.391606 0.0530484 -0.118624
0.398523 0.0530393 -0.127977
0.404716 0.0527429 -0.137029
0.41114 0.0534515 -0.146238
0.420182 0.0543773 -0.166263
-0.343357 0.0542861 -0.000599861
-0.33347 0.0532933 0.02792
-0.326007 0.0528887 0.0458046
-0.31924 0.0528658 0.0605005
-0.312055 0.0521265 0.0749847
-0.306548 0.0519058 0.0844338
-0.301281 0.0513911 0.0916439
-0.296185 0.0515396 0.0979745
-0.291015 0.051725 0.102079
-0.285712 0.0509877 0.108089
-0.2811 0.0510352 0.110997
-0.27635 0.0507873 0.115382
-0.271851 0.0509442 0.117763
-0.267021 0.0509392 0.120735
-0.262564 0.0510763 0.122308
-0.257719 0.0507891 0.125424
-0.253649 0.0505137 0.127215
-0.248714 0.0507113 0.129052
-0.244212 0.0504866 0.131614
-0.239938 0.050469 0.133551
-0.235311 0.0500888 0.136614
-0.23099 0.0502366 0.138107
-0.226132 0.0504915 0.139607
-0.222279 0.0500588 0.140647
-0.217966 0.0503489 0.141951
-0.213388 0.0501691 0.144037
-0.209292 0.0506009 0.144071
-0.204973 0.049994 0.146101
-0.20046 0.0502673 0.146601
-0.196504 0.0502093 0.146627
-0.19207 0.0500575 0.149047
-0.18792 0.0502933 0.14883
-0.183566 0.0495429 0.149725
-0.179649 0.0504537 0.149512
-0.175439 0.0499794 0.149235
-0.171522 0.050065 0.150563
-0.166807 0.0500659 0.151855
-0.16271 0.0505737 0.150498
-0.158379 0.0498309 0.152131
-0.154075 0.0500253 0.151778
-0.149723 0.0500171 0.152066
-0.145866 0.0497113 0.152869
-0.141192 0.0502358 0.151652
-0.137658 0.0503193 0.151305
-0.133261 0.0501626 0.152435
-0.129414 0.0497195 0.150565
-0.125003 0.0501082 0.150741
-0.120946 0.0500793 0.149441
-0.116969 0.0499292 0.149475
-0.112463 0.0499662 0.148373
-0.108788 0.0499578 0.14737
-0.104653 0.0501777 0.145002
-0.10042 0.0501184 0.145652
-0.0961681 0.0503249 0.144165
-0.0924335 0.0497464 0.14372
-0.0881938 0.0504126 0.142157
-0.0843638 0.0500557 0.139642
-0.0793792 0.0502885 0.138036
-0.0754065 0.0505821 0.134754
-0.0715465 0.0507849 0.132841
-0.0671921 0.050657 0.130178
-0.0633794 0.0508228 0.12713
-0.0591612 0.0508847 0.124058
-0.0552222 0.0509718 0.121814
-0.0511245 0.050921 0.119943
-0.0467355 0.0507385 0.117952
-0.042804 0.0507286 0.116235
-0.0381357 0.05079 0.114375
-0.0338068 0.0512443 0.112609
-0.0301278 0.0509761 0.110598
-0.0257488 0.0512259 0.10927
-0.0213408 0.0514028 0.107271
-0.0170795 0.0512246 0.106233
-0.0127083 0.0513329 0.103593
-0.00835313 0.0513243 0.1028
-0.00409123 0.0516597 0.0996808
9.75228e-06 0.0515433 0.0974865
0.00470624 0.0518277 0.0948348
0.00849154 0.0520573 0.0933046
0.0123915 0.0518605 0.0916994
0.0168084 0.0518764 0.0893947
0.0215696 0.0520239 0.0864993
0.0261003 0.052179 0.0828561
0.0300769 0.0523997 0.0808901
0.0345963 0.0521383 0.07763
0.0388597 0.0521371 0.0750028
0.0434738 0.0519684 0.0727134
0.0478538 0.0523845 0.0692747
0.0524809 0.0523272 0.0668508
0.0571298 0.0525261 0.064218
0.0610685 0.0520508 0.0631489
0.0657176 0.0527112 0.0612527
0.0698842 0.0525213 0.0595878
0.0740881 0.0520873 0.0583723
0.0786141 0.0523967 0.0556694
0.0831265 0.052797 0.0524952
0.0878943 0.0528652 0.0505055
0.0926672 0.0524481 0.0500168
0.0970106 0.0528838 0.0476369
0.100828 0.0530831 0.0455967
0.10591 0.0529285 0.0431018
0.110052 0.0535843 0.0401818
0.115322 0.0532488 0.0389807
0.118932 0.0529205 0.0386701
0.123609 0.0531446 0.0364901
0.128386 0.0530023 0.0351274
0.132866 0.0528913 0.0337925
0.1375 0.0532537 0.033168
0.14209 0.053472 0.0316578
0.146284 0.0532186 0.0313791
0.151013 0.0535383 0.0311692
0.154841 0.0531129 0.0300002
0.160097 0.0535649 0.0293549
0.164345 0.0531235 0.0290376
0.168696 0.0531758 0.0289464
0.173474 0.0532574 0.0287607
0.177994 0.0535302 0.0269359
0.18245 0.0537888 0.0261045
0.18664 0.0537816 0.0243009
0.191501 0.0536053 0.023672
0.196248 0.0533121 0.0227938
0.201088 0.05377 0.0216957
0.20542 0.053928 0.0184621
0.21046 0.0537479 0.0167831
0.214725 0.0536904 0.0158869
0.219721 0.0536617 0.0139899
0.224386 0.0533439 0.011645
0.22877 0.0536707 0.00983799
0.233233 0.0541815 0.00642335
0.239102 0.0543565 0.0031637
0.243647 0.0542692 0.000249505
0.248215 0.0541599 -0.00314879
0.253924 0.0542745 -0.00783706
0.258277 0.0542384 -0.010236
0.263559 0.0541316 -0.0147886
0.269199 0.0547521 -0.0205188
0.273818 0.0547927 -0.0244122
0.278945 0.0548167 -0.0287116
0.283829 0.0549957 -0.032635
0.289615 0.054872 -0.0377176
0.294814 0.0555753 -0.0423262
0.300229 0.0555136 -0.0461247
0.304974 0.0556068 -0.049778
0.310664 0.0554318 -0.0530589
0.31539 0.0555261 -0.0561645
0.320439 0.0560456 -0.0591216
0.325573 0.0560732 -0.0624306
0.330288 0.0558581 -0.0647204
0.335823 0.0560529 -0.0682461
0.341208 0.0560461 -0.0713308
0.346393 0.0564521 -0.0745916
0.35203 0.0560944 -0.0784533
0.357379 0.0562935 -0.0823648
0.362628 0.0568808 -0.0866444
0.367536 0.0570102 -0.0898566
0.372933 0.0565006 -0.0952845
0.379127 0.0570095 -0.101428
0.384815 0.0570255 -0.107947
0.391463 0.0576564 -0.116057
0.397738 0.0576167 -0.123951
0.403618 0.0578635 -0.131444
0.410169 0.057753 -0.141073
0.418015 0.0583856 -0.155497
-0.337024 0.0583395 0.00658643
-0.328579 0.0578662 0.0292428
-0.321485 0.0573163 0.046996
-0.313983 0.0566767 0.0633457
-0.308912 0.056683 0.0722799
-0.302453 0.0562673 0.0829364
-0.297009 0.0558785 0.0902572
-0.292042 0.056052 0.0953523
-0.286368 0.0551736 0.102557
-0.282098 0.0551488 0.106593
-0.277062 0.0556027 0.110224
-0.27256 0.0555547 0.112811
-0.267352 0.0551851 0.117122
-0.26262 0.0553354 0.119184
-0.258531 0.0546358 0.121822
-0.253819 0.0551157 0.12361
-0.249562 0.0548307 0.125096
-0.244775 0.0549819 0.127377
-0.240725 0.054797 0.129122
-0.235947 0.0546879 0.131685
-0.231351 0.0549341 0.133242
-0.22715 0.0551403 0.135005
-0.222577 0.0543374 0.137042
-0.218141 0.0543485 0.13871
-0.213808 0.0545388 0.140023
-0.209657 0.0542419 0.140826
-0.205231 0.0543849 0.142174
-0.201253 0.0548643 0.143594
-0.196746 0.0542426 0.144396
-0.192553 0.0543747 0.144758
-0.188105 0.054092 0.145178
-0.183807 0.0548206 0.146006
-0.179387 0.0539593 0.148198
-0.175303 0.0546478 0.14743
-0.171257 0.054404 0.148201
-0.167114 0.0540896 0.148663
-0.162809 0.0540371 0.149251
-0.158685 0.0545312 0.149488
-0.154369 0.0541411 0.150213
-0.149988 0.054148 0.149963
-0.146223 0.0544583 0.149881
-0.141555 0.0544763 0.150193
-0.137395 0.0537847 0.150529
-0.133712 0.0543792 0.148874
-0.129557 0.0543427 0.148507
-0.125337 0.0541773 0.147977
-0.121422 0.0545099 0.146365
-0.117211 0.054343 0.145854
-0.113137 0.054331 0.145555
-0.108668 0.0547408 0.144245
-0.104404 0.0545673 0.14149
-0.10047 0.0543765 0.142106
-0.0964546 0.0544484 0.140441
-0.0925245 0.0546363 0.138337
-0.0882224 0.0546101 0.137719
-0.0842926 0.0543162 0.136155
-0.0800257 0.0550461 0.132636
-0.0759792 0.0546977 0.131075
-0.0717085 0.0550096 0.127695
-0.0680598 0.0549683 0.125625
-0.0634105 0.0553171 0.122355
-0.0592926 0.0551855 0.120098
-0.0552438 0.0550812 0.11857
-0.0509104 0.0553391 0.116297
-0.046714 0.0555089 0.1135
-0.0422622 0.055301 0.112393
-0.0383422 0.0552162 0.110437
-0.0343029 0.0551787 0.109768
-0.0296489 0.0558365 0.107308
-0.0257165 0.0557228 0.106326
-0.0211143 0.0559205 0.104338
-0.0172469 0.0557648 0.103585
-0.0128374 0.055921 0.100836
-0.00874883 0.0560487 0.0985931
-0.00426125 0.0559738 0.0960898
1.24984e-05 0.0560961 0.0937475
0.00446191 0.0559492 0.0912219
0.00871611 0.0558973 0.0894185
0.0126861 0.0556572 0.0879563
0.0171426 0.0563591 0.0838069
0.0217064 0.0557551 0.0808598
0.0254103 0.0564469 0.0780246
0.0306244 0.0566643 0.0735648
0.0345863 0.0564684 0.0725286
0.0394307 0.05655 0.0680859
0.0434184 0.0567874 0.0673884
0.0477366 0.0570681 0.063852
0.052585 0.0568799 0.0624559
0.0570839 0.0572939 0.0600995
0.0610059 0.0567089 0.0590211
0.0654671 0.057031 0.0566393
0.0700075 0.0572173 0.0544654
0.0743413 0.0570506 0.0526489
0.0790992 0.0570786 0.0507503
0.0834069 0.057355 0.0481133
0.0878045 0.0573185 0.0453647
0.0926176 0.0573983 0.0426995
0.0970501 0.057593 0.0415233
0.102277 0.0579038 0.0381577
0.106216 0.0572698 0.037935
0.110396 0.0577458 0.0359348
0.115416 0.0577176 0.0331088
0.119964 0.0578627 0.0321511
0.124164 0.0577704 0.0317957
0.128692 0.0577361 0.0308596
0.132967 0.0572863 0.0295384
0.137685 0.0576131 0.0297211
0.142073 0.058145 0.0286008
0.146453 0.0578402 0.0282573
0.151269 0.0576541 0.027773
0.155897 0.0577634 0.0272907
0.160479 0.0579399 0.0272229
0.164903 0.0587903 0.0252723
0.169251 0.0576812 0.0250881
0.173781 0.0579752 0.0246655
0.178224 0.0580294 0.0248153
0.182576 0.0578993 0.024292
0.187143 0.0580302 0.0239059
0.19182 0.0578434 0.0219085
0.19649 0.0580239 0.0197643
0.201071 0.0584381 0.0178208
0.205801 0.0576915 0.0175349
0.209867 0.05787 0.0155861
0.215288 0.0581985 0.0124571
0.220038 0.0583919 0.0111481
0.224426 0.0582359 0.00838315
0.229146 0.0582966 0.00617468
0.233923 0.0583683 0.0023315
0.23956 0.0584318 -0.000374317
0.24398 0.0590387 -0.00464201
0.248828 0.058932 -0.00702
0.253858 0.0586758 -0.0119939
0.259458 0.0590176 -0.015492
0.264729 0.0594331 -0.0209455
0.269381 0.0594408 -0.0248668
0.274335 0.0593505 -0.0287945
0.279019 0.0596984 -0.0325449
0.284306 0.0599936 -0.0363047
0.289782 0.0597381 -0.0404043
0.295211 0.0598476 -0.0448768
0.300363 0.0602814 -0.0483375
0.305297 0.0597214 -0.0508907
0.310536 0.0603303 -0.0546329
0.31599 0.0604607 -0.0572619
0.32059 0.0604889 -0.0593333
0.326077 0.0602111 -0.0624304
0.330408 0.0600955 -0.0643964
0.335844 0.0604955 -0.0668797
0.341238 0.061002 -0.070677
0.345942 0.0608599 -0.0728374
0.351274 0.0606335 -0.0767045
0.355947 0.0609557 -0.0791917
0.36185 0.0611663 -0.084137
0.367504 0.0610788 -0.0891767
0.373016 0.0615045 -0.0932205
0.378986 0.0612806 -0.0998526
0.384721 0.0618627 -0.104821
0.390852 0.0621057 -0.113177
0.397048 0.0623164 -0.120542
0.403195 0.062304 -0.128973
0.409356 0.0626669 -0.136674
0.416625 0.0632852 -0.146189
0.426754 0.0643623 -0.175819
-0.333532 0.063264 0.00300109
-0.324409 0.0621877 0.0291134
-0.316789 0.0617421 0.0475417
-0.310425 0.0608264 0.0619743
-0.30414 0.0606739 0.0722016
-0.299267 0.0608197 0.0796281
-0.293286 0.0604552 0.0873961
-0.288351 0.0598472 0.0933473
-0.283125 0.0602145 0.0973989
-0.277843 0.0599258 0.10375
-0.273502 0.0601207 0.10737
-0.268378 0.0596406 0.1108
-0.263759 0.0597647 0.11343
-0.25896 0.0594235 0.117023
-0.254478 0.0592412 0.119484
-0.249643 0.0588522 0.122817
-0.245421 0.0591789 0.123945
-0.241328 0.0588111 0.125232
-0.236622 0.0591598 0.126977
-0.23164 0.0590622 0.130098
-0.227518 0.0590664 0.131401
-0.223137 0.0587625 0.133513
-0.21887 0.0588497 0.134458
-0.214309 0.0589817 0.136898
-0.210131 0.0586744 0.137997
-0.205686 0.058648 0.13903
-0.201243 0.0587961 0.139462
-0.197071 0.0587955 0.13977
-0.192568 0.0587149 0.140285
-0.188597 0.0582754 0.142936
-0.184134 0.0588607 0.142301
-0.180067 0.0583212 0.143931
-0.175918 0.0582685 0.143439
-0.171829 0.0582569 0.145639
-0.167295 0.0587355 0.145173
-0.163037 0.0583295 0.144835
-0.158817 0.0585108 0.146001
-0.154862 0.0588828 0.14678
-0.150362 0.0585229 0.146708
-0.146012 0.0586937 0.14854
-0.142034 0.0585472 0.147319
-0.138362 0.0585139 0.146357
-0.133878 0.05857 0.146876
-0.129744 0.058501 0.146626
-0.125195 0.0587154 0.144011
-0.121285 0.0585956 0.143831
-0.117284 0.058923 0.143431
-0.113411 0.0585016 0.142208
-0.109166 0.0590533 0.140547
-0.104938 0.0587251 0.140195
-0.100655 0.0589276 0.136649
-0.0971129 0.05894 0.136953
-0.092608 0.0586878 0.134876
-0.0882301 0.059335 0.13251
-0.0844127 0.0593712 0.130145
-0.0801789 0.0590301 0.129024
-0.0757122 0.0588023 0.125932
-0.0716366 0.0595736 0.124129
-0.0679067 0.0593914 0.121325
-0.0639404 0.0590311 0.119112
-0.0593141 0.0592302 0.117104
-0.0554147 0.0594986 0.113859
-0.0512095 0.05969 0.111844
-0.0470267 0.0596486 0.110126
-0.0425077 0.0596027 0.108967
-0.0383977 0.0602038 0.107367
-0.0338362 0.0599235 0.106592
-0.0298226 0.0597896 0.104298
-0.0255564 0.0602352 0.103397
-0.0214433 0.0600126 0.101019
-0.0173237 0.0598404 0.100074
-0.012554 0.0603093 0.0969975
-0.0084183 0.0601143 0.0951178
-0.00426918 0.0599312 0.0917319
-0.000127052 0.0604834 0.0899812
0.00464093 0.0602802 0.0871174
0.00865104 0.0603769 0.0847131
0.0127576 0.0608238 0.0817662
0.017515 0.0609476 0.078232
0.0216943 0.0606254 0.0748669
0.026171 0.0610767 0.0705544
0.0308092 0.0611147 0.0678917
0.0348283 0.0610478 0.065328
0.0390193 0.0611674 0.0636586
0.0433764 0.0613461 0.0609635
0.0479643 0.0618428 0.0584182
0.0522793 0.0614362 0.0574148
0.0569742 0.0612469 0.0557863
0.061548 0.0617188 0.0533437
0.0656293 0.0615898 0.051882
0.0705914 0.0615502 0.0491855
0.0752037 0.0615271 0.0465519
0.0795771 0.0619427 0.0433837
0.0838135 0.0619506 0.041924
0.0886307 0.0620063 0.0399038
0.0928229 0.0620226 0.0372578
0.0970137 0.0620284 0.0352019
0.101994 0.0622751 0.0328835
0.106549 0.0615008 0.0327839
0.110936 0.0622057 0.0300469
0.115118 0.0622766 0.0290734
0.120049 0.0619901 0.0272969
0.12458 0.0620585 0.026788
0.129058 0.0624265 0.0259005
0.133848 0.0624157 0.0261441
0.137872 0.0620401 0.0259291
0.142378 0.0620064 0.0259011
0.146886 0.0623753 0.0250087
0.151487 0.0618392 0.0253183
0.155608 0.0623104 0.0251406
0.160503 0.0624156 0.0246141
0.165 0.0623041 0.0237948
0.169207 0.0622267 0.0237938
0.173653 0.062602 0.0222439
0.178586 0.0626224 0.0217571
0.182918 0.062638 0.0210925
0.187625 0.0625432 0.0195532
0.192146 0.0625095 0.019184
0.196766 0.0625492 0.0174993
0.201514 0.0625676 0.0154291
0.206069 0.0624452 0.0138377
0.210655 0.0629541 0.0116737
0.215602 0.0629861 0.00989878
0.2204 0.0632226 0.00657964
0.224957 0.06279 0.00510192
0.229693 0.0633218 0.00104022
0.234335 0.063063 -0.000493288
0.239443 0.0635465 -0.00495911
0.244913 0.0635068 -0.00845051
0.250085 0.0637371 -0.0126622
0.254675 0.0638729 -0.0165687
0.259926 0.0640892 -0.0219243
0.264961 0.064048 -0.024339
0.270343 0.0639113 -0.0290451
0.275169 0.0644856 -0.0338004
0.280221 0.0643352 -0.0364475
0.285305 0.0643791 -0.0409718
0.289981 0.064699 -0.0424743
0.295832 0.0647382 -0.0468705
0.300624 0.0646899 -0.0510097
0.30478 0.0645103 -0.0519221
0.310775 0.0652901 -0.0548019
0.315042 0.0648221 -0.0570588
0.320679 0.0649871 -0.0594513
0.325413 0.064753 -0.0613775
0.330378 0.0649059 -0.063833
0.335717 0.0655075 -0.0667927
0.340361 0.0651153 -0.06901
0.346444 0.0653773 -0.0726006
0.351316 0.0656169 -0.0748782
0.356376 0.0658937 -0.079181
0.361733 0.0659463 -0.0820079
0.36738 0.065658 -0.0865371
0.372831 0.0658741 -0.0921135
0.377972 0.0660616 -0.0967362
0.384807 0.0662437 -0.104241
0.390316 0.0663693 -0.110357
0.396205 0.0672158 -0.11783
0.402717 0.0672827 -0.125488
0.408825 0.0673291 -0.132519
0.415311 0.0676364 -0.140391
0.422443 0.0679995 -0.155503
-0.32781 0.0670614 0.0084548
-0.319624 0.0662577 0.0310891
-0.313152 0.0662933 0.0453459
-0.306244 0.0654036 0.0595006
-0.300677 0.0655617 0.0689898
-0.294485 0.0650618 0.0782684
-0.289328 0.0648825 0.0851809
-0.283797 0.0646366 0.0913653
-0.279199 0.0645247 0.0959203
-0.274145 0.0641477 0.101484
-0.268981 0.0641726 0.105153
-0.264549 0.0640743 0.108466
-0.259841 0.0637137 0.111643
-0.254962 0.0637647 0.114282
-0.250577 0.0639723 0.115781
-0.246264 0.0636669 0.118681
-0.241996 0.0633471 0.120655
-0.236784 0.0633134 0.124177
-0.232317 0.0635132 0.126033
-0.22793 0.0630237 0.128098
-0.223756 0.0633122 0.128588
-0.219236 0.0634271 0.130541
-0.214905 0.0634763 0.131552
-0.210848 0.0632444 0.132394
-0.20639 0.0630846 0.134415
-0.201898 0.0631118 0.135326
-0.197433 0.0629864 0.136786
-0.193181 0.0630194 0.136948
-0.189009 0.063253 0.137359
-0.185007 0.0629107 0.139663
-0.180673 0.0633324 0.139951
-0.175993 0.0628526 0.141334
-0.172009 0.0629474 0.141472
-0.167622 0.0629015 0.142391
-0.163527 0.0624521 0.143901
-0.159439 0.0629239 0.143272
-0.155136 0.0627199 0.144782
-0.150763 0.0630745 0.144272
-0.146277 0.062987 0.143243
-0.142181 0.0628514 0.143981
-0.138236 0.0626303 0.144435
-0.133829 0.0625592 0.143617
-0.129828 0.0625812 0.142464
-0.125829 0.0629381 0.142552
-0.121624 0.0629293 0.140614
-0.117448 0.0628 0.140564
-0.113282 0.0629113 0.139888
-0.109354 0.0635132 0.136905
-0.104921 0.0630338 0.135938
-0.100839 0.0629538 0.13441
-0.0966412 0.0632951 0.133106
-0.0927443 0.0636638 0.129688
-0.0882578 0.0634308 0.127865
-0.0843622 0.0634299 0.125774
-0.0804107 0.0633929 0.124059
-0.0763493 0.0637744 0.120984
-0.0719085 0.0636335 0.117784
-0.0680031 0.0636713 0.116625
-0.0639987 0.0642033 0.113845
-0.0595661 0.0641238 0.111785
-0.0555385 0.0638063 0.109541
-0.0514216 0.0637702 0.108919
-0.0467499 0.0639201 0.107104
-0.0430334 0.0643061 0.104966
-0.0385135 0.0643808 0.103256
-0.0342414 0.0639755 0.103026
-0.0299909 0.0644838 0.101211
-0.0261512 0.0644702 0.0989281
-0.0215801 0.0646113 0.0967327
-0.0173051 0.0643729 0.0956863
-0.0133115 0.0643606 0.0930171
-0.00877552 0.0643297 0.0905671
-0.00423682 0.0649051 0.0865198
9.82342e-06 0.0650011 0.0836095
0.00423785 0.0648171 0.0811989
0.00828781 0.0649245 0.0782498
0.0128884 0.0649904 0.0741386
0.0171958 0.0652192 0.0715135
0.0218285 0.0649965 0.0677994
0.0259474 0.0656044 0.0647194
0.0309632 0.0659092 0.0618845
0.0348637 0.0656848 0.0598243
0.0394899 0.0658416 0.0575519
0.0441538 0.0659045 0.0558748
0.0484396 0.0659292 0.0539411
0.0530707 0.0657345 0.0525753
0.0573023 0.0663248 0.0493677
0.0609867 0.0658611 0.0488584
0.065908 0.0661336 0.0453986
0.0703166 0.0659793 0.0433549
0.0752934 0.066731 0.0397658
0.0798206 0.0663599 0.0375751
0.0845797 0.0665195 0.0352038
0.0889983 0.0665664 0.0324119
0.0936305 0.0665765 0.031046
0.0978956 0.066745 0.0287716
0.102342 0.0663762 0.0274475
0.106718 0.0665027 0.0253901
0.111083 0.0668968 0.0244911
0.115774 0.0667219 0.0232606
0.120602 0.0666152 0.0217481
0.124566 0.0664269 0.0228379
0.129884 0.0671961 0.0215377
0.133365 0.0661916 0.0225515
0.13837 0.0666915 0.0216186
0.142879 0.0670448 0.0212975
0.146946 0.066606 0.022063
0.151377 0.0669996 0.0224705
0.156249 0.0667626 0.0223074
0.160582 0.0669051 0.0212228
0.165756 0.0672487 0.0209272
0.169651 0.0665405 0.0210311
0.174319 0.0669912 0.0200512
0.178752 0.0666789 0.0193996
0.182956 0.0668075 0.0184138
0.188155 0.0674254 0.0162269
0.19273 0.0668388 0.0155141
0.197417 0.0670441 0.0142757
0.201554 0.0674884 0.0118002
0.206416 0.0673146 0.0100865
0.211141 0.0673864 0.00830865
0.215792 0.0672419 0.00674379
0.220573 0.0675648 0.00400686
0.225749 0.0677935 0.00133145
0.230444 0.0681679 -0.00233865
0.235543 0.0679253 -0.00689173
0.240358 0.0680075 -0.00975847
0.244932 0.0678815 -0.0125151
0.250391 0.0680651 -0.0175893
0.255541 0.0682008 -0.0216818
0.260665 0.0689002 -0.0270076
0.265999 0.0691109 -0.0301652
0.270494 0.0687266 -0.0330446
0.275406 0.0688832 -0.0353005
0.280396 0.0685321 -0.0394955
0.28563 0.0690062 -0.0423007
0.291072 0.069002 -0.0454311
0.296119 0.0691219 -0.0485086
0.300396 0.0689886 -0.0488808
0.305403 0.0688997 -0.0526266
0.31047 0.0690357 -0.0544825
0.315593 0.0695533 -0.0567153
0.320313 0.0695505 -0.0586214
0.325594 0.0693117 -0.0611379
0.330052 0.069894 -0.0628774
0.335274 0.0695116 -0.0656173
0.340617 0.0698533 -0.0683858
0.345734 0.0701769 -0.0709145
0.350808 0.0702748 -0.0742846
0.356239 0.0701062 -0.0788925
0.361435 0.0705087 -0.0815639
0.366806 0.070619 -0.0858254
0.371893 0.0708712 -0.089381
0.37819 0.0711506 -0.0954163
0.383897 0.071337 -0.102392
0.389657 0.0715432 -0.107194
0.39585 0.0714147 -0.114993
0.4024 0.0720556 -0.122659
0.407969 0.0719932 -0.128353
0.414294 0.0723919 -0.136722
0.421086 0.0729443 -0.147519
-0.324182 0.0719244 0.00409758
-0.315618 0.0710952 0.0286664
-0.30889 0.0709018 0.0437208
-0.302592 0.0703037 0.0561054
-0.296188 0.0698537 0.0675111
-0.290814 0.0697242 0.074972
-0.285526 0.0692778 0.0820385
-0.280414 0.0686092 0.0876422
-0.275183 0.0689932 0.0935361
-0.270565 0.0686537 0.0973958
-0.26528 0.0684515 0.102515
-0.260624 0.0683087 0.105167
-0.256153 0.0684163 0.10795
-0.251594 0.0680589 0.111251
-0.246732 0.0683289 0.112978
-0.242129 0.0682356 0.116109
-0.237025 0.0679275 0.119558
-0.232711 0.0677284 0.121635
-0.228638 0.0678262 0.122368
-0.224222 0.0676947 0.124324
-0.219768 0.0677647 0.125932
-0.215202 0.0669764 0.128801
-0.210969 0.0675049 0.12867
-0.206536 0.0672349 0.13039
-0.202231 0.0675501 0.131696
-0.198308 0.067715 0.132294
-0.193538 0.0672581 0.13381
-0.189555 0.0673186 0.13376
-0.185477 0.067027 0.134704
-0.181145 0.0676573 0.135547
-0.176301 0.0670685 0.137148
-0.172335 0.0670275 0.137947
-0.168031 0.0674393 0.138259
-0.163604 0.0670154 0.140069
-0.159487 0.0671075 0.140596
-0.15535 0.0670153 0.13998
-0.151165 0.0671783 0.140017
-0.146791 0.0672894 0.139469
-0.143119 0.0676352 0.139702
-0.138668 0.0673999 0.138867
-0.133817 0.0673525 0.139802
-0.130155 0.067462 0.139132
-0.126012 0.0670291 0.139338
-0.121909 0.0670195 0.137515
-0.117802 0.067012 0.136482
-0.113847 0.0670275 0.135915
-0.109457 0.0672574 0.134051
-0.105369 0.0673482 0.1327
-0.101149 0.0670563 0.130497
-0.0972217 0.0677253 0.128466
-0.0930817 0.0677869 0.126703
-0.0888701 0.0679241 0.124226
-0.0847588 0.0678758 0.120939
-0.0807029 0.0678955 0.118991
-0.0763142 0.0671642 0.116975
-0.0724321 0.0681341 0.114293
-0.0679152 0.0682163 0.110665
-0.0642423 0.0682268 0.11025
-0.059763 0.068477 0.107408
-0.0553487 0.0686048 0.10607
-0.0510133 0.0681003 0.105388
-0.0470157 0.0684047 0.102924
-0.0426534 0.0683008 0.102015
-0.0387147 0.068491 0.101861
-0.0346225 0.068543 0.0990618
-0.0298054 0.0686602 0.0978509
-0.0255857 0.0686721 0.0949026
-0.0213481 0.0687732 0.0929991
-0.0172831 0.0689412 0.0911489
-0.0129136 0.0687013 0.088922
-0.00888132 0.0692997 0.08562
-0.00427549 0.0694308 0.082063
0.000123259 0.0693678 0.0781182
0.00442259 0.0696953 0.0737587
0.0087732 0.0699785 0.0697424
0.0130402 0.0695972 0.0668159
0.0179256 0.0699463 0.0629293
0.0219269 0.0700697 0.0597827
0.0263248 0.0699815 0.0582101
0.0302286 0.0701451 0.0566217
0.0348345 0.0703898 0.054508
0.0394109 0.0700455 0.0525051
0.0437923 0.0704417 0.0502411
0.0483998 0.0703183 0.0492914
0.0530467 0.0701881 0.0462427
0.0574661 0.0707156 0.0427494
0.0619689 0.071062 0.0406429
0.0660924 0.0705239 0.0389309
0.0707827 0.0707802 0.0361481
0.0756087 0.0713262 0.0313635
0.0798803 0.0710117 0.0299518
0.0844043 0.0710376 0.028648
0.0889753 0.071482 0.026032
0.0936925 0.0715316 0.0239656
0.0981397 0.0713757 0.0224757
0.102857 0.071741 0.0206978
0.107456 0.0713667 0.0200964
0.111814 0.0715521 0.0184144
0.116212 0.0712667 0.0191777
0.120655 0.0717883 0.0181735
0.125546 0.0716328 0.0178925
0.129492 0.0713958 0.0170736
0.13406 0.0718872 0.0175421
0.138214 0.0716191 0.0185411
0.142874 0.0718421 0.0178158
0.147498 0.0712285 0.0184599
0.152276 0.0713871 0.0188681
0.156572 0.0716905 0.0192883
0.160789 0.0714506 0.0191051
0.16522 0.0714487 0.0192044
0.16984 0.0716517 0.0177026
0.174497 0.0712152 0.0172962
0.179215 0.0715865 0.0166297
0.183471 0.0718563 0.0155903
0.187684 0.0715255 0.0140829
0.193011 0.0718227 0.0129346
0.197436 0.0720906 0.0105793
0.201864 0.0716522 0.0100366
0.206798 0.0719825 0.0066638
0.211306 0.0721571 0.00493944
0.216403 0.0722763 0.0015769
0.22126 0.0721987 0.000366926
0.22629 0.0723579 -0.00390363
0.230586 0.0724514 -0.00676417
0.236598 0.072712 -0.0117617
0.24101 0.0725744 -0.014894
0.245642 0.0725505 -0.0187874
0.250884 0.0730917 -0.0226083
0.255516 0.0731332 -0.0272217
0.260295 0.0729306 -0.0290344
0.266069 0.0733742 -0.0340691
0.270611 0.0729383 -0.0361712
0.276456 0.0732512 -0.040132
0.280322 0.0737986 -0.0419884
0.286474 0.0735093 -0.0442655
0.291013 0.0739374 -0.0476124
0.296285 0.0738257 -0.0486228
0.301041 0.0737269 -0.0505002
0.305704 0.0740008 -0.0529194
0.310144 0.0737262 -0.0533557
0.315397 0.074259 -0.0578902
0.320065 0.0742121 -0.0599263
0.325413 0.0742188 -0.0605462
0.330526 0.0743808 -0.0629776
0.335857 0.0746799 -0.0664539
0.340491 0.0744875 -0.0675905
0.3451 0.0745091 -0.0707798
0.350435 0.0748453 -0.073158
0.356129 0.0749164 -0.0763886
0.361247 0.0750962 -0.0807765
0.366746 0.0749943 -0.084188
0.372378 0.0756763 -0.0892308
0.37775 0.0754918 -0.0939372
0.383572 0.0759925 -0.0996444
0.38944 0.0759042 -0.10605
0.395564 0.0764391 -0.112813
0.40164 0.0768341 -0.119842
0.407485 0.0766848 -0.125903
0.413661 0.0765245 -0.133742
0.420929 0.0772938 -0.144286
-0.319801 0.076733 0.00151718
-0.311928 0.0758794 0.0247923
-0.304472 0.0749053 0.0431415
-0.298757 0.0749859 0.0535004
-0.292649 0.0741121 0.0641831
-0.28723 0.0737028 0.0724361
-0.281382 0.0733445 0.0794957
-0.276563 0.0737051 0.0842266
-0.27154 0.0735096 0.0891609
-0.266235 0.0731235 0.095248
-0.261481 0.0726668 0.0993893
-0.256646 0.0725963 0.102907
-0.251985 0.0725183 0.105771
-0.246996 0.072187 0.109222
-0.242879 0.0724425 0.110733
-0.238421 0.0721386 0.11354
-0.2333 0.0721123 0.115597
-0.228988 0.0725419 0.117593
-0.225083 0.0720626 0.119606
-0.220436 0.0719383 0.121501
-0.216328 0.0718536 0.122216
-0.211444 0.0717823 0.125411
-0.207364 0.0719455 0.125904
-0.202595 0.071714 0.127269
-0.198367 0.0717113 0.12935
-0.194067 0.0716509 0.129699
-0.190025 0.071625 0.130032
-0.185443 0.071486 0.131672
-0.181203 0.0718503 0.131726
-0.176753 0.0715173 0.133187
-0.172396 0.0714721 0.134261
-0.16825 0.0715193 0.134677
-0.163614 0.0712623 0.136078
-0.159694 0.071235 0.136583
-0.155617 0.0713895 0.137274
-0.151831 0.0712754 0.136573
-0.146997 0.0716037 0.136815
-0.142752 0.0714336 0.136559
-0.138752 0.0712281 0.136218
-0.134512 0.0716129 0.13521
-0.130111 0.0711297 0.135931
-0.126388 0.0713012 0.135711
-0.122501 0.0712751 0.134527
-0.117893 0.0712944 0.133305
-0.113981 0.0710823 0.131641
-0.109643 0.0719658 0.129204
-0.105496 0.071867 0.128936
-0.101719 0.0718758 0.126277
-0.0971358 0.0722544 0.124027
-0.0934835 0.0720955 0.121793
-0.0891829 0.0719609 0.118503
-0.0848257 0.071915 0.116858
-0.0809132 0.0722682 0.114272
-0.0767738 0.0727137 0.111745
-0.0724038 0.0726335 0.109109
-0.0682885 0.0723127 0.107915
-0.063784 0.0725785 0.105221
-0.0598469 0.0726578 0.103828
-0.0557019 0.0729259 0.102593
-0.051313 0.0727864 0.101316
-0.0474401 0.0731493 0.0994562
-0.0426699 0.073134 0.098434
-0.038466 0.0727515 0.0969775
-0.0343705 0.0729081 0.0957869
-0.0302172 0.0729087 0.0936921
-0.0261331 0.0734877 0.0909777
-0.0211704 0.0732961 0.0886976
-0.0174543 0.0732585 0.0864789
-0.0129469 0.0735584 0.0831585
-0.00861215 0.0737483 0.0798433
-0.00427949 0.073926 0.0756404
4.5994e-05 0.0745039 0.0708705
0.00412627 0.0744468 0.0670334
0.00839417 0.0739671 0.0638093
0.0129789 0.0744527 0.0605536
0.0172488 0.0745442 0.0564197
0.0222881 0.075146 0.0533261
0.0262578 0.0748833 0.0523583
0.0306712 0.0746161 0.0499303
0.0350469 0.0748178 0.0492423
0.0398916 0.074681 0.0459596
0.0439758 0.0747534 0.0446728
0.0485028 0.0749247 0.0426115
0.0534582 0.0753016 0.0397111
0.0579354 0.0752014 0.0367075
0.0618943 0.0756951 0.0339161
0.0660239 0.0752907 0.0320629
0.0711708 0.0754543 0.0282906
0.0759561 0.0759792 0.0248491
0.0803426 0.0756431 0.0235538
0.0852508 0.0762421 0.0209444
0.0892432 0.0757413 0.0195503
0.0940363 0.0763455 0.0172133
0.0989726 0.0762463 0.0158259
0.10268 0.0765082 0.0143572
0.107263 0.0761345 0.0144734
0.111917 0.0758783 0.0134279
0.116253 0.0761965 0.0133682
0.121042 0.0761089 0.0132375
0.125357 0.0761033 0.0133667
0.12964 0.0757352 0.0143992
0.134469 0.0762419 0.0141733
0.138886 0.0761926 0.0146117
0.14319 0.07604 0.0149626
0.147875 0.0764937 0.0156057
0.151888 0.0762354 0.0159818
0.156242 0.075762 0.0163119
0.16134 0.0760873 0.0153842
0.165229 0.075692 0.0164487
0.170143 0.0760687 0.0150295
0.174687 0.0761784 0.0138843
0.179105 0.0761737 0.0139565
0.183548 0.0759852 0.0127388
0.188288 0.0763208 0.0101829
0.193607 0.0768172 0.00891399
0.197758 0.0765638 0.00715554
0.202433 0.0768391 0.00457764
0.207202 0.0763838 0.00347853
0.212036 0.0768209 0.00113916
0.217052 0.0766419 -0.00162888
0.221362 0.0767838 -0.00374365
0.2267 0.0768396 -0.00808477
0.231619 0.0769732 -0.0121522
0.236433 0.0775913 -0.0159779
0.241683 0.0776846 -0.0207574
0.246778 0.0775006 -0.0243955
0.251583 0.0775991 -0.0281296
0.256355 0.077753 -0.0311763
0.261732 0.0780477 -0.0353005
0.266318 0.0784003 -0.0375347
0.271426 0.0783394 -0.0389962
0.276177 0.0786742 -0.0410819
0.280911 0.0780912 -0.0428104
0.286017 0.0783809 -0.0446715
0.291234 0.0787465 -0.0478897
0.295507 0.0785155 -0.049087
0.30095 0.0787396 -0.0508838
0.305672 0.0785623 -0.0528181
0.310212 0.0787367 -0.0547128
0.315117 0.0790163 -0.0567243
0.320144 0.078695 -0.0579965
0.325341 0.0791781 -0.0603735
0.330512 0.0789337 -0.062721
0.334675 0.0791612 -0.0632546
0.340392 0.0792622 -0.0665729
0.345693 0.0795535 -0.0698338
0.350728 0.0795888 -0.073086
0.355459 0.0797554 -0.0748663
0.361068 0.0800541 -0.0793302
0.366707 0.0801971 -0.0833523
0.372001 0.0802273 -0.0876367
0.377583 0.0804223 -0.0926452
0.383471 0.080309 -0.098851
0.389789 0.0805143 -0.105863
0.394976 0.0810651 -0.111705
0.401572 0.0808389 -0.118361
0.407204 0.0814006 -0.124215
0.413129 0.0817659 -0.130814
0.419636 0.0817839 -0.139844
-0.316021 0.0811656 -0.00219584
-0.30846 0.0805086 0.0198752
-0.300626 0.0796223 0.0387871
-0.29375 0.07876 0.0535069
-0.288416 0.0785311 0.0620757
-0.283281 0.0783295 0.0697255
-0.277866 0.0777764 0.0754105
-0.272575 0.0777291 0.0823576
-0.267729 0.0777836 0.0860674
-0.262725 0.0775332 0.0907562
-0.257586 0.0771566 0.096099
-0.252931 0.0770117 0.0991888
-0.247976 0.0769282 0.102261
-0.24419 0.0772659 0.103934
-0.23899 0.0768348 0.10778
-0.234485 0.077036 0.110338
-0.229631 0.0767149 0.11193
-0.225486 0.0765928 0.114991
-0.221197 0.0767159 0.115246
-0.216358 0.07639 0.117828
-0.211944 0.0764534 0.119438
-0.207617 0.0766438 0.121682
-0.203457 0.0763418 0.122199
-0.199043 0.0760146 0.123944
-0.194272 0.0759021 0.125264
-0.190364 0.0760825 0.125768
-0.186134 0.0765162 0.125948
-0.181487 0.0761253 0.127629
-0.177537 0.076219 0.128255
-0.172859 0.0757852 0.130194
-0.16799 0.0757007 0.131009
-0.164781 0.0764424 0.130426
-0.160003 0.0756772 0.13226
-0.155769 0.0759878 0.132286
-0.151383 0.075747 0.132827
-0.147352 0.0757927 0.132923
-0.143429 0.0757774 0.132752
-0.138593 0.0753961 0.132961
-0.134943 0.0757356 0.131982
-0.130483 0.0758993 0.13115
-0.126349 0.0760407 0.130538
-0.121719 0.0761133 0.129723
-0.118042 0.0757778 0.128686
-0.114152 0.0760373 0.126399
-0.109742 0.0760354 0.124467
-0.10595 0.0757965 0.124404
-0.101838 0.076556 0.120777
-0.0981349 0.0761798 0.119844
-0.0936792 0.0765482 0.11672
-0.0893184 0.0766025 0.114409
-0.0851425 0.0767386 0.111714
-0.0807253 0.0767129 0.109395
-0.0766414 0.0767278 0.107154
-0.0728092 0.0767082 0.105916
-0.0684867 0.0767313 0.103152
-0.0643103 0.0772283 0.101501
-0.0599424 0.0774503 0.0995411
-0.0554446 0.0771415 0.0989053
-0.050932 0.0772522 0.096982
-0.0474023 0.0771451 0.0966178
-0.0426987 0.0773045 0.0958452
-0.0386484 0.0775653 0.0934407
-0.0343319 0.0776414 0.0925828
-0.0301761 0.0777397 0.089013
-0.0259716 0.077545 0.0874561
-0.0218623 0.0779762 0.0845145
-0.0174957 0.0776767 0.0811826
-0.0130599 0.0782287 0.0777942
-0.00849533 0.0779978 0.0739989
-0.0039321 0.0784118 0.0686892
3.23106e-06 0.0787237 0.0639914
0.00408854 0.0787 0.0611018
0.00879337 0.0787355 0.0570482
0.0127857 0.0790531 0.0531729
0.0175497 0.0789852 0.050124
0.0221737 0.0794408 0.0483636
0.0261633 0.079633 0.046308
0.0307207 0.078863 0.045328
0.0351761 0.0794056 0.0431936
0.0397914 0.0792471 0.040516
0.0444437 0.0796704 0.0377351
0.0491261 0.0794263 0.0357608
0.0534208 0.0795523 0.0324879
0.0578301 0.0800036 0.028482
0.0624587 0.0804464 0.0246598
0.066897 0.0800514 0.0220214
0.0712612 0.0804923 0.0188699
0.0760034 0.0803636 0.0175413
0.0804279 0.0805589 0.0157692
0.0850678 0.0804796 0.0138979
0.0895154 0.0807818 0.0111516
0.0939777 0.080906 0.00991595
0.0987563 0.0809558 0.00862455
0.103197 0.081207 0.00754225
0.107946 0.0808236 0.00854862
0.112098 0.0805343 0.00770164
0.11691 0.0807968 0.00795209
0.121179 0.0809359 0.00849712
0.125604 0.0811887 0.00794971
0.130366 0.080552 0.010585
0.134673 0.0805035 0.00946677
0.138706 0.0803473 0.012156
0.143768 0.0809643 0.0103586
0.14775 0.080454 0.0127416
0.151995 0.0805971 0.0123839
0.156761 0.0807454 0.0128635
0.161354 0.0804907 0.0127764
0.166331 0.0807801 0.0119088
0.170483 0.0802603 0.0121295
0.175069 0.0805451 0.0105015
0.179705 0.0809441 0.0090369
0.184369 0.0807762 0.00792539
0.18888 0.0803367 0.0075295
0.193027 0.0809916 0.00527656
0.198403 0.0812501 0.00349975
0.20286 0.0810176 0.0016737
0.207465 0.0812038 0.000320673
0.212506 0.0812555 -0.00293398
0.217179 0.0817743 -0.00660706
0.221977 0.0817276 -0.00942254
0.227023 0.0816362 -0.013288
0.231952 0.0820967 -0.0176339
0.236762 0.082037 -0.0212538
0.242069 0.082039 -0.0259671
0.2469 0.0820451 -0.0290225
0.251964 0.0822372 -0.0324008
0.257094 0.08285 -0.0362124
0.262226 0.0825074 -0.0379071
0.266745 0.0827474 -0.0399837
0.271716 0.0823078 -0.041194
0.276368 0.0830504 -0.042861
0.280725 0.0832359 -0.0443912
0.285892 0.0832999 -0.0458307
0.291057 0.082801 -0.0476797
0.296167 0.083357 -0.0495088
0.301 0.0830511 -0.0512948
0.305037 0.083357 -0.0522032
0.310464 0.0833524 -0.0545256
0.315054 0.083264 -0.0563903
0.320006 0.0837174 -0.0578921
0.324726 0.0837474 -0.0593657
0.33024 0.0836632 -0.0624053
0.335367 0.0837765 -0.0638459
0.340628 0.0838645 -0.0677676
0.345532 0.0842024 -0.0692561
0.350568 0.0837813 -0.0729601
0.35568 0.0844937 -0.0755229
0.361027 0.084579 -0.0784578
0.366382 0.0846509 -0.0827003
0.372069 0.0846893 -0.0870442
0.377191 0.0850842 -0.0918212
0.383338 0.0853632 -0.0976727
0.388829 0.0854766 -0.104052
0.394008 0.0854595 -0.108582
0.40096 0.085822 -0.116275
0.406865 0.0859721 -0.122814
0.413036 0.0867841 -0.129116
0.419775 0.087088 -0.138906
-0.313301 0.0863259 -0.011903
-0.303848 0.0845083 0.0186896
-0.29709 0.0841036 0.0350046
-0.290984 0.0834744 0.0476764
-0.284769 0.0831911 0.0572987
-0.279206 0.0827606 0.0654725
-0.274056 0.0825145 0.0722123
-0.268345 0.0824973 0.0784106
-0.263737 0.0824867 0.0822991
-0.258857 0.0818028 0.087923
-0.25407 0.0818435 0.0918523
-0.249021 0.0816833 0.0962284
-0.244805 0.0816025 0.0982333
-0.240278 0.0821292 0.0999323
-0.234852 0.0815751 0.104013
-0.230652 0.0809123 0.107478
-0.226383 0.0810916 0.108469
-0.221715 0.0810475 0.110333
-0.216949 0.0807152 0.112846
-0.212935 0.0807386 0.114317
-0.208155 0.0806043 0.116819
-0.203652 0.0808699 0.117342
-0.199546 0.0805655 0.120109
-0.195334 0.0808951 0.120079
-0.190501 0.080779 0.120704
-0.186352 0.0803583 0.121961
-0.181874 0.080389 0.123871
-0.177604 0.0803577 0.124503
-0.173184 0.0802237 0.125826
-0.16888 0.0803366 0.12624
-0.164869 0.0802712 0.126776
-0.160807 0.0797906 0.127921
-0.15616 0.080312 0.127794
-0.152138 0.07993 0.129056
-0.147888 0.0799272 0.128217
-0.143617 0.0809088 0.126683
-0.1394 0.0802875 0.126292
-0.135244 0.0797691 0.128091
-0.130648 0.0802382 0.127417
-0.126961 0.08003 0.126871
