ply
format ascii 1.0
element vertex 1678
property float x
property float y
property float z
end_header
0.440912 0.303014 -0.0366302
0.445922 0.303242 -0.0381119
0.0411703 0.309383 -0.047678
0.0459929 0.307026 -0.0322149
0.0500441 0.306477 -0.0276484
0.0548189 0.305883 -0.0255041
0.0589454 0.305511 -0.022836
0.0638544 0.305565 -0.0235953
0.0688721 0.305811 -0.022845
0.0724586 0.305776 -0.0233989
0.0774993 0.30557 -0.0243864
0.082595 0.306132 -0.0262001
0.0867886 0.306219 -0.0272548
0.0915077 0.306763 -0.0297318
0.096272 0.306891 -0.0318115
0.101147 0.30721 -0.0343568
0.105789 0.30768 -0.037277
0.110092 0.308533 -0.0396948
0.114909 0.30896 -0.0448017
0.119989 0.309878 -0.0503001
0.125275 0.310597 -0.0565083
0.129766 0.311628 -0.0629361
0.135193 0.312658 -0.0701835
0.140826 0.314341 -0.0808084
0.146397 0.316172 -0.0930066
0.152867 0.319844 -0.114897
0.263345 0.332929 -0.203128
0.266302 0.329787 -0.182822
0.269182 0.328409 -0.173469
0.273288 0.326236 -0.162023
0.276509 0.325159 -0.15345
0.280753 0.324633 -0.146205
0.284789 0.323556 -0.138821
0.288632 0.322301 -0.133911
0.292955 0.321736 -0.128074
0.296655 0.320597 -0.123302
0.301178 0.320157 -0.119626
0.305763 0.319638 -0.114087
0.309252 0.319015 -0.111355
0.313576 0.318412 -0.107443
0.317875 0.318272 -0.103523
0.322095 0.316993 -0.0986357
0.3266 0.316974 -0.0963278
0.330191 0.316124 -0.0926538
0.334354 0.315714 -0.0893946
0.338727 0.315744 -0.0875626
0.342919 0.315215 -0.0842516
0.34719 0.315056 -0.0816832
0.35124 0.314227 -0.0780609
0.355896 0.314082 -0.0762579
0.359892 0.313361 -0.073863
0.364239 0.313184 -0.071259
0.368722 0.312458 -0.069524
0.37264 0.312601 -0.0662618
0.377401 0.311711 -0.0649748
0.381389 0.311488 -0.0620472
0.385629 0.311077 -0.0600164
0.389759 0.310922 -0.0572085
0.394032 0.310297 -0.0546393
0.398215 0.310023 -0.0529978
0.40211 0.310002 -0.0512092
0.406689 0.309716 -0.0489917
0.41109 0.308821 -0.0471478
0.41476 0.308686 -0.0440257
0.418926 0.308401 -0.0429802
0.423307 0.30808 -0.0398357
0.427113 0.308016 -0.0388768
0.431338 0.308008 -0.0356688
0.436197 0.307557 -0.0338943
0.440489 0.307104 -0.0330672
0.444679 0.307097 -0.0331006
0.449599 0.307542 -0.0339289
0.0412777 0.311144 -0.0284035
0.045801 0.310251 -0.0221608
0.0502305 0.309291 -0.0180669
0.0548474 0.308996 -0.0159283
0.0589029 0.308992 -0.0154581
0.0634978 0.308918 -0.015208
0.0680945 0.309278 -0.0169134
0.0726478 0.309099 -0.0165913
0.0773111 0.309642 -0.0186584
0.081872 0.309242 -0.0199707
0.0863727 0.310085 -0.0206678
0.0908365 0.310228 -0.023464
0.0956418 0.310503 -0.0269153
0.10062 0.310977 -0.0294981
0.105646 0.311765 -0.0322633
0.110188 0.312335 -0.0360606
0.114618 0.312863 -0.0394347
0.119862 0.313722 -0.0457044
0.124455 0.314606 -0.0518103
0.130111 0.316125 -0.0575919
0.134737 0.317098 -0.0650029
0.140291 0.318161 -0.0747957
0.145937 0.320684 -0.0898333
0.15194 0.323421 -0.109178
0.268233 0.337515 -0.201966
0.270585 0.334632 -0.182236
0.274075 0.333008 -0.169714
0.277563 0.331064 -0.158551
0.281374 0.329919 -0.149798
0.284601 0.328526 -0.143532
0.288884 0.327245 -0.135216
0.292951 0.326745 -0.130944
0.296995 0.325846 -0.125527
0.301196 0.325628 -0.120807
0.305368 0.324743 -0.116308
0.309346 0.323833 -0.111732
0.313462 0.323153 -0.107695
0.31794 0.322225 -0.102734
0.321951 0.321814 -0.0996587
0.326165 0.321612 -0.0963635
0.330515 0.320701 -0.0938148
0.333994 0.32018 -0.0895588
0.33876 0.319849 -0.0861585
0.342831 0.319347 -0.0826874
0.347029 0.31885 -0.0796523
0.35174 0.318541 -0.0772512
0.355489 0.318195 -0.0757182
0.359998 0.317718 -0.0720897
0.364328 0.317668 -0.0699835
0.368528 0.317029 -0.0672438
0.372608 0.316668 -0.0652549
0.376848 0.315887 -0.0628078
0.380859 0.315787 -0.0609901
0.385244 0.315521 -0.0584333
0.389559 0.315149 -0.0557754
0.393819 0.31467 -0.0540652
0.397649 0.315056 -0.0513959
0.402108 0.314174 -0.0485017
0.406212 0.313541 -0.0470519
0.410562 0.313316 -0.0447853
0.41487 0.313039 -0.0419028
0.418833 0.312808 -0.0404282
0.422976 0.312596 -0.0376098
0.426554 0.312336 -0.0350149
0.431159 0.312258 -0.0332885
0.434998 0.311884 -0.0313044
0.439285 0.311374 -0.0298042
0.443895 0.311469 -0.0291638
0.44855 0.311124 -0.0294139
0.453788 0.311637 -0.0330901
0.0407823 0.314145 -0.0178659
0.0457894 0.312772 -0.0137305
0.0496356 0.312413 -0.00952435
0.0538962 0.312331 -0.00767469
0.0586783 0.312641 -0.0075345
0.0637508 0.312507 -0.00717807
0.0680936 0.312392 -0.00934625
0.072346 0.312661 -0.00890493
0.0774741 0.312723 -0.0117424
0.0817914 0.313274 -0.0127189
0.0861517 0.313705 -0.0153115
0.0909074 0.314043 -0.0181763
0.0953493 0.314166 -0.0206354
0.100455 0.315022 -0.0246816
0.105316 0.315357 -0.0274653
0.1099 0.316588 -0.0316434
0.114618 0.316607 -0.0353835
0.119791 0.317302 -0.0413184
0.124343 0.318144 -0.0468907
0.129373 0.319651 -0.0523882
0.13469 0.320719 -0.0614605
0.139964 0.322539 -0.0699177
0.145669 0.324523 -0.0844197
0.152175 0.327879 -0.110506
0.27538 0.339623 -0.18023
0.278465 0.336526 -0.164605
0.281773 0.335472 -0.155869
0.285846 0.333878 -0.145609
0.289688 0.332787 -0.139168
0.293737 0.332413 -0.133423
0.297396 0.330954 -0.128335
0.301444 0.330315 -0.12194
0.305788 0.328973 -0.117115
0.309722 0.328879 -0.112966
0.313964 0.328399 -0.109324
0.318443 0.327265 -0.103955
0.322303 0.326717 -0.100345
0.325726 0.32588 -0.0964816
0.33054 0.326055 -0.0935984
0.334633 0.325224 -0.0891285
0.339188 0.324127 -0.0863752
0.343083 0.324108 -0.0821681
0.347039 0.323755 -0.0800405
0.351323 0.323163 -0.0769949
0.355379 0.322572 -0.0736904
0.360002 0.322537 -0.0718439
0.36386 0.3217 -0.068469
0.367995 0.321034 -0.0661223
0.372205 0.321443 -0.0643458
0.376559 0.320354 -0.0610876
0.381138 0.320663 -0.0591452
0.385341 0.319812 -0.0565763
0.388838 0.319775 -0.0542848
0.393651 0.31946 -0.0524716
0.397622 0.318996 -0.0495586
0.401872 0.318505 -0.0479155
0.405803 0.318309 -0.0449102
0.409929 0.317729 -0.0420835
0.414321 0.317257 -0.0404706
0.418365 0.317732 -0.0376675
0.42246 0.316556 -0.0364666
0.426371 0.316473 -0.0325539
0.430546 0.315714 -0.0302031
0.434578 0.315614 -0.0295463
0.43895 0.315277 -0.0260112
0.443484 0.315111 -0.0250587
0.447497 0.314914 -0.0247085
0.452346 0.315152 -0.0254302
0.0365598 0.318398 -0.0186269
0.0406709 0.317075 -0.00869179
0.0458173 0.315752 -0.00319552
0.049607 0.315709 -0.00142026
0.0544219 0.315864 -0.000701666
0.0587161 0.31579 5.55515e-05
0.0632503 0.315758 -5.38826e-05
0.0679543 0.31565 -0.00129175
0.0724629 0.316387 -0.00353575
0.0769742 0.316544 -0.00509357
0.0812232 0.316676 -0.00771403
0.0861172 0.31687 -0.00925565
0.090933 0.317691 -0.0130022
0.0950161 0.318306 -0.0142553
0.100302 0.318682 -0.0185001
0.104825 0.319476 -0.0213475
0.109909 0.319973 -0.0263934
0.113978 0.320437 -0.0300252
0.119862 0.321989 -0.0370982
0.124638 0.322491 -0.0423012
0.129789 0.323504 -0.0494354
0.13463 0.324899 -0.0569561
0.139857 0.32644 -0.0669208
0.146128 0.329445 -0.0841243
0.280252 0.34353 -0.175608
0.282981 0.341555 -0.163505
0.286484 0.33982 -0.152338
0.290183 0.338779 -0.144803
0.293774 0.337513 -0.137057
0.298392 0.336301 -0.129568
0.302187 0.335326 -0.124924
0.305842 0.334358 -0.119992
0.310065 0.333905 -0.114024
0.314161 0.332983 -0.109196
0.318363 0.332135 -0.104765
0.322141 0.332133 -0.101149
0.326197 0.331016 -0.096391
0.329937 0.330056 -0.0928226
0.334517 0.32973 -0.0888886
0.338798 0.329536 -0.0862291
0.342498 0.329398 -0.0832353
0.347267 0.328347 -0.0796058
0.351391 0.327662 -0.0765433
0.355646 0.32733 -0.0732501
0.359234 0.327166 -0.0716779
0.363999 0.326285 -0.0676146
0.367899 0.325951 -0.066206
0.372369 0.325799 -0.0630953
0.376467 0.325363 -0.0607207
0.380748 0.324496 -0.0580721
0.384991 0.32435 -0.0556014
0.388855 0.32397 -0.0522702
0.393118 0.323643 -0.0502305
0.397197 0.3233 -0.0477245
0.401046 0.322772 -0.0453229
0.40549 0.32191 -0.0425308
0.409545 0.322314 -0.0405686
0.413612 0.321723 -0.0377326
0.41806 0.321329 -0.0360777
0.421762 0.32093 -0.0326703
0.425947 0.320656 -0.030093
0.429674 0.320181 -0.0285285
0.434504 0.319561 -0.0265481
0.43826 0.319361 -0.0238562
0.442661 0.319404 -0.0212991
0.446734 0.318792 -0.0207069
0.451395 0.318929 -0.020678
0.456057 0.319061 -0.0222464
0.0365304 0.321488 -0.00919843
0.0405546 0.319887 0.00152194
0.0451039 0.319375 0.00492918
0.048825 0.318784 0.0073266
0.0537866 0.31869 0.00688803
0.0584792 0.319019 0.00785851
0.0627221 0.319323 0.00729096
0.067288 0.319425 0.00628507
0.0724067 0.319884 0.00267291
0.0767441 0.320173 0.00170791
0.0811339 0.320168 -0.00130153
0.0854694 0.32095 -0.00373626
0.0905489 0.321372 -0.00719523
0.0951813 0.321984 -0.0109019
0.0995851 0.322066 -0.0133522
0.104183 0.323065 -0.0171416
0.109235 0.32367 -0.0216308
0.114637 0.324552 -0.0264041
0.118635 0.324754 -0.0316646
0.124429 0.325984 -0.0388684
0.129327 0.327381 -0.0454102
0.134421 0.328668 -0.0527768
0.139541 0.329997 -0.0624917
0.14574 0.332606 -0.0806482
0.284675 0.348611 -0.178082
0.287437 0.34613 -0.161349
0.290818 0.343837 -0.149862
0.294584 0.342604 -0.141628
0.298329 0.342163 -0.135545
0.30234 0.341024 -0.128249
0.306258 0.340248 -0.123567
0.310151 0.339208 -0.117337
0.314459 0.337802 -0.111126
0.318617 0.33761 -0.107018
0.322502 0.336736 -0.103257
0.326258 0.335975 -0.0982912
0.330668 0.335309 -0.0943301
0.334801 0.334292 -0.0899787
0.338643 0.334219 -0.0867023
0.342698 0.333786 -0.0832932
0.346817 0.332974 -0.080224
0.351352 0.33231 -0.0766361
0.35512 0.331925 -0.0727937
0.359434 0.331704 -0.070446
0.363619 0.33073 -0.0674603
0.36785 0.331148 -0.065182
0.371941 0.329705 -0.0620942
0.376274 0.329952 -0.06025
0.380309 0.329581 -0.0562561
0.384603 0.328605 -0.0543385
0.388741 0.328094 -0.0522165
0.392485 0.327922 -0.0483534
0.396565 0.327853 -0.0460896
0.401489 0.327332 -0.0438337
0.405287 0.326948 -0.0413649
0.409361 0.326191 -0.0393844
0.413423 0.326324 -0.0362878
0.417534 0.325462 -0.0334759
0.421275 0.325467 -0.0317099
0.425674 0.324525 -0.0294957
0.429572 0.324519 -0.0260122
0.433624 0.323965 -0.0231454
0.437889 0.323541 -0.0211053
0.442013 0.323184 -0.0193903
0.445993 0.322884 -0.0180831
0.449982 0.32276 -0.0164328
0.455124 0.322846 -0.0168447
0.460269 0.323603 -0.0200019
0.0361717 0.32475 -0.000173569
0.0401552 0.323212 0.0097599
0.0448653 0.322581 0.0140069
0.0492952 0.322319 0.0143855
0.0534836 0.322345 0.0154494
0.0584596 0.322298 0.0143646
0.0629345 0.322732 0.0129006
0.0672626 0.323076 0.0114548
0.0712058 0.323365 0.00958598
0.0767735 0.323527 0.00673854
0.0811255 0.323732 0.00460851
0.0857505 0.324765 0.00150812
0.0904971 0.324647 -0.00214338
0.0947782 0.325659 -0.00548244
0.0994109 0.326307 -0.00777435
0.104511 0.326369 -0.013258
0.109152 0.32767 -0.0169544
0.114166 0.328492 -0.0227027
0.119054 0.329488 -0.0284023
0.124135 0.330394 -0.0345039
0.128812 0.33115 -0.0402668
0.134171 0.332693 -0.0496721
0.139412 0.334245 -0.0595567
0.145187 0.337044 -0.0753291
0.292371 0.351143 -0.161768
0.29543 0.348738 -0.149233
0.299351 0.34741 -0.139297
0.302948 0.346409 -0.133278
0.30706 0.345103 -0.125562
0.310875 0.344332 -0.121142
0.314558 0.343591 -0.115035
0.318986 0.342226 -0.108978
0.322923 0.341601 -0.104431
0.32679 0.341029 -0.0997703
0.330892 0.340052 -0.0957079
0.335007 0.339449 -0.0909276
0.339013 0.339073 -0.0875061
0.343413 0.338601 -0.0830286
0.346875 0.337898 -0.0801396
0.351614 0.33713 -0.0773458
0.354986 0.336278 -0.0727057
0.359559 0.335838 -0.0698493
0.363723 0.335629 -0.0666234
0.367861 0.33529 -0.0644562
0.372049 0.334652 -0.0620716
0.37557 0.334468 -0.0585124
0.380066 0.334067 -0.0555677
0.38455 0.333495 -0.0529313
0.388363 0.332938 -0.051266
0.392615 0.332377 -0.047173
0.396714 0.332152 -0.0448062
0.401143 0.332129 -0.0431747
0.404939 0.330988 -0.0400531
0.408542 0.33033 -0.0378528
0.412922 0.330802 -0.035284
0.417266 0.330045 -0.0324643
0.420918 0.329346 -0.0291111
0.425214 0.32914 -0.0269184
0.428737 0.328705 -0.0228875
0.433168 0.327915 -0.0214579
0.436936 0.327725 -0.0188084
0.441294 0.327522 -0.0164487
0.445275 0.326927 -0.0142319
0.449616 0.326608 -0.0136294
0.454142 0.326573 -0.0128183
0.458571 0.326633 -0.0129266
0.0354562 0.327861 0.0100486
0.0401728 0.326057 0.0185595
0.0447938 0.326272 0.0205666
0.048815 0.325659 0.0227926
0.0535373 0.325688 0.0213696
0.0579077 0.325856 0.0215422
0.0625198 0.3263 0.0190519
0.0671272 0.326239 0.0171485
0.0715372 0.326644 0.0145068
0.0760687 0.327112 0.0117023
0.0804163 0.32765 0.00875318
0.0855645 0.328046 0.00648046
0.0902515 0.328492 0.0028739
0.0950723 0.329208 -0.0014863
0.0994441 0.329758 -0.00384283
0.103865 0.330466 -0.00798607
0.108306 0.331294 -0.0118494
0.113314 0.332098 -0.0172801
0.118731 0.333571 -0.0243428
0.123678 0.334078 -0.0296938
0.128488 0.335226 -0.0376248
0.133939 0.337057 -0.0455787
0.138232 0.338216 -0.0533578
0.144488 0.340961 -0.0707088
0.297319 0.356327 -0.16201
0.300081 0.353986 -0.148616
0.303788 0.351517 -0.137549
0.307496 0.350741 -0.131804
0.311788 0.350301 -0.124652
0.31519 0.348644 -0.118398
0.31935 0.348006 -0.113267
0.322939 0.346814 -0.107847
0.327072 0.345875 -0.101957
0.331407 0.34543 -0.0968289
0.335289 0.344352 -0.0932946
0.339534 0.343876 -0.0888236
0.343495 0.342833 -0.0841687
0.34689 0.342824 -0.0814874
0.351064 0.341543 -0.0771849
0.355842 0.341589 -0.0737665
0.359734 0.340728 -0.0704408
0.36379 0.340258 -0.0673871
0.367442 0.339759 -0.0645599
0.371883 0.33917 -0.0609028
0.375841 0.339488 -0.0582836
0.380207 0.338473 -0.0554724
0.384214 0.33811 -0.051568
0.38856 0.337678 -0.0498893
0.392588 0.336972 -0.0472946
0.396356 0.336695 -0.0436118
0.400223 0.336111 -0.041177
0.404891 0.335513 -0.0381374
0.409049 0.335422 -0.0364146
0.412758 0.334924 -0.0347223
0.416981 0.334327 -0.0309865
0.4206 0.333908 -0.0278053
0.424572 0.333297 -0.0245938
0.428622 0.332758 -0.0216672
0.432486 0.332506 -0.0196886
0.436742 0.331939 -0.016778
0.440591 0.331891 -0.0134392
0.445172 0.331324 -0.0120726
0.44876 0.3309 -0.00956893
0.452526 0.330473 -0.00827456
0.457719 0.330264 -0.00788188
0.462218 0.330817 -0.00975347
0.0357794 0.330869 0.0188937
0.0399226 0.329518 0.0248113
0.0444242 0.329015 0.0276324
0.0490384 0.329159 0.0287815
0.0529593 0.328743 0.02846
0.0580659 0.329301 0.0259464
0.0623249 0.329666 0.0254867
0.0665669 0.329848 0.0231254
0.0713299 0.330023 0.0203854
0.0761956 0.330568 0.0185899
0.0806852 0.330923 0.0146986
0.0850493 0.331517 0.0125321
0.0900337 0.332911 0.00724745
0.0944576 0.333039 0.00471866
0.0992602 0.333549 3.68357e-05
0.104463 0.334689 -0.00523615
0.108807 0.335035 -0.00869751
0.113464 0.335994 -0.0137751
0.118537 0.337197 -0.0191238
0.123422 0.33804 -0.0257335
0.12825 0.339307 -0.0326819
0.133277 0.340744 -0.0410805
0.138803 0.343014 -0.0522287
0.144483 0.345482 -0.0701525
0.302256 0.361064 -0.162992
0.305307 0.359075 -0.149326
0.308873 0.356671 -0.137851
0.312382 0.355662 -0.129773
0.316244 0.354082 -0.122414
0.319911 0.353128 -0.116348
0.323808 0.352536 -0.110281
0.327586 0.351662 -0.106139
0.331797 0.350971 -0.100474
0.335456 0.349812 -0.0949244
0.339463 0.348355 -0.0905588
0.343747 0.34757 -0.0856562
0.347564 0.347675 -0.0823512
0.351348 0.347125 -0.0788972
0.355445 0.346351 -0.074636
0.359895 0.345765 -0.0710576
0.364149 0.345257 -0.0670378
0.368003 0.344513 -0.0641799
0.371831 0.344259 -0.0612493
0.376094 0.343384 -0.0581508
0.379805 0.342931 -0.0558152
0.384259 0.342559 -0.051846
0.38801 0.342226 -0.0485306
0.39212 0.341287 -0.0459223
0.396313 0.341243 -0.0429013
0.400625 0.340896 -0.0403419
0.40409 0.339211 -0.038075
0.408014 0.339082 -0.0342021
0.412438 0.339158 -0.031158
0.416132 0.339022 -0.0292273
0.420607 0.337984 -0.0263011
0.424137 0.337126 -0.0224895
0.42873 0.336907 -0.0199707
0.432221 0.336424 -0.0165939
0.43621 0.335885 -0.0136247
0.440239 0.335564 -0.012073
0.443939 0.335202 -0.00939035
0.448158 0.335086 -0.00673532
0.452388 0.3346 -0.00498533
0.456354 0.334457 -0.0039916
0.461594 0.334868 -0.00552773
0.46656 0.335265 -0.00947809
0.0357952 0.333929 0.0231769
0.0401556 0.333329 0.0326266
0.0440272 0.332299 0.0329716
0.0486136 0.332464 0.0356261
0.053244 0.332977 0.0347393
0.0577924 0.332898 0.0328606
0.0621582 0.333136 0.0313257
0.0665833 0.333059 0.0288066
0.0709533 0.333535 0.0260156
0.0756097 0.33421 0.0235877
0.0807104 0.334736 0.0188566
0.0851446 0.335349 0.0163835
0.089959 0.336173 0.0123245
0.0942398 0.336474 0.00886321
0.0988056 0.337418 0.00490284
0.103315 0.338354 0.00114703
0.108107 0.338837 -0.00471759
0.113501 0.340145 -0.0102921
0.117765 0.3411 -0.0151131
0.122856 0.341518 -0.0218883
0.128098 0.343708 -0.0292764
0.13347 0.345012 -0.0380299
0.138428 0.346691 -0.0486422
0.144367 0.350159 -0.0677905
0.310062 0.363152 -0.147911
0.313706 0.361635 -0.137696
0.31669 0.360275 -0.129902
0.320656 0.359414 -0.122664
0.32415 0.357905 -0.115772
0.328423 0.356636 -0.109144
0.332187 0.356081 -0.103077
0.33588 0.354518 -0.097527
0.339604 0.35343 -0.0921381
0.343666 0.352853 -0.0878103
0.348117 0.352503 -0.0846879
0.351836 0.351533 -0.0802903
0.355967 0.351075 -0.075839
0.359442 0.350766 -0.071918
0.36388 0.349859 -0.068264
0.36789 0.349099 -0.0650558
0.372115 0.348314 -0.0613112
0.37606 0.34791 -0.0576501
0.380009 0.347397 -0.0545087
0.384131 0.346954 -0.0516374
0.388153 0.346696 -0.0483942
0.391843 0.345585 -0.0453494
0.396213 0.34558 -0.0419126
0.400009 0.34563 -0.0395834
0.403872 0.344729 -0.0371392
0.408083 0.344454 -0.0341325
0.411939 0.34385 -0.0310669
0.416561 0.342777 -0.0273356
0.420092 0.342247 -0.0242505
0.424254 0.34167 -0.0213006
0.427861 0.341544 -0.0181978
0.431433 0.340946 -0.0153131
0.435667 0.34083 -0.0119739
0.439568 0.34001 -0.0101357
0.443452 0.33926 -0.00734115
0.44763 0.339145 -0.00474954
0.451531 0.338981 -0.00276136
0.455875 0.338457 -0.000792265
0.460621 0.338167 -0.00181365
0.464914 0.338558 -0.00148964
0.0356059 0.33759 0.0306866
0.0399038 0.336754 0.0373744
0.0440211 0.335888 0.0399075
0.0484031 0.335598 0.0410058
0.0531991 0.33572 0.0404302
0.057175 0.336204 0.0398459
0.062008 0.336582 0.0380315
0.0662656 0.336537 0.034995
0.0708813 0.337524 0.0325617
0.0757603 0.338073 0.0292311
0.0799223 0.338574 0.0255246
0.084725 0.33911 0.0206565
0.0896875 0.340144 0.0172837
0.0939191 0.340839 0.014495
0.0988738 0.341422 0.00936639
0.103545 0.341917 0.00449491
0.108347 0.342798 -0.000193357
0.113007 0.344077 -0.00537729
0.117708 0.344816 -0.0121131
0.122955 0.346116 -0.0197465
0.127852 0.347313 -0.0258265
0.132956 0.348988 -0.0355723
0.138014 0.350361 -0.0451808
0.144572 0.354642 -0.0697501
0.315437 0.368512 -0.149951
0.318376 0.366487 -0.138477
0.321793 0.364867 -0.128686
0.325364 0.363508 -0.120262
0.328956 0.362352 -0.11389
0.332881 0.361103 -0.108104
0.336743 0.360022 -0.10091
0.34036 0.359372 -0.0970244
0.344209 0.358637 -0.0903826
0.34809 0.357385 -0.0863605
0.352198 0.356889 -0.0827544
0.356189 0.356488 -0.0782905
0.360032 0.355107 -0.0736575
0.364183 0.355008 -0.0694778
0.368247 0.353963 -0.0659716
0.372106 0.353756 -0.0615697
0.376221 0.35295 -0.0591829
0.379904 0.352167 -0.0544388
0.383882 0.351775 -0.0510004
0.388046 0.350951 -0.0482368
0.391628 0.349799 -0.0441315
0.396118 0.350187 -0.0417583
0.400356 0.349711 -0.0386298
0.404252 0.348837 -0.0358083
0.407914 0.348517 -0.0327547
0.411924 0.348272 -0.0294788
0.41583 0.347412 -0.0268116
0.420087 0.34627 -0.0228436
0.423956 0.346072 -0.0210154
0.427551 0.345805 -0.0162628
0.43163 0.34535 -0.0143712
0.435648 0.344391 -0.0110934
0.439386 0.344293 -0.00858545
0.443133 0.34381 -0.00451994
0.447326 0.343639 -0.00279379
0.451204 0.342978 -0.000716209
0.455188 0.342519 0.00106633
0.459175 0.342341 0.00282323
0.464783 0.342507 0.000737786
0.470576 0.343877 -0.00472522
0.0354745 0.342491 0.0304862
0.0395688 0.340016 0.041694
0.0443729 0.33956 0.0465955
0.0487755 0.33946 0.0468833
0.0527661 0.33957 0.0482199
0.0572472 0.33952 0.045738
0.0619027 0.339872 0.0432239
0.0662218 0.340113 0.0418103
0.0711594 0.340605 0.0376855
0.0750143 0.341231 0.0342814
0.0799905 0.342318 0.0299259
0.0844158 0.342707 0.0261421
0.0897594 0.343624 0.021284
0.0941643 0.344371 0.0174296
0.0985727 0.344928 0.0129919
0.103381 0.345668 0.00857937
0.108308 0.346628 0.00257587
0.113244 0.347868 -0.00415802
0.117858 0.349226 -0.00906396
0.122338 0.349717 -0.0152004
0.128081 0.351369 -0.0240741
0.133065 0.35298 -0.0323262
0.138087 0.354986 -0.0443051
0.145325 0.359797 -0.0752349
0.323235 0.371764 -0.139483
0.326415 0.369556 -0.127698
0.330053 0.368137 -0.119694
0.333278 0.366393 -0.112424
0.337059 0.365298 -0.105236
0.34108 0.364932 -0.100701
0.344633 0.36428 -0.0958934
0.348846 0.363139 -0.0898523
0.352958 0.362007 -0.0844827
0.356437 0.361164 -0.0809195
0.360831 0.36046 -0.0751255
0.364233 0.360063 -0.0714052
0.36838 0.359229 -0.0670419
0.371954 0.358531 -0.0632455
0.376428 0.357816 -0.0587246
0.380263 0.357142 -0.0554783
0.384293 0.356579 -0.0519395
0.387987 0.35565 -0.0485034
0.392055 0.355298 -0.0448205
0.395772 0.354894 -0.0414772
0.399587 0.354118 -0.038162
0.403704 0.353642 -0.0350113
0.407855 0.352783 -0.0321798
0.411727 0.352243 -0.0292213
0.415542 0.351704 -0.0247707
0.419604 0.351551 -0.0227914
0.423586 0.350647 -0.01999
0.427683 0.350194 -0.0169697
0.430915 0.349624 -0.0126925
0.435043 0.348929 -0.00963092
0.438968 0.34865 -0.00620437
0.442173 0.34791 -0.00304413
0.446758 0.347183 -0.000590801
0.451126 0.346771 0.00150657
0.45466 0.346733 0.0038141
0.458847 0.346658 0.00472689
0.463443 0.346387 0.00487983
0.468733 0.347068 0.0016712
0.0394266 0.343623 0.0468433
0.0437816 0.342799 0.0514798
0.0480139 0.342577 0.0534917
0.0523339 0.342813 0.0525303
0.0570218 0.342824 0.0514195
0.0613278 0.343127 0.0493187
0.0660639 0.34363 0.0461706
0.0707815 0.344392 0.0427021
0.0750917 0.344905 0.0397664
0.0795039 0.345435 0.0352248
0.0843969 0.346338 0.0321528
0.0889666 0.347197 0.0261365
0.0935373 0.348199 0.0214936
0.0982536 0.348951 0.0171794
0.103068 0.349972 0.0107971
0.108127 0.350491 0.00628936
0.112691 0.351419 0.000808597
0.117356 0.353051 -0.00592685
0.121991 0.354111 -0.0120344
0.127625 0.35531 -0.0207918
0.132933 0.357183 -0.0306678
0.137773 0.359094 -0.0415447
0.144974 0.364538 -0.0755224
0.328877 0.377277 -0.144241
0.331366 0.374113 -0.127914
0.334175 0.372894 -0.119848
0.338099 0.371861 -0.113275
0.342184 0.370531 -0.104939
0.345675 0.368868 -0.0980906
0.349399 0.369041 -0.0938904
0.353281 0.367123 -0.0881226
0.357163 0.366372 -0.0829422
0.360836 0.36615 -0.0787609
0.365147 0.36468 -0.0747747
0.368271 0.363997 -0.0689418
0.372451 0.363238 -0.0644541
0.37622 0.36218 -0.0598116
0.380432 0.361831 -0.0567985
0.384238 0.36094 -0.0522206
0.388237 0.359941 -0.0491464
0.3921 0.359589 -0.044816
0.396264 0.358954 -0.0422099
0.399646 0.359088 -0.0387399
0.403838 0.357934 -0.0349643
0.407501 0.357112 -0.0319178
0.411536 0.357017 -0.0275877
0.415345 0.356098 -0.0248029
0.419405 0.355838 -0.0220842
0.42305 0.354972 -0.0183463
0.427428 0.354181 -0.0145454
0.430577 0.354032 -0.0119245
0.434629 0.35343 -0.00883675
0.438487 0.352568 -0.00464988
0.441979 0.351841 -0.00192189
0.446253 0.351296 0.0014919
0.450442 0.351424 0.00209105
0.454189 0.350753 0.00589919
0.458384 0.350378 0.00797737
0.462025 0.350393 0.00885761
0.467647 0.35072 0.00683916
0.039695 0.347356 0.0504209
0.043608 0.345938 0.0549648
0.0481273 0.346056 0.0586966
0.0524152 0.345611 0.0575519
0.0570189 0.34646 0.0576195
0.0614649 0.346749 0.0556357
0.0660003 0.346993 0.0518775
0.0704459 0.347691 0.048998
0.0748376 0.348326 0.0457561
0.079621 0.349288 0.0407176
0.0843596 0.349899 0.0346773
0.0890804 0.350394 0.0306128
0.0928998 0.351261 0.0267036
0.0979846 0.352708 0.0212651
0.102715 0.353676 0.0148042
0.107624 0.354549 0.0104294
0.11305 0.355386 0.00258958
0.11752 0.35693 -0.00364399
0.122535 0.358267 -0.0105422
0.127174 0.359507 -0.017462
0.13261 0.361114 -0.027477
0.138107 0.363528 -0.0410907
0.336398 0.379114 -0.13016
0.3393 0.377714 -0.119925
0.342972 0.376015 -0.11111
0.346464 0.374811 -0.104196
0.350358 0.374209 -0.0987728
0.35383 0.372899 -0.0929108
0.357772 0.371841 -0.0875685
0.361456 0.370881 -0.0815105
0.365439 0.370053 -0.0770736
0.368989 0.369388 -0.0731013
0.372976 0.368254 -0.0665872
0.376395 0.367463 -0.0619655
0.380788 0.366182 -0.0574827
0.384464 0.365937 -0.0534027
0.388427 0.364739 -0.0490417
0.392137 0.364175 -0.0454614
0.396195 0.363943 -0.0418878
0.399846 0.363577 -0.0381575
0.403785 0.362486 -0.0351646
0.407256 0.362129 -0.0317583
0.411394 0.360961 -0.0272152
0.415593 0.360501 -0.0238411
0.41954 0.35986 -0.0199811
0.423401 0.359642 -0.0181355
0.426638 0.359097 -0.014538
0.430686 0.357685 -0.00973582
0.434768 0.357522 -0.00665689
0.438698 0.356933 -0.00369859
0.442065 0.356394 -0.000359535
0.445745 0.355864 0.0022527
0.450101 0.355638 0.00404334
0.453969 0.354946 0.00763643
0.457764 0.354963 0.00934768
0.461984 0.354226 0.00955307
0.466253 0.354104 0.0114367
0.472451 0.355749 0.00511348
0.0396451 0.351528 0.0517232
0.0435398 0.349508 0.0624486
0.0483672 0.349344 0.0640273
0.0525225 0.348964 0.0648527
0.0567189 0.349281 0.0640168
0.0610707 0.349562 0.0609677
0.0652447 0.350238 0.0573431
0.0703159 0.350795 0.0533361
0.0746912 0.351864 0.0509568
0.0793943 0.352808 0.0456659
0.0840041 0.353752 0.04021
0.0889535 0.354359 0.0350014
0.0931244 0.355543 0.0300143
0.0977282 0.356368 0.0237893
0.103013 0.357816 0.0179168
0.107462 0.358931 0.0126436
0.112367 0.359642 0.00658643
0.117008 0.360634 0.000647664
0.122267 0.362469 -0.00738168
0.12733 0.363735 -0.0158718
0.132653 0.365923 -0.0258977
0.138479 0.368702 -0.0430744
0.342353 0.385853 -0.138097
0.344763 0.382535 -0.120754
0.347679 0.381273 -0.112238
0.351064 0.379972 -0.104417
0.354961 0.378705 -0.0978541
0.358448 0.3775 -0.0916908
0.362566 0.376634 -0.0863383
0.36612 0.375423 -0.0808454
0.369692 0.374456 -0.07511
0.373654 0.373651 -0.0701473
0.377105 0.372418 -0.0655122
0.381133 0.371362 -0.0603967
0.384821 0.370784 -0.0551105
0.388807 0.369694 -0.0511065
0.392086 0.369076 -0.0467505
0.396192 0.368605 -0.0425005
0.400159 0.368046 -0.0391293
0.403768 0.367572 -0.0350654
0.407655 0.366617 -0.0313327
0.411142 0.365958 -0.0282505
0.415214 0.364788 -0.0237975
0.419279 0.364547 -0.0199749
0.423007 0.363404 -0.0170255
0.426916 0.363345 -0.013804
0.43084 0.362253 -0.00892591
0.434326 0.362006 -0.00670218
0.438232 0.361567 -0.00317192
0.442148 0.360693 0.000992417
0.445655 0.360098 0.00357819
0.449794 0.359509 0.00722921
0.453618 0.358929 0.0100604
0.457114 0.358802 0.0113628
0.462012 0.358716 0.0129859
0.465699 0.358568 0.0135856
0.470948 0.358982 0.0101173
0.043336 0.353448 0.065667
0.0474785 0.352807 0.0690478
0.0521539 0.351866 0.0706615
0.0566132 0.352844 0.0703427
0.0608541 0.352982 0.0676049
0.0650924 0.353584 0.0641798
0.0700551 0.354355 0.059397
0.0747958 0.355216 0.0558945
0.0791772 0.35602 0.0518287
0.0839134 0.357254 0.0450015
0.088444 0.357797 0.0403019
0.0936583 0.359405 0.03303
0.097516 0.359931 0.0290724
0.102221 0.361282 0.0232249
0.107443 0.362086 0.0168338
0.111954 0.36353 0.0112668
0.117063 0.364614 0.00298846
0.122263 0.366074 -0.00448275
0.127712 0.367383 -0.0144856
0.132073 0.369729 -0.0231707
0.137543 0.37271 -0.0393956
0.350123 0.388448 -0.126481
0.352618 0.386079 -0.114158
0.356132 0.385117 -0.106359
0.359816 0.383567 -0.0985568
0.363248 0.381524 -0.0916078
0.367112 0.380892 -0.0859535
0.370655 0.380041 -0.0801218
0.374507 0.378949 -0.0746334
0.377901 0.377765 -0.0691733
0.380704 0.376509 -0.0636706
0.385501 0.37646 -0.0589793
0.389019 0.375151 -0.0525033
0.392362 0.373872 -0.0488484
0.396538 0.372885 -0.0437357
0.399899 0.372524 -0.0402133
0.40404 0.371593 -0.0358357
0.408073 0.371075 -0.0315878
0.41125 0.370005 -0.0271621
0.415476 0.369201 -0.0232155
0.419062 0.36908 -0.0202348
0.423206 0.368676 -0.016938
0.426764 0.367676 -0.0130596
0.430259 0.367062 -0.00949478
0.434143 0.36626 -0.00586605
0.437758 0.365627 -0.00225782
0.441764 0.364872 0.00114882
0.44506 0.364556 0.00486779
0.449689 0.363604 0.00718594
0.453303 0.363472 0.0108676
0.457164 0.362894 0.012858
0.461217 0.362544 0.0145011
0.465938 0.362589 0.0144271
0.47028 0.36276 0.0130111
0.0435981 0.357459 0.0680624
0.0478695 0.356662 0.0730165
0.0522514 0.355792 0.075838
0.0566706 0.355511 0.0753466
0.0606603 0.35628 0.0726998
0.0653501 0.356899 0.0693152
0.0697058 0.358082 0.0665784
0.0744646 0.358562 0.0615556
0.0784565 0.359426 0.0567304
0.0833894 0.36042 0.0507345
0.0881099 0.361624 0.0451686
0.0929328 0.36292 0.0392442
0.0973213 0.363819 0.0343678
0.102157 0.364533 0.0273806
0.106866 0.365835 0.0208496
0.111788 0.367286 0.0140371
0.116588 0.368479 0.00758994
0.121932 0.370297 -0.00163817
0.126796 0.371587 -0.0100801
0.132063 0.374238 -0.0219674
0.138494 0.377901 -0.045912
0.358348 0.39103 -0.116435
0.360769 0.389914 -0.107637
0.364533 0.388089 -0.0996475
0.36753 0.386502 -0.0908442
0.371577 0.385786 -0.0844555
0.375196 0.384547 -0.0793164
0.378635 0.383421 -0.0727985
0.381932 0.382347 -0.0672104
0.386276 0.38118 -0.0609689
0.389626 0.380071 -0.0558021
0.393124 0.379329 -0.0512629
0.396787 0.378578 -0.0464814
0.40038 0.377549 -0.041275
0.40423 0.376959 -0.0373905
0.407967 0.375844 -0.0326316
0.411722 0.375153 -0.028029
0.415591 0.374009 -0.0236716
0.419068 0.373766 -0.0208356
0.422954 0.373111 -0.0167539
0.42653 0.372378 -0.0125904
0.43032 0.371045 -0.00854897
0.434353 0.371058 -0.0056262
0.437987 0.370168 -0.00192118
0.441573 0.369393 0.00182319
0.445183 0.368895 0.0054493
0.449141 0.368709 0.00912976
0.452898 0.367641 0.0116096
0.456906 0.367569 0.0151434
0.460945 0.366437 0.01709
0.465277 0.366665 0.0177062
0.470422 0.367005 0.0166389
0.475404 0.367763 0.010389
0.0435274 0.360808 0.0730283
0.0475855 0.359898 0.0778915
0.0516639 0.359591 0.0800096
0.0566932 0.359212 0.080508
0.060953 0.359881 0.0783502
0.0654536 0.36009 0.0748092
0.0696684 0.360822 0.0709959
0.0739265 0.361877 0.0674965
0.0783177 0.362705 0.0619704
0.0836059 0.364162 0.0556648
0.0883603 0.365109 0.0498013
0.0923701 0.366172 0.044314
0.0975693 0.367647 0.0378804
0.102066 0.368602 0.0314164
0.107181 0.369886 0.0241801
0.111883 0.371475 0.0175192
0.116656 0.372001 0.0110533
0.121771 0.373929 0.00212145
0.126983 0.375788 -0.0087111
0.132189 0.378379 -0.0214951
0.366531 0.394694 -0.109864
0.369393 0.392781 -0.0997646
0.372774 0.391695 -0.0926762
0.376363 0.390417 -0.084929
0.379457 0.388996 -0.0782509
0.383021 0.387798 -0.0722363
0.386612 0.386705 -0.0649967
0.389914 0.385665 -0.0599902
0.393374 0.384836 -0.0541451
0.397214 0.382801 -0.0484788
0.401012 0.38304 -0.0436745
0.404402 0.381604 -0.0384963
0.408192 0.380442 -0.033917
0.411602 0.379767 -0.0282903
0.415628 0.378534 -0.0241449
0.419364 0.378222 -0.0209568
0.422884 0.377381 -0.0162528
0.426984 0.376742 -0.0130136
0.430344 0.375799 -0.00819945
0.433995 0.375588 -0.00395393
0.438032 0.374577 -0.00161529
0.441251 0.373734 0.00232995
0.444806 0.373031 0.00637126
0.448896 0.371959 0.00977945
0.452588 0.372092 0.0130371
0.456053 0.371567 0.0157444
0.460497 0.370943 0.0176293
0.464568 0.370714 0.0194926
0.469189 0.370375 0.0186838
0.473882 0.371015 0.0168258
0.0475001 0.363871 0.0807033
0.0518042 0.362492 0.0854293
0.0563969 0.362476 0.0853549
0.0606653 0.36303 0.085044
0.0646802 0.363338 0.0813224
0.0694445 0.364072 0.0783674
0.0741235 0.365286 0.0724368
0.078364 0.365938 0.0680126
0.0831349 0.367543 0.0615233
0.0875659 0.368697 0.0542397
0.0925339 0.36963 0.0480491
0.0972769 0.37119 0.0411456
0.102346 0.371931 0.0350859
0.106532 0.373669 0.0295202
0.111534 0.374788 0.02145
0.116607 0.37631 0.0131322
0.121662 0.377998 0.00487483
0.126975 0.380436 -0.00750542
0.132342 0.383158 -0.023273
0.375303 0.3989 -0.105878
0.377939 0.396992 -0.0956662
0.380947 0.395089 -0.0859725
0.384504 0.39353 -0.0784035
0.388016 0.392086 -0.0712278
0.391215 0.390976 -0.0642757
0.39457 0.390155 -0.0584435
0.397771 0.388724 -0.0528455
0.401864 0.387206 -0.0460043
0.40561 0.386556 -0.0417972
0.408619 0.385197 -0.0351043
0.412037 0.384935 -0.0316951
0.416254 0.383864 -0.0261672
0.419392 0.382695 -0.021023
0.423594 0.381955 -0.0163076
0.426933 0.381426 -0.013411
0.430433 0.380406 -0.00937343
0.433903 0.380295 -0.00461221
0.437419 0.378975 -0.000678778
0.441493 0.37835 0.002267
0.444844 0.377659 0.00705123
0.448972 0.377144 0.00944698
0.452217 0.376177 0.013606
0.455802 0.375955 0.0178995
0.459767 0.375087 0.0202565
0.464093 0.374547 0.0214678
0.468477 0.374512 0.0210887
0.473314 0.37529 0.0191679
0.0473714 0.367841 0.0826871
0.0518055 0.366862 0.0875558
0.0560252 0.366357 0.0889957
0.0603232 0.365966 0.0896171
0.0646379 0.366205 0.0861773
0.0692423 0.36716 0.0829567
0.0737849 0.368016 0.0788485
0.0782932 0.36943 0.0734929
0.0829192 0.370782 0.0663717
0.0872449 0.371882 0.0609555
0.0924548 0.373464 0.0518781
0.0967146 0.374359 0.0470244
0.101414 0.375652 0.0394443
0.10626 0.37689 0.0330855
0.11158 0.378545 0.0248629
0.116392 0.380588 0.0165346
0.121546 0.382305 0.00664914
0.126966 0.385032 -0.00680876
0.132211 0.387919 -0.022964
0.383549 0.402412 -0.100289
0.385812 0.400483 -0.0895658
0.3893 0.399373 -0.0812318
0.39222 0.396991 -0.0707002
0.395754 0.395109 -0.061722
0.398786 0.394573 -0.0568213
0.40235 0.39303 -0.0499594
0.405592 0.391719 -0.0435727
0.409307 0.390724 -0.0392928
0.412451 0.389553 -0.0326278
0.415903 0.388676 -0.0272982
0.419606 0.387735 -0.0221817
0.422951 0.386893 -0.0176027
0.426417 0.386045 -0.0139029
0.430352 0.384944 -0.00913191
0.434079 0.383872 -0.00365639
0.437706 0.383538 -0.00082159
0.441365 0.382785 0.00383067
0.444672 0.382173 0.0077405
0.448552 0.381187 0.0112846
0.452345 0.380685 0.0149926
0.455376 0.37985 0.0176038
0.460159 0.37944 0.0210768
0.463622 0.379145 0.0233624
0.468147 0.379009 0.0234215
0.473054 0.379326 0.0209372
0.0476565 0.371793 0.0827765
0.0520076 0.3706 0.090089
0.0558185 0.369437 0.0924606
0.0599251 0.369584 0.094291
0.0646506 0.370211 0.0921671
0.069007 0.370527 0.0890445
0.0732589 0.371593 0.0866232
0.0778391 0.372191 0.0791112
0.0826488 0.373451 0.072419
0.0871645 0.375094 0.0656984
0.0920555 0.376677 0.0577443
0.0970856 0.378241 0.0495958
0.101428 0.379172 0.0443124
0.106282 0.380878 0.0367661
0.11143 0.38261 0.0277669
0.115773 0.384154 0.0202829
0.121467 0.385998 0.00862873
0.126778 0.388829 -0.00525689
0.134051 0.395604 -0.0384655
0.391795 0.405521 -0.0921605
0.393987 0.402959 -0.0797491
0.397181 0.401785 -0.0715461
0.40011 0.400077 -0.0630527
0.40338 0.39887 -0.0557508
0.406227 0.397154 -0.0479224
0.409657 0.395883 -0.041234
0.413189 0.394905 -0.0346966
0.416517 0.393227 -0.0294566
0.420122 0.392317 -0.0240157
0.423416 0.391831 -0.0192451
0.42684 0.390557 -0.0140741
0.430406 0.389811 -0.00919199
0.434009 0.389239 -0.00576806
0.437637 0.387954 -0.000769615
0.441317 0.387238 0.00391793
0.444523 0.386018 0.00689065
0.448298 0.385637 0.0112283
0.452016 0.385199 0.0156085
0.455379 0.384073 0.0194199
0.45939 0.383715 0.0220526
0.463219 0.382848 0.0235744
0.467601 0.38306 0.0251155
0.472633 0.383164 0.0231197
0.0513316 0.374988 0.0900379
0.0555137 0.37354 0.0959597
0.0600595 0.373376 0.0973094
0.0649407 0.373078 0.0976312
0.0689253 0.373652 0.0965664
0.0734235 0.374582 0.0909734
0.0779086 0.37573 0.0853716
0.0821944 0.377016 0.0794921
0.0870427 0.378579 0.0697604
0.0916986 0.380148 0.0635056
0.0963382 0.381542 0.0551369
0.101195 0.383256 0.047289
0.105753 0.384246 0.0401651
0.110771 0.386199 0.0319519
0.116084 0.388173 0.022627
0.120895 0.389873 0.0119562
0.125992 0.393222 -0.00261474
0.399334 0.408789 -0.0851796
0.402034 0.406786 -0.0726554
0.404563 0.404435 -0.0619502
0.407532 0.403539 -0.0540152
0.410573 0.401721 -0.0473509
0.413713 0.399971 -0.03878
0.417428 0.399147 -0.0330381
0.42064 0.397533 -0.0267072
0.423386 0.396232 -0.0202136
0.427565 0.395435 -0.0153213
0.430727 0.39435 -0.0100853
0.434043 0.39336 -0.00521922
0.437235 0.391968 -0.000434875
0.44108 0.392046 0.0032748
0.444868 0.390972 0.00723767
0.448071 0.390237 0.0118265
0.452054 0.389472 0.0155615
0.455572 0.388424 0.0195953
0.459275 0.387514 0.0231242
0.463494 0.387667 0.0252017
0.46755 0.387374 0.0258291
0.472498 0.387821 0.0244566
0.478515 0.388872 0.0174855
0.0520628 0.37808 0.0915534
0.0554787 0.377401 0.0994906
0.0602002 0.376779 0.100949
0.0643031 0.376584 0.101945
0.0685615 0.376905 0.10195
0.0729961 0.377534 0.0981656
0.0777577 0.3786 0.0912503
0.0819341 0.380252 0.0860604
0.0869426 0.381716 0.0756438
0.0913795 0.383537 0.0680624
0.0962996 0.384954 0.0593106
0.101016 0.386449 0.051921
0.106285 0.388676 0.0420806
0.110755 0.389735 0.0350689
0.115699 0.391739 0.0260962
0.121199 0.394267 0.0127693
0.126445 0.397905 -0.00478935
0.407284 0.412235 -0.0758824
0.409154 0.409154 -0.0619009
0.411823 0.407562 -0.0530009
0.415025 0.405968 -0.0441639
0.418098 0.403979 -0.0357339
0.420822 0.403154 -0.0303905
0.42452 0.402319 -0.0242467
0.427231 0.399758 -0.0162401
0.430769 0.398844 -0.0109985
0.43409 0.398225 -0.00616574
0.437981 0.396721 -0.00114012
0.44108 0.396181 0.0030607
0.445241 0.395817 0.00716269
0.447892 0.394448 0.011893
0.452088 0.393374 0.0155663
0.455601 0.392956 0.019393
0.459421 0.392601 0.0229723
0.463258 0.391902 0.0253903
0.467769 0.391809 0.0272393
0.471335 0.391515 0.0272739
0.477124 0.392513 0.0215793
0.0557902 0.381039 0.100287
0.0601721 0.380273 0.104329
0.0641997 0.380477 0.107623
0.068436 0.379952 0.105251
0.072619 0.380595 0.103962
0.0769802 0.381468 0.0982814
0.0817161 0.383123 0.091938
0.0865181 0.384832 0.0825506
0.0907184 0.386981 0.0744578
0.0961818 0.38866 0.0644195
0.101042 0.390506 0.0545185
0.105455 0.392059 0.0474564
0.110519 0.393883 0.038321
0.115945 0.395957 0.0269333
0.121014 0.398443 0.0143424
0.127226 0.403958 -0.0113318
0.412622 0.417322 -0.0800376
0.41402 0.414049 -0.062252
0.416099 0.411831 -0.0514226
0.418575 0.409669 -0.0407321
0.422243 0.407989 -0.0334799
0.425049 0.406752 -0.0263112
0.428198 0.405201 -0.0197558
0.431573 0.404563 -0.013793
0.434229 0.402816 -0.00721192
0.437838 0.401708 -0.00227451
0.441403 0.401115 0.00229895
0.444805 0.400193 0.00706339
0.448526 0.398864 0.0124673
0.452101 0.398275 0.0150883
0.455496 0.397342 0.0195597
0.459335 0.396608 0.023679
0.463093 0.396202 0.0263743
0.467175 0.396012 0.02746
0.471517 0.395701 0.0278664
0.476445 0.396966 0.0233364
0.055838 0.385608 0.0995076
0.0596066 0.384475 0.105569
0.0637493 0.383714 0.108831
0.0682803 0.383583 0.111162
0.0726648 0.383863 0.109268
0.0770122 0.384398 0.104665
0.0814489 0.385847 0.0979398
0.086398 0.387915 0.0888411
0.0912968 0.389764 0.0783061
0.095958 0.391798 0.0691634
0.100731 0.393667 0.0600905
0.10585 0.395738 0.0509217
0.110604 0.397292 0.0410966
0.115463 0.399553 0.0298573
0.12127 0.402661 0.0146645
0.127543 0.40993 -0.0204787
0.418736 0.418385 -0.0620322
0.420615 0.415241 -0.0483503
0.423125 0.413953 -0.0385993
0.425932 0.411775 -0.0302446
0.428896 0.410623 -0.0229461
0.432288 0.409872 -0.0164111
0.435153 0.407984 -0.00908995
0.438446 0.406999 -0.00474906
0.441253 0.40548 0.00219893
0.445223 0.404919 0.00561976
0.4487 0.4035 0.0107987
0.452026 0.40266 0.0152669
0.455621 0.402085 0.0188195
0.459103 0.401408 0.0227691
0.46308 0.400982 0.0252042
0.466795 0.40051 0.0281402
0.471838 0.400137 0.0273497
0.476926 0.400911 0.0235065
0.0595539 0.388477 0.106015
0.0639101 0.387365 0.111447
0.0680345 0.387124 0.114729
0.0723599 0.386791 0.114694
0.076701 0.387533 0.111458
0.0815169 0.388801 0.104804
0.0860378 0.390912 0.0950359
0.0906068 0.392947 0.0846397
0.09563 0.395203 0.0745348
0.100315 0.39727 0.0653421
0.105499 0.399176 0.0543764
0.109897 0.40116 0.0463803
0.115447 0.403885 0.0328372
0.120741 0.407195 0.0164145
0.424633 0.425114 -0.0696111
0.425418 0.420846 -0.0494502
0.426874 0.417865 -0.035938
0.429823 0.416201 -0.0280128
0.432676 0.414271 -0.0195296
0.435692 0.412967 -0.0119808
0.439015 0.411414 -0.00418878
0.441706 0.410672 -0.000280619
0.445514 0.409367 0.00481248
0.448943 0.408192 0.0119778
0.452223 0.407384 0.0148091
0.455856 0.406058 0.0198921
0.459158 0.405814 0.0226213
0.463083 0.404805 0.0259883
0.467406 0.405052 0.0275326
0.471408 0.404661 0.0280304
0.475836 0.404937 0.0269475
0.0601247 0.393253 0.105772
0.063528 0.391912 0.111602
0.0680898 0.391187 0.115332
0.0722545 0.390403 0.117791
0.0767274 0.390804 0.115885
0.0810837 0.39167 0.110666
0.0852886 0.393334 0.103515
0.0904794 0.39599 0.0916979
0.095075 0.398275 0.0805773
0.100376 0.400251 0.0701531
0.104821 0.402544 0.0596552
0.110247 0.405401 0.046543
0.115484 0.407876 0.033402
0.120859 0.412132 0.0147703
0.429236 0.428618 -0.0669856
0.429027 0.424673 -0.0467091
0.431127 0.422123 -0.0339754
0.433268 0.419483 -0.0223999
0.436388 0.417975 -0.0150898
0.439424 0.416276 -0.00769305
0.442636 0.415347 -0.00156093
0.445757 0.41409 0.0035913
0.448741 0.412758 0.00999415
0.452206 0.412392 0.0145062
0.456029 0.410739 0.0189617
0.459145 0.410844 0.0219647
0.463104 0.409885 0.0248967
0.467026 0.408963 0.0288206
0.471206 0.409113 0.0281818
0.476628 0.409403 0.0253935
0.0638989 0.39584 0.111658
0.0680911 0.394484 0.117564
0.0721741 0.394355 0.120655
0.0761234 0.394482 0.1206
0.0802235 0.394955 0.117564
0.0852575 0.396261 0.110686
0.0903062 0.39884 0.0990808
0.0948377 0.401421 0.0871868
0.0998816 0.403873 0.0749793
0.104812 0.406038 0.0627989
0.109637 0.40857 0.0514472
0.114969 0.411859 0.036967
0.121176 0.417451 0.00929904
0.433445 0.429238 -0.0452456
0.434967 0.425938 -0.0294685
0.437223 0.424273 -0.0207303
0.439673 0.421638 -0.0106804
0.443265 0.420463 -0.00405502
0.445685 0.418405 0.0032407
0.44906 0.417967 0.00876808
0.45258 0.417092 0.0130894
0.456103 0.415654 0.0175372
0.459497 0.414591 0.0224906
0.463411 0.41425 0.0257106
0.467153 0.413712 0.027127
0.471696 0.413715 0.0279218
0.477071 0.414426 0.0245245
0.0641356 0.400402 0.110655
0.0677057 0.399238 0.117143
0.0721321 0.398073 0.122118
0.076336 0.397636 0.123294
0.0805009 0.397854 0.121861
0.0846753 0.39873 0.117342
0.0897319 0.401418 0.107651
0.0948756 0.404768 0.0929433
0.0996984 0.406967 0.0804672
0.104647 0.409907 0.0672164
0.109172 0.412283 0.0553818
0.115152 0.416088 0.0376277
0.437603 0.433216 -0.0410693
0.438658 0.428864 -0.0243208
0.440981 0.427176 -0.0149386
0.443701 0.425633 -0.00614142
0.446471 0.42417 0.000177503
0.449376 0.422777 0.0062263
0.452613 0.421421 0.011856
0.456146 0.420359 0.0170463
0.459792 0.419864 0.0205142
0.463099 0.418576 0.0249633
0.467022 0.418099 0.0270406
0.472135 0.418235 0.0275505
0.476501 0.4183 0.0257579
0.0678987 0.403489 0.116463
0.0723317 0.401922 0.123415
0.0759785 0.401734 0.12399
0.0803719 0.401899 0.125455
0.084618 0.402463 0.123029
0.0892114 0.40373 0.115225
0.0940475 0.406467 0.102303
0.0993949 0.409787 0.0853343
0.103932 0.412838 0.0737185
0.109727 0.415948 0.0567503
0.115275 0.420449 0.0371044
0.441473 0.437146 -0.0397673
0.442074 0.432648 -0.0210881
0.44412 0.43035 -0.0103252
0.446855 0.428956 -0.00188398
0.449968 0.427912 0.00361252
0.453652 0.426336 0.00971127
0.456563 0.425242 0.0145317
0.460151 0.424332 0.0203028
0.463392 0.423487 0.0240395
0.467455 0.422838 0.0259982
0.47191 0.422865 0.0269524
0.477089 0.423682 0.0238408
0.0679182 0.408369 0.114557
0.0717337 0.406067 0.124199
0.0763346 0.405785 0.126019
0.080611 0.405429 0.126992
0.0846463 0.405769 0.126779
0.0889792 0.40655 0.121318
0.0938729 0.409406 0.109504
0.0989808 0.412539 0.0943151
0.103949 0.416398 0.0776016
0.109598 0.420162 0.0593022
0.11542 0.425028 0.0359433
0.445111 0.440189 -0.0333877
0.446262 0.436825 -0.017761
0.448016 0.434178 -0.00520086
0.450992 0.433038 0.000859976
0.453836 0.43151 0.00731301
0.456854 0.430366 0.0119622
0.460185 0.429055 0.018109
0.463839 0.428263 0.0220815
0.467726 0.427612 0.0256453
0.472197 0.427619 0.0258262
0.477043 0.427985 0.0229098
0.0683289 0.412872 0.110192
0.0722861 0.410454 0.123546
0.0759882 0.409559 0.126674
0.0800643 0.409042 0.12991
0.0843285 0.408976 0.129406
0.0886513 0.409955 0.127733
0.093429 0.41155 0.118503
0.0985429 0.415183 0.102366
0.103668 0.419324 0.0842372
0.109561 0.424225 0.0623488
0.115815 0.431094 0.0300374
0.448722 0.443892 -0.0297661
0.449686 0.44022 -0.0124617
0.451898 0.43818 -0.00348663
0.45446 0.436163 0.00545275
0.457418 0.435648 0.0104054
0.460753 0.434066 0.0163722
0.464549 0.43336 0.020726
0.467871 0.432436 0.0236715
0.472304 0.432108 0.0237505
0.477252 0.432639 0.0212067
0.072811 0.445262 -0.0157712
0.0720982 0.415895 0.118841
0.0761679 0.414028 0.127668
0.0800905 0.413208 0.131395
0.0845092 0.412726 0.131106
0.0884621 0.413175 0.131658
0.0930019 0.414149 0.124308
0.0978971 0.417701 0.111499
0.103251 0.421995 0.090487
0.109596 0.428324 0.0639511
0.453556 0.449606 -0.0322309
0.453191 0.444427 -0.0102856
0.455468 0.442013 0.000740767
0.458407 0.439931 0.00838923
0.461354 0.439202 0.0134964
0.464982 0.438477 0.0169071
0.468754 0.437595 0.0209764
0.473312 0.437349 0.0206975
0.478923 0.438568 0.0160522
0.0727706 0.44947 -0.0137355
0.0722744 0.421548 0.113276
0.0762344 0.418459 0.126555
0.0800585 0.417114 0.131336
0.0843032 0.416527 0.13299
0.0882235 0.417271 0.132979
0.0929509 0.417435 0.128998
0.0973534 0.419763 0.11967
0.103097 0.425233 0.0965977
0.108285 0.430238 0.073251
0.456663 0.452427 -0.0262582
0.456863 0.448281 -0.00654316
0.459375 0.445989 0.00348961
0.462303 0.444476 0.009781
0.465228 0.443189 0.0153811
0.46935 0.443221 0.017036
0.473586 0.442487 0.0187118
0.479506 0.443716 0.0129911
0.076215 0.448466 0.0128301
0.0760837 0.423358 0.122918
0.0799789 0.421761 0.130711
0.0841933 0.421016 0.13279
0.0883825 0.420814 0.134235
0.0926504 0.421113 0.132945
0.097213 0.42281 0.125722
0.102941 0.427711 0.102273
0.108587 0.434429 0.0742168
0.460393 0.455465 -0.0194182
0.461071 0.451836 -0.00361109
0.463455 0.449768 0.00481904
0.466587 0.448871 0.0101106
0.470127 0.447924 0.0141956
0.474299 0.44774 0.0153222
0.479641 0.448225 0.010941
0.0762371 0.451657 0.0176284
0.0763957 0.428527 0.119198
0.0799952 0.426125 0.129242
0.0840079 0.425466 0.133452
0.0883037 0.424641 0.134542
0.0925939 0.424786 0.134554
0.0965959 0.425706 0.130698
0.102246 0.429801 0.111531
0.107925 0.436959 0.0815233
0.465385 0.45688 -0.00441504
0.468024 0.454473 0.0049721
0.471766 0.453609 0.00809896
0.476372 0.453757 0.00836945
0.0759399 0.455925 0.0186874
0.0765013 0.4353 0.108454
0.0803019 0.430888 0.126295
0.0839259 0.429588 0.132911
0.0882753 0.42944 0.135067
0.0924853 0.428487 0.136739
0.0966648 0.429534 0.131782
0.101633 0.432614 0.120434
0.108368 0.4413 0.0812013
0.47098 0.461774 -0.00807619
0.473815 0.460028 -0.000678301
0.47881 0.460815 -0.00390577
0.0758596 0.459802 0.0216863
0.0790369 0.45109 0.0565511
0.080648 0.43531 0.124942
0.0840164 0.434025 0.130862
0.0884389 0.433421 0.134472
0.0922817 0.432405 0.137014
0.0965398 0.433662 0.134181
0.101565 0.435527 0.125651
0.10747 0.443345 0.0922626
0.075729 0.463242 0.0235668
0.079196 0.45669 0.0525999
0.0807536 0.441449 0.118361
0.0840927 0.437987 0.130434
0.088132 0.437666 0.133743
0.0924176 0.436959 0.137417
0.0968818 0.437856 0.133895
0.101282 0.438849 0.128138
0.106869 0.445489 0.0999538
0.0755819 0.46731 0.0253421
0.0788996 0.46246 0.0485101
0.0809252 0.447613 0.109692
0.0843369 0.443496 0.126233
0.0885008 0.442484 0.131602
0.0925128 0.441033 0.136032
0.0968373 0.441196 0.134959
0.101137 0.442762 0.12995
0.106661 0.448432 0.105274
0.0791 0.466636 0.0481062
0.0816561 0.454421 0.100163
0.0851093 0.448475 0.123356
0.0889538 0.447143 0.129973
0.0925067 0.446251 0.134116
0.0969254 0.445909 0.133639
0.101147 0.447244 0.129487
0.107158 0.453319 0.103052
0.0790386 0.470833 0.0490745
0.0822092 0.461497 0.0869789
0.0849917 0.454515 0.116817
0.0886409 0.452455 0.125951
0.0927791 0.450516 0.132435
0.0967106 0.450716 0.131823
0.101419 0.451768 0.128944
0.106599 0.456303 0.108839
0.0791559 0.475152 0.049561
0.0824017 0.468567 0.0768777
0.0853074 0.46074 0.108933
0.0886485 0.456867 0.12317
0.0927189 0.455894 0.128797
0.0965884 0.455216 0.131554
0.101435 0.455726 0.128944
0.0823823 0.474293 0.0713315
0.0858046 0.46731 0.100911
0.0897172 0.461652 0.120974
0.0929549 0.460532 0.126203
0.0967726 0.460132 0.128549
0.101087 0.460389 0.12732
0.0828221 0.478476 0.0697464
0.0858956 0.474005 0.090438
0.0896814 0.468978 0.111079
0.0936123 0.465701 0.12199
0.0971603 0.465068 0.124651
0.102058 0.465607 0.122159
0.0831655 0.484002 0.0666456
0.0862802 0.479517 0.0837978
0.0898074 0.475502 0.100384
0.0937698 0.472154 0.112976
0.0974597 0.471513 0.117265
0.101739 0.472636 0.112042
0.0870148 0.485392 0.0781268
0.0904375 0.481335 0.0932018
0.0943106 0.479342 0.101849
0.0986754 0.479373 0.103098
