ply
format ascii 1.0
element vertex 1661
property float x
property float y
property float z
end_header
-0.167026 -0.126726 0.190843
-0.16329 -0.126438 0.193302
-0.15908 -0.126139 0.193602
-0.154518 -0.125931 0.195738
-0.150513 -0.126098 0.197528
-0.146422 -0.125984 0.19904
-0.142027 -0.125814 0.201038
-0.137908 -0.125713 0.20119
-0.133777 -0.125718 0.201765
-0.129671 -0.125547 0.202505
-0.125731 -0.125427 0.203494
-0.121459 -0.12505 0.205073
-0.117465 -0.125691 0.205872
-0.113054 -0.125385 0.206651
-0.109236 -0.125145 0.20766
-0.105148 -0.125523 0.208607
-0.101174 -0.12504 0.210619
-0.0964281 -0.125157 0.2121
-0.0925239 -0.12527 0.212785
-0.0887605 -0.124628 0.213432
-0.0846696 -0.125113 0.214296
-0.080658 -0.124792 0.21554
-0.0761765 -0.124577 0.215587
-0.0723549 -0.124661 0.217193
-0.0683177 -0.124909 0.217426
-0.0644518 -0.124877 0.218256
-0.0598208 -0.124586 0.21734
-0.0562909 -0.12442 0.218744
-0.0519497 -0.124431 0.218957
-0.0482953 -0.124158 0.219809
-0.0441542 -0.124677 0.220124
-0.0397762 -0.124731 0.22013
-0.0359839 -0.124519 0.219934
-0.0323773 -0.124608 0.220889
-0.0283028 -0.124471 0.220725
-0.0242491 -0.124205 0.220685
-0.0201602 -0.124077 0.221721
-0.0161661 -0.124572 0.221677
-0.0121011 -0.124339 0.221539
-0.0080937 -0.12402 0.221436
-0.00391577 -0.124342 0.220979
0.000274214 -0.124589 0.220977
0.00387632 -0.124149 0.221271
0.00807987 -0.124341 0.220841
0.0120965 -0.12437 0.220092
0.0161013 -0.124611 0.218932
0.0200817 -0.124473 0.217531
0.024227 -0.124789 0.217133
0.0284662 -0.124731 0.21671
0.0319085 -0.124936 0.214655
0.0358693 -0.124639 0.2132
0.0405386 -0.12526 0.211535
0.0443527 -0.125083 0.210324
0.048632 -0.12526 0.208566
0.0525161 -0.125304 0.205866
0.0572118 -0.125712 0.200996
0.0611177 -0.12572 0.197296
0.0649435 -0.126434 0.194819
0.0690337 -0.126538 0.190256
0.0739501 -0.127072 0.185403
0.0786929 -0.127674 0.177516
0.0823363 -0.127737 0.171325
0.0868123 -0.128377 0.163204
0.0911202 -0.12908 0.157413
0.095995 -0.129321 0.150207
0.100386 -0.129783 0.147493
0.104663 -0.129453 0.145254
0.108659 -0.129584 0.144391
0.113123 -0.12969 0.142046
0.117585 -0.129999 0.14096
0.121502 -0.130056 0.139136
0.126374 -0.129956 0.138779
0.129891 -0.130424 0.137676
0.134307 -0.130105 0.136523
0.138663 -0.130187 0.135567
0.143002 -0.130782 0.133239
0.147296 -0.130341 0.132682
0.152122 -0.13056 0.131087
0.15645 -0.130465 0.130152
0.160685 -0.130854 0.128927
0.164855 -0.131034 0.126964
0.169305 -0.130829 0.126124
0.173649 -0.130979 0.125868
0.177842 -0.131374 0.124088
0.182078 -0.130875 0.124584
0.186366 -0.131167 0.123503
0.190467 -0.131246 0.122937
0.194594 -0.130993 0.122389
0.199104 -0.131282 0.121893
0.203121 -0.131644 0.121981
0.207874 -0.13116 0.120205
0.212035 -0.131779 0.120314
0.216094 -0.1315 0.120998
0.220015 -0.131802 0.120787
0.224398 -0.131343 0.121832
0.228288 -0.131514 0.121155
0.233149 -0.131624 0.121076
0.237312 -0.131222 0.121132
0.242092 -0.131441 0.120906
0.2458 -0.131326 0.120657
0.25024 -0.131291 0.11942
0.254328 -0.131652 0.119713
0.259239 -0.131821 0.118176
0.263266 -0.131581 0.116722
0.267684 -0.131972 0.114324
0.272269 -0.132093 0.112919
0.277284 -0.131827 0.109836
0.281869 -0.132213 0.107261
0.286269 -0.132591 0.104799
0.291155 -0.132397 0.103716
0.29555 -0.132838 0.10183
0.299958 -0.132841 0.100222
0.304319 -0.132955 0.0989184
0.308505 -0.133099 0.0987997
0.313406 -0.13298 0.0955099
0.318133 -0.133075 0.0939972
0.322325 -0.133429 0.0931654
0.32725 -0.133516 0.0906557
0.331233 -0.133128 0.0890887
0.336537 -0.133868 0.0867434
0.341413 -0.133673 0.0851411
0.346125 -0.133883 0.0830194
0.350965 -0.134233 0.0801766
0.355595 -0.134223 0.0783547
0.359653 -0.134716 0.0775115
0.364683 -0.134606 0.0738776
0.36959 -0.134795 0.0718704
0.37466 -0.135287 0.0682864
0.379647 -0.135148 0.0650553
0.384749 -0.135597 0.0604988
0.390923 -0.136206 0.0542419
0.396514 -0.136241 0.0468355
0.401894 -0.136722 0.0400112
0.408695 -0.137556 0.0304744
0.414067 -0.138173 0.0237521
0.420412 -0.138373 0.0160257
0.426962 -0.139043 0.00730395
0.433763 -0.14029 -0.00337362
0.442695 -0.141533 -0.0239911
-0.397093 -0.135213 -0.000748396
-0.38725 -0.133505 0.0262632
-0.379058 -0.132314 0.0464042
-0.37188 -0.131258 0.0590426
-0.366646 -0.130696 0.0663303
-0.35991 -0.13006 0.0752416
-0.35499 -0.129258 0.0804446
-0.350043 -0.129404 0.0865425
-0.34417 -0.129542 0.0920125
-0.33941 -0.128467 0.0962584
-0.333947 -0.128216 0.101597
-0.329045 -0.128331 0.105355
-0.324268 -0.12804 0.109702
-0.319425 -0.12814 0.111847
-0.314309 -0.127408 0.115961
-0.309851 -0.127278 0.117933
-0.305155 -0.12707 0.120837
-0.30037 -0.126953 0.123852
-0.295884 -0.126723 0.126435
-0.29115 -0.126551 0.129156
-0.28621 -0.125954 0.132639
-0.281743 -0.126385 0.134705
-0.276949 -0.12577 0.137398
-0.272466 -0.125724 0.140031
-0.268445 -0.125837 0.1413
-0.264053 -0.12553 0.143328
-0.259655 -0.125522 0.144938
-0.25523 -0.125436 0.145934
-0.251112 -0.125045 0.147771
-0.246114 -0.124993 0.149201
-0.241339 -0.124988 0.15157
-0.237015 -0.12493 0.154082
-0.232956 -0.12456 0.155028
-0.228727 -0.124609 0.156391
-0.224302 -0.124273 0.159151
-0.219538 -0.124241 0.162184
-0.215194 -0.124084 0.163977
-0.21031 -0.12425 0.166601
-0.206849 -0.123976 0.16889
-0.20219 -0.123529 0.171238
-0.197303 -0.123612 0.174632
-0.193335 -0.123531 0.177158
-0.188474 -0.122752 0.179786
-0.184519 -0.123041 0.181833
-0.180451 -0.12254 0.184117
-0.17581 -0.122779 0.185489
-0.171948 -0.122894 0.186595
-0.167291 -0.122316 0.189143
-0.163491 -0.122487 0.189916
-0.158882 -0.122218 0.191767
-0.154935 -0.122068 0.193842
-0.150922 -0.122266 0.195146
-0.146339 -0.122373 0.197291
-0.141942 -0.121991 0.199059
-0.137794 -0.121862 0.200575
-0.133909 -0.121669 0.201471
-0.130088 -0.121634 0.201895
-0.125538 -0.121402 0.202844
-0.121934 -0.121471 0.203172
-0.117301 -0.121191 0.204914
-0.11347 -0.121507 0.205486
-0.108825 -0.121445 0.207205
-0.105046 -0.12108 0.207911
-0.101122 -0.121255 0.208662
-0.096749 -0.120755 0.21019
-0.0927142 -0.1209 0.210472
-0.0886026 -0.12058 0.212743
-0.0843731 -0.121157 0.213606
-0.0805403 -0.120675 0.214234
-0.0766933 -0.120583 0.214146
-0.0723744 -0.120824 0.215213
-0.0679882 -0.12097 0.214403
-0.0643237 -0.120538 0.21536
-0.0602681 -0.120718 0.216359
-0.0562684 -0.12053 0.216678
-0.052337 -0.121003 0.216801
-0.0485222 -0.120396 0.218139
-0.0443102 -0.120628 0.218509
-0.0398902 -0.120593 0.216769
-0.0364379 -0.120422 0.218985
-0.0324487 -0.120739 0.218858
-0.0282613 -0.120422 0.219395
-0.0239062 -0.120334 0.219406
-0.0201488 -0.120744 0.219861
-0.0161015 -0.120769 0.219562
-0.0119797 -0.120237 0.219027
-0.00801675 -0.120202 0.219879
-0.00390225 -0.120766 0.219017
-0.000531612 -0.12058 0.217633
0.00377831 -0.120742 0.217793
0.00837815 -0.120588 0.217169
0.011841 -0.120991 0.216827
0.0158631 -0.120753 0.21635
0.0199836 -0.120817 0.216256
0.0242125 -0.120389 0.213832
0.0280724 -0.120795 0.213437
0.0326173 -0.121283 0.212235
0.0364512 -0.120825 0.21107
0.0405198 -0.121276 0.208962
0.0444027 -0.12171 0.207264
0.0482277 -0.121358 0.203888
0.053127 -0.121162 0.200692
0.0567535 -0.121584 0.198425
0.0612308 -0.12228 0.194613
0.0653386 -0.122344 0.189828
0.0693089 -0.122387 0.186135
0.0736156 -0.12321 0.179183
0.0784787 -0.123619 0.172313
0.0825984 -0.12407 0.165387
0.0870447 -0.124883 0.159448
0.0915971 -0.125181 0.15296
0.0963606 -0.125134 0.148386
0.100356 -0.125269 0.146857
0.104975 -0.125643 0.144089
0.10872 -0.12576 0.142676
0.113041 -0.125635 0.142143
0.117517 -0.125787 0.140411
0.121613 -0.126077 0.139586
0.126298 -0.12554 0.13824
0.130084 -0.126004 0.13735
0.134311 -0.125986 0.13727
0.138937 -0.126366 0.135119
0.143072 -0.126159 0.133883
0.147421 -0.126402 0.133629
0.151538 -0.12641 0.132263
0.155835 -0.126296 0.130754
0.160675 -0.126452 0.130492
0.164919 -0.126512 0.129334
0.168956 -0.126665 0.127145
0.173689 -0.1264 0.126945
0.177714 -0.126915 0.125535
0.182256 -0.126458 0.123909
0.186087 -0.126744 0.124389
0.190521 -0.126968 0.123489
0.194783 -0.127125 0.123377
0.198822 -0.127061 0.122272
0.203486 -0.1271 0.121315
0.207799 -0.127412 0.120361
0.211579 -0.127207 0.121421
0.215756 -0.12734 0.120559
0.220556 -0.126622 0.121207
0.223926 -0.127416 0.12121
0.228941 -0.126897 0.121691
0.232802 -0.127376 0.120898
0.237467 -0.127399 0.122269
0.241285 -0.126943 0.121471
0.245771 -0.12708 0.121279
0.250167 -0.127384 0.120238
0.254708 -0.127419 0.118751
0.259195 -0.127131 0.118617
0.263421 -0.127639 0.116225
0.268101 -0.127724 0.114679
0.272588 -0.127468 0.112379
0.277035 -0.127891 0.109219
0.281643 -0.128043 0.10746
0.286291 -0.127507 0.105166
0.290967 -0.12812 0.102267
0.295201 -0.12827 0.101513
0.3002 -0.128959 0.0994577
0.304714 -0.128733 0.0982456
0.308989 -0.128557 0.097033
0.313609 -0.128545 0.095871
0.318615 -0.129131 0.0931714
0.323043 -0.129305 0.0917677
0.327149 -0.128817 0.0899265
0.332361 -0.12989 0.0876541
0.337221 -0.12951 0.0850273
0.341 -0.129522 0.0849987
0.345821 -0.130267 0.0831357
0.350546 -0.129643 0.0806336
0.355599 -0.130084 0.0784556
0.359883 -0.130352 0.0766964
0.364665 -0.130496 0.0739377
0.369707 -0.130224 0.0717814
0.374415 -0.130701 0.0694932
0.379461 -0.130901 0.0657279
0.385069 -0.131454 0.0603533
0.390507 -0.13191 0.0541673
0.396255 -0.132153 0.0479759
0.402738 -0.132704 0.0392623
0.409136 -0.133189 0.0303907
0.414303 -0.133805 0.0244755
0.42031 -0.134067 0.0172508
0.425789 -0.134916 0.0100371
0.433864 -0.135143 -0.00193286
0.442195 -0.136535 -0.0211837
-0.397099 -0.13079 -0.00136232
-0.387109 -0.128639 0.0263137
-0.379918 -0.12766 0.0429635
-0.372306 -0.127 0.0574296
-0.366767 -0.126733 0.0644344
-0.361454 -0.126124 0.071156
-0.355397 -0.125469 0.0786275
-0.349972 -0.12516 0.0839558
-0.345274 -0.124962 0.0887896
-0.339275 -0.124753 0.0956706
-0.334537 -0.124073 0.0999688
-0.329118 -0.123784 0.104126
-0.324427 -0.123406 0.107567
-0.319283 -0.123852 0.112607
-0.314325 -0.122969 0.114561
-0.31021 -0.123169 0.116693
-0.305054 -0.123133 0.12048
-0.300367 -0.122431 0.123007
-0.295631 -0.122465 0.126185
-0.291548 -0.122211 0.12801
-0.286609 -0.122441 0.131505
-0.281753 -0.122065 0.133083
-0.277622 -0.121955 0.13564
-0.272691 -0.121864 0.137554
-0.268156 -0.121816 0.140695
-0.263952 -0.121812 0.141825
-0.259579 -0.121123 0.143388
-0.255549 -0.1211 0.144744
-0.25058 -0.121142 0.147297
-0.246445 -0.120714 0.148971
-0.242353 -0.121293 0.150403
-0.237483 -0.120649 0.151898
-0.233138 -0.120718 0.153476
-0.228884 -0.120854 0.155553
-0.224538 -0.120295 0.157186
-0.220111 -0.120412 0.159061
-0.215904 -0.120338 0.161033
-0.211128 -0.120388 0.163085
-0.206355 -0.119481 0.166348
-0.202338 -0.119913 0.168358
-0.198045 -0.119546 0.171369
-0.193325 -0.119385 0.175475
-0.189167 -0.11944 0.176964
-0.184633 -0.119109 0.179928
-0.180325 -0.118832 0.18136
-0.176323 -0.119046 0.182495
-0.171952 -0.119149 0.18497
-0.167444 -0.118759 0.186621
-0.163055 -0.118684 0.188409
-0.158628 -0.118261 0.191659
-0.154733 -0.118385 0.192722
-0.150876 -0.1184 0.194088
-0.146634 -0.117584 0.195439
-0.142321 -0.117747 0.197471
-0.138371 -0.11722 0.198098
-0.133841 -0.11782 0.199299
-0.130047 -0.117401 0.20015
-0.12627 -0.117861 0.200707
-0.121911 -0.117434 0.201892
-0.117267 -0.117842 0.203403
-0.113508 -0.117255 0.204716
-0.109381 -0.117657 0.20568
-0.105347 -0.117319 0.206606
-0.100918 -0.117155 0.207968
-0.097001 -0.117087 0.20855
-0.0927926 -0.117219 0.209137
-0.0889571 -0.117062 0.210545
-0.0849358 -0.117034 0.211196
-0.0804699 -0.117192 0.212456
-0.0768396 -0.116809 0.212363
-0.0726063 -0.117193 0.213181
-0.0685518 -0.116627 0.213697
-0.0641698 -0.117069 0.214242
-0.0604303 -0.11676 0.215192
-0.056242 -0.116664 0.215065
-0.052137 -0.116352 0.215074
-0.0484724 -0.116922 0.215719
-0.0443455 -0.116508 0.216134
-0.0401377 -0.116755 0.217126
-0.0364546 -0.116786 0.216434
-0.0321552 -0.116687 0.216987
-0.0279072 -0.11688 0.217178
-0.0238719 -0.116311 0.216603
-0.0205364 -0.116558 0.217148
-0.0158881 -0.116703 0.217696
-0.0125464 -0.116568 0.217664
-0.00815852 -0.116837 0.21635
-0.0041512 -0.11687 0.216045
0.00034771 -0.11632 0.216025
0.00397657 -0.116689 0.215392
0.0082617 -0.116713 0.214638
0.0118721 -0.116754 0.21436
0.0163555 -0.117059 0.213358
0.020262 -0.116845 0.21286
0.024138 -0.117394 0.210841
0.0281574 -0.117062 0.209676
0.0323404 -0.117219 0.208557
0.0362268 -0.117376 0.207386
0.040327 -0.117411 0.205153
0.0448606 -0.117602 0.202506
0.0484875 -0.117404 0.200501
0.0527353 -0.118124 0.197527
0.0568917 -0.11804 0.193707
0.0610209 -0.118152 0.19036
0.0654302 -0.118939 0.186273
0.0695263 -0.118874 0.180447
0.074055 -0.119532 0.174723
0.0784807 -0.119763 0.166541
0.0830375 -0.120102 0.160568
0.0876666 -0.120578 0.154268
0.0918279 -0.120983 0.150157
0.0959112 -0.121229 0.148036
0.100338 -0.121493 0.145584
0.104884 -0.120746 0.143173
0.10915 -0.121531 0.141832
0.113304 -0.121775 0.141492
0.116948 -0.121432 0.140897
0.122145 -0.121735 0.139136
0.126154 -0.121746 0.137997
0.130325 -0.121843 0.138232
0.133964 -0.121562 0.136754
0.138819 -0.122002 0.135454
0.143147 -0.121763 0.135033
0.147303 -0.121957 0.133384
0.151531 -0.122189 0.131861
0.155937 -0.122335 0.131001
0.160059 -0.122336 0.131074
0.16463 -0.122085 0.129201
0.168822 -0.12255 0.127385
0.173392 -0.122311 0.127696
0.178204 -0.12265 0.124879
0.181746 -0.122423 0.124848
0.185975 -0.122307 0.12456
0.190248 -0.123182 0.123625
0.195009 -0.123351 0.123196
0.198963 -0.122947 0.123171
0.202932 -0.122905 0.12231
0.207498 -0.123008 0.121066
0.212188 -0.123058 0.12169
0.216176 -0.122552 0.121776
0.220303 -0.123125 0.121453
0.224875 -0.122479 0.121464
0.228632 -0.123168 0.12187
0.232613 -0.122853 0.120933
0.237528 -0.12299 0.120813
0.241402 -0.122595 0.121723
0.245851 -0.12263 0.121394
0.249769 -0.123014 0.120767
0.25413 -0.123095 0.119398
0.259035 -0.123207 0.118401
0.263299 -0.123433 0.116865
0.268133 -0.122734 0.114541
0.272563 -0.123494 0.111491
0.277285 -0.123876 0.109704
0.281851 -0.123872 0.106699
0.286185 -0.123983 0.105011
0.291021 -0.124039 0.102635
0.29561 -0.124532 0.100544
0.300096 -0.124322 0.100177
0.304798 -0.124657 0.0982838
0.30927 -0.124536 0.0969825
0.313646 -0.124186 0.0958909
0.318327 -0.124662 0.0940289
0.323335 -0.124802 0.0913265
0.327772 -0.124943 0.0897979
0.33163 -0.124879 0.088056
0.337002 -0.125163 0.0852396
0.341504 -0.125211 0.0838933
0.346725 -0.125465 0.0815164
0.350948 -0.125539 0.0797546
0.355391 -0.125516 0.0788296
0.3601 -0.125867 0.0759672
0.364827 -0.126003 0.0742606
0.369475 -0.126341 0.0715975
0.374587 -0.126023 0.0680782
0.37989 -0.126797 0.0650222
0.384489 -0.126753 0.0606489
0.390565 -0.126922 0.0546129
0.396099 -0.127851 0.0484027
0.402754 -0.128527 0.0394312
0.408307 -0.128683 0.0327885
0.414014 -0.128763 0.0254598
0.419706 -0.129862 0.0197279
0.426277 -0.130312 0.0107126
0.432694 -0.13063 0.00122344
0.44247 -0.132341 -0.0215881
0.453936 -0.134871 -0.0524774
-0.387994 -0.124896 0.0227731
-0.380272 -0.123867 0.0409896
-0.372764 -0.122836 0.0545162
-0.36701 -0.122387 0.0632502
-0.361429 -0.122244 0.0695399
-0.355478 -0.121512 0.0766737
-0.350517 -0.12134 0.0820076
-0.345036 -0.121066 0.0867391
-0.339442 -0.120558 0.0931574
-0.334793 -0.120396 0.097519
-0.329457 -0.119676 0.102198
-0.324525 -0.119519 0.10547
-0.319855 -0.119474 0.109036
-0.315085 -0.119108 0.112423
-0.30997 -0.11899 0.116098
-0.305534 -0.118526 0.119493
-0.300491 -0.118832 0.121813
-0.295692 -0.118189 0.124773
-0.291357 -0.117956 0.127097
-0.286807 -0.117752 0.130596
-0.282067 -0.117787 0.133127
-0.277567 -0.117875 0.134492
-0.27321 -0.118003 0.136978
-0.268934 -0.117752 0.13882
-0.264182 -0.117248 0.140608
-0.259576 -0.117398 0.142421
-0.255126 -0.11697 0.143973
-0.250472 -0.116849 0.145795
-0.246483 -0.116825 0.147484
-0.242201 -0.116886 0.148236
-0.238064 -0.116669 0.150263
-0.233444 -0.116922 0.152259
-0.22889 -0.116799 0.154216
-0.224659 -0.116328 0.154917
-0.220571 -0.116563 0.157183
-0.215858 -0.116266 0.158607
-0.211625 -0.116086 0.160086
-0.20743 -0.115938 0.162725
-0.202993 -0.116351 0.165631
-0.198135 -0.115657 0.169086
-0.194074 -0.11547 0.171603
-0.189392 -0.115301 0.174236
-0.185341 -0.115071 0.176436
-0.181015 -0.115063 0.178991
-0.176232 -0.115042 0.181322
-0.172051 -0.11495 0.182294
-0.167724 -0.11468 0.183431
-0.163836 -0.114554 0.185948
-0.159034 -0.114455 0.187997
-0.155257 -0.114154 0.18955
-0.151096 -0.11369 0.191149
-0.146591 -0.114037 0.193736
-0.142588 -0.11405 0.194816
-0.137943 -0.114064 0.196526
-0.134338 -0.113586 0.197414
-0.130134 -0.113672 0.198776
-0.125393 -0.11372 0.20021
-0.121677 -0.114105 0.200459
-0.117762 -0.113789 0.20161
-0.113692 -0.11338 0.202303
-0.109154 -0.113701 0.204205
-0.10528 -0.113419 0.205166
-0.101189 -0.113557 0.205938
-0.0969784 -0.113653 0.207113
-0.0928372 -0.113405 0.207285
-0.088755 -0.113074 0.208763
-0.0848938 -0.113083 0.209427
-0.0807151 -0.113034 0.20989
-0.0767848 -0.11342 0.211326
-0.0724303 -0.11301 0.210958
-0.0686728 -0.112851 0.210776
-0.0642935 -0.112848 0.211376
-0.0605991 -0.112782 0.212077
-0.0565321 -0.112957 0.213289
-0.0525048 -0.112903 0.213681
-0.0481854 -0.112518 0.213166
-0.0440607 -0.112723 0.214586
-0.0402063 -0.113008 0.212846
-0.036315 -0.112656 0.213812
-0.0325131 -0.112769 0.214399
-0.0281279 -0.112918 0.213903
-0.0243874 -0.112782 0.214213
-0.0201125 -0.112811 0.213534
-0.0166242 -0.112917 0.214629
-0.0115865 -0.113183 0.214219
-0.00819149 -0.112823 0.214586
-0.0042314 -0.112917 0.212621
-0.000487426 -0.113216 0.212146
0.00435559 -0.112716 0.211147
0.00820938 -0.113005 0.211523
0.0121018 -0.113002 0.210924
0.0161518 -0.113018 0.210934
0.0203411 -0.113299 0.209817
0.0241037 -0.113703 0.207956
0.0280947 -0.11335 0.206699
0.0320422 -0.113143 0.205437
0.0365146 -0.113615 0.203469
0.0402928 -0.113418 0.200814
0.0444811 -0.113876 0.198838
0.0490773 -0.114389 0.195884
0.0532121 -0.113934 0.19184
0.057443 -0.114309 0.188458
0.0615804 -0.114418 0.184542
0.065551 -0.114886 0.179598
0.0701697 -0.115628 0.174219
0.0744193 -0.115708 0.167106
0.0792304 -0.116085 0.160309
0.083881 -0.116444 0.15406
0.0878731 -0.116649 0.150463
0.0919192 -0.117118 0.148023
0.0963107 -0.116839 0.14553
0.100372 -0.117139 0.14487
0.104449 -0.117105 0.142495
0.109241 -0.117094 0.141655
0.113702 -0.117431 0.140983
0.117551 -0.117505 0.139501
0.121883 -0.117316 0.139148
0.126071 -0.117594 0.137749
0.129969 -0.117671 0.138459
0.134533 -0.117671 0.136491
0.138546 -0.117799 0.135609
0.143122 -0.117732 0.13384
0.147621 -0.118216 0.133293
0.15155 -0.117946 0.132254
0.156167 -0.118373 0.131157
0.160278 -0.117898 0.130862
0.164483 -0.118147 0.129701
0.168932 -0.118222 0.128827
0.173193 -0.118262 0.127188
0.177416 -0.117696 0.126558
0.181766 -0.11818 0.124392
0.186628 -0.118021 0.124769
0.190475 -0.118537 0.123847
0.194752 -0.118742 0.12292
0.198905 -0.118375 0.12197
0.203615 -0.118614 0.122361
0.207069 -0.118702 0.121308
0.211626 -0.118663 0.121336
0.216192 -0.118639 0.121208
0.220199 -0.118305 0.121725
0.224465 -0.118695 0.122165
0.229129 -0.118642 0.121548
0.233071 -0.118855 0.12189
0.237191 -0.118827 0.121802
0.241188 -0.118766 0.121292
0.2455 -0.118789 0.120746
0.250218 -0.118605 0.120053
0.255201 -0.118743 0.11868
0.25888 -0.118984 0.118371
0.263393 -0.119029 0.116302
0.267727 -0.118643 0.11449
0.272694 -0.119022 0.111471
0.276717 -0.119624 0.109725
0.281932 -0.119697 0.106949
0.28612 -0.119872 0.104526
0.290775 -0.120041 0.103411
0.295494 -0.120521 0.101652
0.300138 -0.119629 0.0997204
0.304513 -0.119594 0.0986402
0.309238 -0.119979 0.0973414
0.313502 -0.120714 0.0958081
0.318617 -0.120444 0.0932043
0.322995 -0.12019 0.0908058
0.327436 -0.120665 0.0890381
0.33187 -0.120514 0.08831
0.336678 -0.120443 0.0862396
0.341557 -0.121405 0.083007
0.346409 -0.121201 0.0807816
0.350931 -0.121182 0.0801024
0.355383 -0.121214 0.0786017
0.360068 -0.121699 0.076148
0.364717 -0.121511 0.0740193
0.369534 -0.121973 0.0720638
0.37456 -0.122071 0.0684193
0.37982 -0.122483 0.0645521
0.384546 -0.121979 0.0616379
0.390568 -0.123159 0.0554646
0.396125 -0.123183 0.0487283
0.402085 -0.123551 0.0406539
0.408346 -0.123694 0.0331739
0.413684 -0.124527 0.0268722
0.419873 -0.125117 0.0191829
0.425424 -0.125627 0.0132822
0.432351 -0.126225 0.00262606
0.440466 -0.126839 -0.0151613
0.451433 -0.128714 -0.0446198
-0.388071 -0.120601 0.0213234
-0.38002 -0.119703 0.039816
-0.373446 -0.118604 0.0524577
-0.367805 -0.118074 0.0595727
-0.361666 -0.11778 0.0668441
-0.35684 -0.117537 0.0719767
-0.351267 -0.117122 0.0783025
-0.346051 -0.116488 0.0836048
-0.340448 -0.116677 0.0894914
-0.335099 -0.116129 0.0947368
-0.330225 -0.116088 0.0992924
-0.32494 -0.11561 0.10375
-0.320008 -0.115246 0.107702
-0.314826 -0.115185 0.11202
-0.309353 -0.114528 0.115741
-0.305507 -0.114411 0.118447
-0.300502 -0.113858 0.120632
-0.296564 -0.11429 0.122816
-0.291511 -0.114085 0.125939
-0.287099 -0.113991 0.128014
-0.282718 -0.113525 0.131197
-0.277843 -0.113188 0.132702
-0.273255 -0.113579 0.135996
-0.268441 -0.113326 0.137918
-0.264467 -0.113401 0.139372
-0.259504 -0.113475 0.141611
-0.255588 -0.113118 0.142797
-0.25147 -0.11297 0.143108
-0.246903 -0.113243 0.145284
-0.242131 -0.112702 0.147068
-0.237451 -0.112712 0.149366
-0.233519 -0.112586 0.150363
-0.22925 -0.112308 0.151793
-0.224732 -0.112309 0.153147
-0.220492 -0.112552 0.155235
-0.216146 -0.11258 0.156615
-0.212162 -0.111774 0.157505
-0.207727 -0.111828 0.159671
-0.202674 -0.111434 0.16292
-0.198949 -0.111413 0.165288
-0.193805 -0.111431 0.168745
-0.189985 -0.111271 0.170571
-0.185732 -0.111011 0.172511
-0.180961 -0.111026 0.175522
-0.176516 -0.110969 0.177683
-0.172289 -0.110889 0.179399
-0.167969 -0.110686 0.182183
-0.163704 -0.110793 0.182796
-0.15959 -0.110485 0.185476
-0.155841 -0.110209 0.186985
-0.151452 -0.110354 0.189561
-0.146972 -0.110114 0.190717
-0.142695 -0.11016 0.193258
-0.138432 -0.110105 0.194524
-0.134676 -0.110488 0.195211
-0.130272 -0.109601 0.19688
-0.125837 -0.109863 0.197803
-0.122088 -0.109684 0.198475
-0.117657 -0.109792 0.19957
-0.113411 -0.109404 0.201212
-0.109194 -0.109598 0.202282
-0.10567 -0.109899 0.203244
-0.101315 -0.109313 0.203808
-0.0972035 -0.109456 0.204811
-0.0931846 -0.109468 0.205575
-0.0889004 -0.109015 0.206231
-0.0844679 -0.109202 0.206821
-0.0807899 -0.109173 0.207345
-0.076671 -0.109191 0.20808
-0.0732814 -0.109041 0.208838
-0.0684233 -0.108594 0.209749
-0.0647869 -0.109077 0.210043
-0.0604628 -0.108758 0.210882
-0.0564424 -0.108889 0.209369
-0.0522659 -0.109106 0.210193
-0.0486958 -0.108866 0.210544
-0.0441121 -0.109166 0.211093
-0.0402438 -0.108844 0.210925
-0.0362477 -0.109145 0.209987
-0.0322836 -0.109104 0.211197
-0.0284163 -0.108869 0.21206
-0.0245274 -0.109015 0.210675
-0.0199096 -0.109075 0.209945
-0.0157269 -0.109385 0.211379
-0.0120509 -0.109024 0.210406
-0.0077563 -0.109096 0.209855
-0.00423225 -0.109034 0.209557
1.4519e-05 -0.108987 0.20891
0.00378173 -0.109056 0.208017
0.00849226 -0.109375 0.206669
0.0117248 -0.10921 0.206745
0.0161087 -0.10956 0.205072
0.0201598 -0.109301 0.204251
0.0244154 -0.109489 0.202513
0.0282486 -0.109479 0.201873
0.032502 -0.109215 0.199887
0.0365667 -0.109636 0.19764
0.0405751 -0.109572 0.195383
0.044932 -0.110214 0.192966
0.0492725 -0.110049 0.188185
0.0529905 -0.110227 0.185611
0.0576537 -0.111015 0.1813
0.0616702 -0.111359 0.177635
0.0662252 -0.111165 0.172136
0.0699566 -0.111851 0.167143
0.0750125 -0.1119 0.160004
0.0789731 -0.112139 0.157177
0.0834738 -0.112843 0.151918
0.0875867 -0.112649 0.14935
0.0918869 -0.113133 0.146498
0.0960721 -0.113106 0.145139
0.100404 -0.113303 0.144002
0.104668 -0.113529 0.142015
0.108686 -0.113034 0.141061
0.113405 -0.113174 0.140836
0.117222 -0.113128 0.139251
0.121898 -0.112976 0.138486
0.126189 -0.113528 0.137839
0.130119 -0.113166 0.137207
0.134629 -0.113608 0.136078
0.138512 -0.11346 0.135567
0.143103 -0.113574 0.134361
0.147218 -0.113973 0.134083
0.151425 -0.113907 0.132826
0.155651 -0.113706 0.132075
0.160001 -0.113911 0.130682
0.164854 -0.113761 0.130011
0.16889 -0.114151 0.128903
0.173422 -0.11397 0.126939
0.177301 -0.113956 0.127286
0.181507 -0.114092 0.125442
0.185925 -0.113928 0.124378
0.190344 -0.114209 0.124043
0.195022 -0.114228 0.123366
0.198832 -0.114578 0.122174
0.203383 -0.114252 0.121837
0.207588 -0.114004 0.121692
0.211564 -0.114198 0.122238
0.216082 -0.114723 0.121527
0.220584 -0.113989 0.122183
0.224428 -0.114552 0.121912
0.228692 -0.114488 0.121339
0.232962 -0.114292 0.121218
0.237101 -0.114289 0.121774
0.241822 -0.114529 0.120677
0.245572 -0.114357 0.121876
0.24951 -0.114748 0.120498
0.254173 -0.114685 0.11985
0.258793 -0.11419 0.119363
0.263066 -0.114917 0.11746
0.267657 -0.115006 0.114818
0.272403 -0.115186 0.111201
0.277417 -0.115121 0.109503
0.281645 -0.11549 0.107252
0.286433 -0.115619 0.103914
0.29093 -0.115014 0.1035
0.295319 -0.115444 0.101542
0.299894 -0.115745 0.09981
0.304354 -0.116061 0.0982158
0.309352 -0.115587 0.0965025
0.313683 -0.116047 0.0946506
0.318183 -0.11614 0.093428
0.322322 -0.116075 0.0915148
0.327521 -0.116369 0.0885465
0.332304 -0.116454 0.0868477
0.336781 -0.116703 0.0852942
0.34156 -0.116741 0.0830319
0.346212 -0.116945 0.0822845
0.350975 -0.11703 0.078612
0.355258 -0.116779 0.0785892
0.360005 -0.117339 0.0751907
0.36493 -0.11776 0.0747144
0.369553 -0.117429 0.0710629
0.374372 -0.117968 0.0687543
0.379914 -0.117647 0.0639429
0.38508 -0.118388 0.0608678
0.389796 -0.118192 0.0562264
0.395957 -0.118942 0.049361
0.401738 -0.119373 0.0422565
0.408292 -0.119213 0.0345047
0.413282 -0.120022 0.0285811
0.419622 -0.120846 0.0212393
0.425793 -0.120956 0.0138446
0.431773 -0.121267 0.00514865
0.440768 -0.122966 -0.0150437
0.453522 -0.124908 -0.0507057
-0.389407 -0.116615 0.0157614
-0.38089 -0.11525 0.0352139
-0.374106 -0.114411 0.0483909
-0.367967 -0.113683 0.0576309
-0.362831 -0.113879 0.0631517
-0.356834 -0.113251 0.0693587
-0.351587 -0.112667 0.0757
-0.346498 -0.112425 0.0804361
-0.341251 -0.112462 0.0853741
-0.335509 -0.111809 0.0918382
-0.330619 -0.111238 0.0966234
-0.325413 -0.111441 0.100978
-0.320953 -0.11134 0.104138
-0.315986 -0.110885 0.108127
-0.311059 -0.110867 0.111117
-0.30618 -0.110543 0.116026
-0.301146 -0.110447 0.118967
-0.296364 -0.110152 0.122203
-0.291841 -0.109999 0.124466
-0.287179 -0.109418 0.126647
-0.282555 -0.109831 0.128871
-0.278257 -0.109259 0.132222
-0.273252 -0.109624 0.134503
-0.269375 -0.108934 0.136177
-0.264782 -0.108935 0.137328
-0.260195 -0.108878 0.138857
-0.255454 -0.109043 0.140955
-0.25123 -0.109127 0.142784
-0.246929 -0.108853 0.14372
-0.242272 -0.109126 0.145732
-0.237913 -0.108544 0.147915
-0.233478 -0.108614 0.149234
-0.229631 -0.108481 0.15073
-0.225174 -0.108497 0.151754
-0.220771 -0.108251 0.153531
-0.216033 -0.108175 0.154572
-0.211842 -0.107952 0.155915
-0.208184 -0.107968 0.15705
-0.203055 -0.107954 0.159912
-0.19876 -0.107904 0.162851
-0.193891 -0.107546 0.165209
-0.189999 -0.107393 0.167874
-0.185606 -0.107575 0.170393
-0.181375 -0.106982 0.172125
-0.177398 -0.107202 0.174465
-0.172519 -0.107118 0.176998
-0.168242 -0.10659 0.177758
-0.163814 -0.106338 0.180108
-0.159737 -0.106488 0.182215
-0.155661 -0.106329 0.184773
-0.150712 -0.106116 0.186221
-0.146825 -0.106247 0.187609
-0.142695 -0.105925 0.189863
-0.138598 -0.105956 0.190753
-0.134179 -0.105803 0.19266
-0.130034 -0.105617 0.194083
-0.126343 -0.105926 0.194839
-0.122375 -0.105847 0.19572
-0.117759 -0.1058 0.197905
-0.113736 -0.10551 0.197565
-0.109929 -0.10551 0.198526
-0.105832 -0.105575 0.200605
-0.101316 -0.105531 0.201429
-0.0974496 -0.105716 0.20228
-0.0929601 -0.105294 0.202935
-0.0893769 -0.105365 0.203551
-0.0849993 -0.10502 0.203938
-0.0811235 -0.105216 0.204484
-0.0770516 -0.104899 0.206506
-0.0726861 -0.105017 0.206514
-0.0689551 -0.105313 0.206364
-0.0646332 -0.105504 0.20682
-0.0605276 -0.105177 0.207783
-0.0564243 -0.105227 0.208332
-0.0522001 -0.104929 0.207699
-0.048485 -0.105081 0.208133
-0.0442488 -0.105083 0.207557
-0.0401483 -0.104795 0.207762
-0.0362136 -0.105067 0.207767
-0.0321562 -0.105098 0.207942
-0.0277982 -0.104965 0.207473
-0.0241981 -0.105401 0.207928
-0.019629 -0.105286 0.207239
-0.0161982 -0.105098 0.207244
-0.0122996 -0.104762 0.206152
-0.00821895 -0.105181 0.206458
-0.00401502 -0.104988 0.204763
-0.000340191 -0.105025 0.204073
0.00431081 -0.105267 0.204485
0.00828627 -0.105349 0.203544
0.0125419 -0.105848 0.201614
0.0161853 -0.105632 0.201046
0.020058 -0.105667 0.200054
0.0245257 -0.1059 0.197287
0.0288132 -0.105366 0.195912
0.0327111 -0.106119 0.193816
0.0370414 -0.105871 0.190697
0.0407787 -0.106502 0.189965
0.0447651 -0.106175 0.186006
0.0491498 -0.106783 0.183429
0.0533264 -0.107039 0.180376
0.0575628 -0.106519 0.174847
0.0619147 -0.10735 0.170663
0.0662217 -0.107209 0.165025
0.0705296 -0.108058 0.161302
0.0745411 -0.107984 0.156187
0.0789221 -0.107798 0.152957
0.0831454 -0.108447 0.150985
0.0881103 -0.108724 0.146019
0.0919361 -0.109021 0.145058
0.0963409 -0.10893 0.144104
0.100427 -0.108756 0.14261
0.10491 -0.10878 0.141301
0.109039 -0.109304 0.139358
0.11314 -0.109005 0.139623
0.117516 -0.109335 0.13891
0.12193 -0.109281 0.139321
0.125816 -0.109167 0.136795
0.13038 -0.109277 0.136918
0.134393 -0.109466 0.136368
0.139 -0.109483 0.13495
0.142859 -0.10983 0.135079
0.147128 -0.109148 0.133815
0.151578 -0.109431 0.133663
0.155744 -0.109185 0.132258
0.160199 -0.109547 0.130991
0.164471 -0.10977 0.130324
0.168569 -0.109759 0.129702
0.173534 -0.109786 0.127369
0.177241 -0.109715 0.126828
0.181902 -0.110042 0.126378
0.186183 -0.109864 0.124849
0.190644 -0.109794 0.124533
0.19487 -0.109869 0.123176
0.199118 -0.109879 0.123094
0.203518 -0.110108 0.122413
0.207749 -0.110337 0.122424
0.211609 -0.110349 0.122413
0.215663 -0.109831 0.122498
0.220047 -0.110136 0.123053
0.22468 -0.110451 0.121497
0.228704 -0.110112 0.12183
0.23322 -0.109859 0.122025
0.237235 -0.110121 0.121522
0.241168 -0.1098 0.121642
0.24593 -0.109819 0.121214
0.249955 -0.110548 0.120857
0.254202 -0.110264 0.119929
0.258837 -0.110606 0.118437
0.263335 -0.110052 0.116779
0.267835 -0.110574 0.114827
0.272903 -0.111006 0.111381
0.27761 -0.111019 0.108926
0.281769 -0.111149 0.105313
0.286466 -0.111163 0.10384
0.290922 -0.111219 0.102523
0.295281 -0.111413 0.10101
0.300139 -0.111815 0.0997596
0.304888 -0.111492 0.0973207
0.309206 -0.11139 0.0968575
0.313921 -0.111499 0.0949385
0.318074 -0.111793 0.0926775
0.323078 -0.112225 0.0909413
0.327494 -0.112111 0.0893749
0.332629 -0.112404 0.0868386
0.336902 -0.112263 0.0844573
0.341579 -0.112452 0.0836406
0.34595 -0.112284 0.0813261
0.351132 -0.112445 0.0790783
0.355692 -0.112842 0.0766518
0.360346 -0.113011 0.0753475
0.365429 -0.113282 0.0731891
0.370155 -0.112901 0.0707675
0.374542 -0.113314 0.0680614
0.379527 -0.113582 0.064149
0.385122 -0.11342 0.0604877
0.390449 -0.114521 0.0550278
0.396396 -0.11485 0.0485288
0.402064 -0.114923 0.0423367
0.407587 -0.115177 0.0353668
0.413388 -0.115752 0.0284926
0.418819 -0.115956 0.023311
0.425779 -0.11636 0.0139456
0.431473 -0.117011 0.00627398
0.441231 -0.118296 -0.0161355
0.453907 -0.120603 -0.0525453
-0.390954 -0.11247 0.00949466
-0.381694 -0.111178 0.0308421
-0.374887 -0.110108 0.0445061
-0.368297 -0.109701 0.0543667
-0.363153 -0.10965 0.060408
-0.357678 -0.109087 0.0656304
-0.352141 -0.108774 0.0720248
-0.346604 -0.108518 0.0783088
-0.341508 -0.107766 0.0828847
-0.336419 -0.107658 0.0885185
-0.331367 -0.107246 0.0937616
-0.326048 -0.107482 0.0987092
-0.321354 -0.106875 0.102114
-0.316102 -0.106625 0.106161
-0.310601 -0.106652 0.110667
-0.306426 -0.106951 0.113413
-0.301231 -0.106306 0.116984
-0.296357 -0.106072 0.120518
-0.291959 -0.105963 0.123791
-0.28776 -0.10646 0.124778
-0.283178 -0.105593 0.127596
-0.278378 -0.10517 0.129573
-0.273687 -0.105251 0.132217
-0.268999 -0.105084 0.134968
-0.264562 -0.105073 0.137176
-0.260529 -0.104852 0.138329
-0.255973 -0.105007 0.140214
-0.251437 -0.10454 0.141875
-0.247265 -0.104521 0.142975
-0.242784 -0.104607 0.144809
-0.238405 -0.104493 0.145763
-0.234012 -0.10457 0.146668
-0.22964 -0.104599 0.149616
-0.225545 -0.104277 0.150139
-0.221052 -0.104032 0.151231
-0.216369 -0.104172 0.152407
-0.212125 -0.104297 0.154527
-0.208097 -0.104141 0.154967
-0.203391 -0.103971 0.15735
-0.199308 -0.103551 0.158731
-0.194886 -0.103465 0.161683
-0.190524 -0.103507 0.163356
-0.186699 -0.103572 0.166441
-0.181858 -0.103124 0.169255
-0.177224 -0.102891 0.171047
-0.172868 -0.103041 0.173056
-0.168855 -0.102532 0.17417
-0.164246 -0.102607 0.177262
-0.160825 -0.102918 0.177766
-0.155941 -0.102706 0.17973
-0.151857 -0.10257 0.181708
-0.147235 -0.102424 0.184487
-0.14323 -0.102437 0.186375
-0.138803 -0.102366 0.18902
-0.134657 -0.102022 0.189715
-0.130195 -0.10209 0.191244
-0.126551 -0.102007 0.192033
-0.122123 -0.101993 0.193831
-0.118144 -0.101904 0.194067
-0.114199 -0.101766 0.195076
-0.109539 -0.101352 0.196199
-0.106114 -0.101627 0.197489
-0.101855 -0.101585 0.197844
-0.0971613 -0.101706 0.199565
-0.0929934 -0.101707 0.200305
-0.0892635 -0.10108 0.20108
-0.0854992 -0.101446 0.201629
-0.0808595 -0.100951 0.202092
-0.0768992 -0.101258 0.202897
-0.0732614 -0.101422 0.203289
-0.0687943 -0.101007 0.20342
-0.0648787 -0.101404 0.203466
-0.0609331 -0.101424 0.203658
-0.0565249 -0.101312 0.204322
-0.0528117 -0.101327 0.203896
-0.0486385 -0.101398 0.203495
-0.0443595 -0.101025 0.204403
-0.0406472 -0.10128 0.204826
-0.0363462 -0.10151 0.205368
-0.0318755 -0.101189 0.204174
-0.0283336 -0.101055 0.204051
-0.0241375 -0.101255 0.203933
-0.0203187 -0.101099 0.204679
-0.0162807 -0.101208 0.201806
-0.0121984 -0.100985 0.202736
-0.00777968 -0.101133 0.202729
-0.00425442 -0.101281 0.200543
-0.000342184 -0.101959 0.201473
0.0041991 -0.10151 0.199888
0.0081899 -0.101156 0.197085
0.0121153 -0.101415 0.196182
0.0162103 -0.102151 0.196215
0.0205647 -0.101871 0.193984
0.0244318 -0.101893 0.192504
0.02838 -0.102278 0.190911
0.0328871 -0.101907 0.186977
0.0368473 -0.102212 0.185747
0.041171 -0.102528 0.18222
0.0450181 -0.10273 0.179596
0.049235 -0.102952 0.176074
0.0538712 -0.102938 0.170198
0.0582685 -0.103657 0.167282
0.0623215 -0.103485 0.163803
0.0661931 -0.103863 0.160695
0.0708386 -0.103995 0.155968
0.0752969 -0.104032 0.152991
0.0792529 -0.104527 0.150093
0.0832141 -0.104339 0.148632
0.0876986 -0.104478 0.145935
0.0920908 -0.104873 0.144032
0.0965307 -0.104175 0.142334
0.100499 -0.104924 0.14182
0.104965 -0.104701 0.140377
0.108831 -0.105058 0.13984
0.113684 -0.105181 0.139363
0.117541 -0.104941 0.137657
0.121751 -0.105472 0.137945
0.126098 -0.105063 0.136979
0.130423 -0.105127 0.136153
0.134647 -0.105205 0.135568
0.138558 -0.105065 0.134569
0.142903 -0.105242 0.134405
0.147224 -0.105264 0.133105
0.151536 -0.10527 0.132414
0.15587 -0.105451 0.13171
0.160114 -0.105062 0.131538
0.16463 -0.105462 0.129524
0.168926 -0.105189 0.128915
0.172916 -0.105509 0.128548
0.177695 -0.105724 0.127566
0.181677 -0.105508 0.125573
0.185995 -0.105762 0.125082
0.190734 -0.105703 0.12328
0.194513 -0.105813 0.123101
0.198907 -0.105289 0.123664
0.203316 -0.105607 0.122745
0.207455 -0.105884 0.122046
0.211654 -0.105784 0.122242
0.21605 -0.105958 0.121833
0.219991 -0.105774 0.121805
0.224771 -0.105919 0.122073
0.228608 -0.105888 0.12142
0.232848 -0.105949 0.12189
0.23748 -0.10604 0.12215
0.241533 -0.106194 0.12178
0.245551 -0.105917 0.121363
0.24966 -0.105871 0.119687
0.25437 -0.106023 0.119485
0.259508 -0.106262 0.116785
0.26343 -0.106031 0.116788
0.268129 -0.106424 0.114213
0.272504 -0.106482 0.111174
0.277117 -0.106731 0.108857
0.282053 -0.106795 0.106187
0.286559 -0.106974 0.103958
0.291159 -0.107008 0.101938
0.295182 -0.106958 0.100851
0.300368 -0.106712 0.0989342
0.30466 -0.107302 0.0978721
0.309283 -0.107474 0.0967979
0.313809 -0.107578 0.0952942
0.31823 -0.107544 0.0929749
0.323081 -0.108214 0.0905256
0.327844 -0.108 0.088322
0.331976 -0.107976 0.0874784
0.336869 -0.10823 0.0847068
0.341893 -0.108227 0.0823216
0.345491 -0.10845 0.0820488
0.351366 -0.108073 0.0779263
0.355576 -0.108528 0.0773921
0.360245 -0.108604 0.0754533
0.364982 -0.10817 0.072876
0.36992 -0.108947 0.070864
0.374758 -0.109543 0.0672038
0.380462 -0.108934 0.0639687
0.385282 -0.109794 0.0595109
0.390203 -0.109692 0.0554707
0.395274 -0.109736 0.0504332
0.401381 -0.109913 0.0441788
0.407829 -0.111039 0.036618
0.413325 -0.11083 0.030079
0.418793 -0.111316 0.0237889
0.425211 -0.111743 0.0153676
0.431668 -0.112275 0.00657928
0.439736 -0.113089 -0.0106587
0.453607 -0.116088 -0.0532279
-0.391411 -0.107923 0.00587213
-0.383154 -0.106568 0.0247719
-0.375717 -0.106342 0.0408653
-0.369259 -0.105278 0.0501367
-0.363626 -0.105181 0.0564976
-0.357868 -0.104753 0.0636714
-0.35271 -0.104507 0.068755
-0.347233 -0.104269 0.0749187
-0.342354 -0.104024 0.0796024
-0.33666 -0.103495 0.084923
-0.332199 -0.103386 0.0896925
-0.326422 -0.103194 0.095404
-0.321318 -0.102913 0.100164
-0.316495 -0.102284 0.103052
-0.311768 -0.101888 0.107331
-0.306361 -0.102631 0.111516
-0.302094 -0.101871 0.114455
-0.297328 -0.101714 0.118205
-0.292559 -0.101441 0.120537
-0.288055 -0.101777 0.123606
-0.283245 -0.101438 0.12692
-0.278897 -0.101332 0.129103
-0.274015 -0.101374 0.1311
-0.269543 -0.100979 0.133111
-0.264969 -0.100876 0.135183
-0.260672 -0.100815 0.136075
-0.255835 -0.100735 0.138978
-0.251334 -0.100325 0.140091
-0.247419 -0.100504 0.140972
-0.242928 -0.100781 0.142365
-0.238519 -0.100336 0.144693
-0.234202 -0.100419 0.145613
-0.229872 -0.100175 0.148224
-0.225649 -0.0999591 0.147585
-0.22149 -0.100389 0.149545
-0.21687 -0.100111 0.149993
-0.212626 -0.100309 0.15104
-0.208553 -0.0998527 0.152785
-0.203842 -0.0998133 0.15467
-0.200062 -0.0999593 0.155357
-0.19515 -0.0997309 0.157979
-0.190683 -0.0997433 0.161483
-0.186447 -0.0991282 0.163088
-0.182185 -0.0993756 0.164687
-0.177631 -0.0991606 0.167408
-0.173245 -0.0990857 0.169263
-0.169033 -0.0987686 0.171115
-0.164741 -0.0989466 0.172525
-0.160382 -0.0988651 0.174393
-0.156156 -0.098931 0.176949
-0.151954 -0.0983847 0.178311
-0.147989 -0.0985616 0.180341
-0.143338 -0.0984751 0.182678
-0.139667 -0.0982107 0.183993
-0.13482 -0.0981741 0.18625
-0.130967 -0.0983336 0.187263
-0.126708 -0.097874 0.187968
-0.122249 -0.0977319 0.189376
-0.118449 -0.0977135 0.191134
-0.114391 -0.0977021 0.191314
-0.11004 -0.0975872 0.192116
-0.105728 -0.0978486 0.193291
-0.101774 -0.097702 0.195024
-0.0977656 -0.0978213 0.196288
-0.0932465 -0.0977426 0.196965
-0.0892277 -0.097648 0.197372
-0.0852073 -0.0976699 0.197982
-0.0814345 -0.0975767 0.198369
-0.0770931 -0.097728 0.198633
-0.0732394 -0.097731 0.19975
-0.068913 -0.097198 0.199357
-0.0651268 -0.0976811 0.199218
-0.0607063 -0.0975053 0.199709
-0.0567837 -0.0970948 0.199986
-0.0528275 -0.0972744 0.199175
-0.0488953 -0.0975536 0.200499
-0.0445352 -0.0976623 0.199714
-0.0402265 -0.0976675 0.200852
-0.0363829 -0.0973528 0.200258
-0.0327049 -0.0973516 0.199598
-0.0283047 -0.0977159 0.200063
-0.0244948 -0.0973176 0.200203
-0.0199516 -0.0974791 0.198352
-0.0163826 -0.0975132 0.199048
-0.0118495 -0.097755 0.198406
-0.0081301 -0.0973923 0.197334
-0.00441946 -0.0976483 0.195165
4.0463e-05 -0.0976371 0.194532
0.00389728 -0.0976833 0.193671
0.0083174 -0.097785 0.191889
0.011757 -0.0981307 0.191763
0.0166864 -0.0978394 0.189495
0.0199489 -0.0976045 0.186669
0.0244641 -0.098374 0.18545
0.028866 -0.0984636 0.182636
0.0328231 -0.0982799 0.179013
0.0371487 -0.0988447 0.17704
0.0413219 -0.098626 0.173508
0.0454498 -0.0985829 0.17055
0.0497581 -0.0993307 0.167759
0.0539974 -0.0991354 0.164387
0.0580664 -0.0997626 0.160872
0.0623878 -0.0997876 0.15765
0.066831 -0.100029 0.154255
0.0709367 -0.100056 0.152124
0.0751286 -0.100174 0.150386
0.0795845 -0.100158 0.147507
0.0833253 -0.1003 0.146076
0.0879242 -0.100307 0.143762
0.0923505 -0.100231 0.143426
0.0966292 -0.100275 0.14167
0.100332 -0.100401 0.141326
0.10479 -0.100395 0.140765
0.108838 -0.100929 0.139641
0.113308 -0.100839 0.138048
0.117673 -0.100905 0.138102
0.121825 -0.100805 0.136722
0.125951 -0.100879 0.13619
0.130286 -0.100837 0.135455
0.134262 -0.100885 0.13523
0.138667 -0.100826 0.133802
0.143135 -0.100828 0.133161
0.147516 -0.10069 0.132548
0.15204 -0.101389 0.130799
0.155904 -0.101215 0.131423
0.160071 -0.101342 0.131427
0.164527 -0.101539 0.129913
0.168857 -0.101147 0.128479
0.173085 -0.101463 0.12729
0.17775 -0.101332 0.126631
0.181874 -0.101761 0.126021
0.185851 -0.101492 0.124184
0.190068 -0.101114 0.12433
0.194968 -0.101446 0.12364
0.198479 -0.101593 0.124223
0.203107 -0.101364 0.123002
0.207288 -0.10187 0.123612
0.212015 -0.101607 0.122349
0.21599 -0.101504 0.123072
0.219983 -0.101243 0.122908
0.224404 -0.101935 0.123001
0.228241 -0.101649 0.122627
0.232898 -0.101913 0.121694
0.236859 -0.10124 0.122296
0.241167 -0.101687 0.121198
0.246179 -0.101718 0.119614
0.25014 -0.101676 0.119854
0.254744 -0.101733 0.119277
0.259443 -0.101748 0.117324
0.263132 -0.101913 0.11701
0.268026 -0.102122 0.114409
0.272289 -0.102116 0.111607
0.277127 -0.102513 0.109353
0.281805 -0.10222 0.106566
0.286635 -0.102829 0.103171
0.290911 -0.102815 0.101808
0.295497 -0.102845 0.0999606
0.300274 -0.102882 0.0991279
0.305037 -0.103072 0.0980664
0.309157 -0.102572 0.0965986
0.313687 -0.103185 0.0944885
0.317959 -0.103374 0.0926626
0.322801 -0.103061 0.0907868
0.327379 -0.103393 0.0881212
0.332326 -0.10391 0.0852929
0.337092 -0.103843 0.0843186
0.341655 -0.103808 0.0819727
0.346237 -0.104115 0.0804247
0.350681 -0.104276 0.0789248
0.355695 -0.103999 0.0769879
0.360365 -0.104275 0.0742455
0.365292 -0.10387 0.0725337
0.369629 -0.104528 0.0705432
0.375082 -0.104697 0.0668771
0.379722 -0.104969 0.0640771
0.385415 -0.105218 0.058471
0.389674 -0.105454 0.0563339
0.395954 -0.105335 0.0491195
0.401604 -0.105984 0.0432478
0.40712 -0.106456 0.0367812
0.41305 -0.106548 0.0299823
0.419536 -0.10666 0.0222871
0.425661 -0.107766 0.0141581
0.431929 -0.108175 0.00550175
0.439232 -0.108752 -0.00882816
0.454377 -0.111475 -0.0568032
-0.393152 -0.103733 -0.00300217
-0.384521 -0.102784 0.0183507
-0.376254 -0.102057 0.0366319
-0.369804 -0.101154 0.0469856
-0.364812 -0.100989 0.0527815
-0.359001 -0.100766 0.0594709
-0.353629 -0.100356 0.0651439
-0.34786 -0.100168 0.072684
-0.342739 -0.0995063 0.0763696
-0.337266 -0.099686 0.0816752
-0.332166 -0.0989322 0.0871419
-0.327 -0.0986358 0.0919213
-0.321917 -0.0986487 0.0959762
-0.316807 -0.0982939 0.100901
-0.311909 -0.0983006 0.104374
-0.307047 -0.0981359 0.109328
-0.302098 -0.0977188 0.112503
-0.29704 -0.0979724 0.116555
-0.292701 -0.0976038 0.118973
-0.288039 -0.0973887 0.12324
-0.2834 -0.0972319 0.125249
-0.278249 -0.0969817 0.128288
-0.27408 -0.0973419 0.130232
-0.269861 -0.0969694 0.131603
-0.264984 -0.0964941 0.134072
-0.260743 -0.096951 0.136094
-0.256071 -0.0969017 0.136725
-0.251737 -0.0966653 0.139032
-0.247483 -0.0964848 0.140483
-0.243402 -0.0962406 0.140607
-0.238628 -0.0963282 0.142837
-0.23467 -0.0962754 0.144292
-0.22996 -0.0965302 0.145331
-0.225969 -0.0961901 0.146316
-0.22149 -0.0960681 0.148366
-0.216774 -0.0956975 0.149945
-0.21284 -0.0959603 0.149551
-0.208582 -0.0955261 0.151448
-0.204245 -0.0959168 0.152191
-0.20022 -0.0955513 0.153383
-0.195382 -0.0959015 0.156067
-0.191093 -0.0953713 0.15684
-0.186483 -0.0953856 0.158516
-0.182276 -0.0953067 0.16102
-0.178136 -0.0952696 0.162836
-0.173763 -0.0951223 0.163249
-0.169591 -0.0947628 0.165142
-0.165261 -0.0946173 0.168108
-0.16098 -0.0949868 0.17045
-0.156534 -0.0950459 0.172447
-0.152516 -0.0950722 0.174261
-0.148109 -0.0948449 0.175426
-0.143667 -0.0946059 0.177629
-0.139505 -0.0944414 0.17981
-0.135275 -0.0943337 0.181477
-0.131278 -0.0941259 0.18206
-0.126623 -0.0942463 0.182982
-0.123088 -0.0942528 0.185392
-0.118613 -0.0942871 0.186007
-0.114283 -0.0941592 0.186782
-0.110155 -0.093879 0.188382
-0.105921 -0.0943473 0.19031
-0.101903 -0.0936589 0.189806
-0.0975435 -0.0938352 0.191547
-0.0937025 -0.0934141 0.192096
-0.089663 -0.0936902 0.193359
-0.0857801 -0.0935991 0.192843
-0.0813799 -0.0936091 0.19457
-0.0773503 -0.0938338 0.193734
-0.0731118 -0.0932888 0.19388
-0.0692218 -0.0933497 0.194509
-0.0650971 -0.0936791 0.195381
-0.0610675 -0.0935494 0.194932
-0.0562932 -0.0938315 0.196161
-0.0528849 -0.0939658 0.196235
-0.0487998 -0.0938277 0.196792
-0.0448097 -0.0932923 0.194916
-0.0408748 -0.0936448 0.195467
-0.0366544 -0.0934882 0.196413
-0.0330637 -0.0936893 0.195903
-0.0286548 -0.0935481 0.193613
-0.0243705 -0.093334 0.194554
-0.0201493 -0.0937646 0.194431
-0.0163454 -0.0937755 0.193475
-0.0124226 -0.0933197 0.192467
-0.00811592 -0.0936791 0.191107
-0.00431545 -0.0941298 0.190423
-4.55405e-05 -0.0939592 0.18947
0.00429954 -0.0940564 0.187123
0.00801559 -0.09439 0.185949
0.0123155 -0.0943168 0.18346
0.0162544 -0.0942839 0.182024
0.0206535 -0.0946388 0.179911
0.0248705 -0.0947711 0.17799
0.0286516 -0.0945027 0.173349
0.0328918 -0.0949095 0.171638
0.0369339 -0.0950833 0.169476
0.041501 -0.0952205 0.16675
0.0456325 -0.0949938 0.164403
0.0496504 -0.0951243 0.161652
0.0538051 -0.0954524 0.158679
0.0580851 -0.0958482 0.155079
0.0623276 -0.0951551 0.152894
0.0665822 -0.0958872 0.150612
0.0709637 -0.0959045 0.149031
0.0750981 -0.0958099 0.148044
0.0791984 -0.0968518 0.145849
0.0837653 -0.0961443 0.144171
0.0880352 -0.0964181 0.14353
0.0920116 -0.0967752 0.142185
0.0965044 -0.0965155 0.14076
0.100614 -0.0968199 0.139811
0.105182 -0.0967364 0.139263
0.108958 -0.0964341 0.139203
0.11336 -0.0967984 0.138732
0.117632 -0.0966543 0.136288
0.122229 -0.0965314 0.136366
0.1261 -0.0965534 0.135646
0.130581 -0.0963408 0.134451
0.134778 -0.0967772 0.134368
0.138803 -0.0969686 0.133283
0.143341 -0.0970105 0.132472
0.147387 -0.0968369 0.131766
0.151706 -0.0968766 0.130893
0.155673 -0.0970197 0.130517
0.160427 -0.0966516 0.130022
0.164441 -0.0971745 0.129251
0.168934 -0.0970298 0.128694
0.173494 -0.0973521 0.127409
0.17748 -0.0970338 0.126623
0.181585 -0.0972048 0.125483
0.186623 -0.0974362 0.125059
0.190328 -0.0971884 0.125376
0.194548 -0.0971766 0.123987
0.199185 -0.0969611 0.123757
0.202767 -0.0973655 0.12408
0.207785 -0.097532 0.122833
0.211989 -0.0974235 0.123176
0.215771 -0.0972288 0.12329
0.220095 -0.0974082 0.122765
0.224165 -0.0973613 0.123479
0.228555 -0.0975249 0.123658
0.232875 -0.0977003 0.122651
0.237149 -0.0975518 0.122047
0.241608 -0.0979221 0.120964
0.245706 -0.0975107 0.120846
0.250105 -0.097183 0.119605
0.254648 -0.0975047 0.119566
0.259179 -0.0977295 0.117758
0.263788 -0.0977475 0.115715
0.267775 -0.0978457 0.114018
0.272688 -0.0979145 0.112262
0.276925 -0.0980386 0.108034
0.282018 -0.0982234 0.105522
0.28662 -0.0984527 0.103547
0.291511 -0.0986606 0.10143
0.295664 -0.0983688 0.0997071
0.300375 -0.0989073 0.0985752
0.30484 -0.09886 0.0976483
0.309051 -0.0990272 0.0960464
0.314083 -0.0985832 0.0939064
0.318436 -0.0989445 0.0924602
0.322717 -0.0992151 0.0900565
0.327527 -0.0991669 0.08831
0.33241 -0.099117 0.0858709
0.336855 -0.0993069 0.0841708
0.341804 -0.0996586 0.0821486
0.346208 -0.0993967 0.0802084
0.351124 -0.0997322 0.0783528
0.355768 -0.0997768 0.0774578
0.360258 -0.0995666 0.0743504
0.365591 -0.100298 0.0720261
0.370307 -0.0998541 0.0700374
0.375268 -0.100604 0.0666612
0.379257 -0.100662 0.0644068
0.385429 -0.100654 0.0596576
0.389775 -0.100981 0.0559493
0.395856 -0.10119 0.0502033
0.401535 -0.10125 0.0429572
0.407451 -0.101964 0.0366126
0.413343 -0.102314 0.0293962
0.419516 -0.102783 0.022471
0.425399 -0.102822 0.0142196
0.431855 -0.103549 0.00533652
0.440546 -0.104727 -0.0131979
0.454397 -0.106847 -0.0575204
-0.393685 -0.0996703 -0.00770998
-0.385089 -0.0988011 0.0148644
-0.377561 -0.0979967 0.0317533
-0.370722 -0.096971 0.0431566
-0.364774 -0.0966471 0.0511893
-0.359667 -0.0966475 0.056958
-0.354226 -0.096386 0.0619361
-0.348117 -0.0958089 0.0696318
-0.343196 -0.0953082 0.0740993
-0.337631 -0.095403 0.079337
-0.332601 -0.0952533 0.08514
-0.327064 -0.0948219 0.0903434
-0.321933 -0.0945509 0.0938323
-0.316787 -0.0940375 0.0989841
-0.312755 -0.0939994 0.102858
-0.307659 -0.093747 0.106052
-0.302729 -0.0942971 0.110796
-0.297642 -0.0936496 0.114157
-0.292991 -0.0932849 0.117488
-0.287996 -0.0935081 0.121236
-0.283001 -0.093145 0.124231
-0.279076 -0.092918 0.126522
-0.274531 -0.0926584 0.129051
-0.269752 -0.0928352 0.130587
-0.265513 -0.0925384 0.132781
-0.26078 -0.0921538 0.133308
-0.256341 -0.09264 0.136602
-0.252134 -0.0927967 0.137327
-0.24755 -0.092471 0.139203
-0.243434 -0.0922046 0.141523
-0.238843 -0.0920013 0.142672
-0.234686 -0.0921779 0.143248
-0.230172 -0.0919158 0.14508
