ply
format ascii 1.0
element vertex 1612
property float x
property float y
property float z
end_header
0.246636 -0.0821335 0.176404
0.253689 -0.0832604 0.155981
0.258933 -0.083616 0.146986
0.264307 -0.0837251 0.14115
0.269274 -0.0840083 0.13604
0.273748 -0.084102 0.131316
0.279102 -0.0842656 0.126421
0.283539 -0.0846383 0.124053
0.288411 -0.0848444 0.121113
0.292307 -0.0849956 0.119104
0.297493 -0.0848261 0.115823
0.30202 -0.0848897 0.112209
0.306712 -0.0854126 0.110938
0.311426 -0.0857321 0.106598
0.3164 -0.085734 0.102368
0.321754 -0.0859367 0.0975804
0.326705 -0.0861901 0.0928674
0.332065 -0.0863646 0.0867044
0.337603 -0.0869384 0.0804877
0.343842 -0.0870954 0.0711517
0.350249 -0.087916 0.0600826
0.357283 -0.0880951 0.0431898
-0.195315 -0.0715995 0.332506
-0.190392 -0.0710825 0.345491
-0.185141 -0.0705277 0.356297
-0.180576 -0.0700458 0.365349
-0.175883 -0.0694593 0.374564
-0.171341 -0.0693347 0.382615
-0.166965 -0.0690117 0.389248
-0.16275 -0.0687383 0.395871
-0.158688 -0.0685471 0.400951
-0.154492 -0.0684222 0.405952
-0.150411 -0.0682724 0.410161
-0.146957 -0.0681542 0.413527
-0.142726 -0.0676602 0.416616
-0.138764 -0.0672693 0.422623
-0.13487 -0.0675715 0.42571
-0.131237 -0.0670868 0.428194
-0.127476 -0.0673792 0.430483
-0.123756 -0.0670159 0.433692
-0.119761 -0.066932 0.437981
-0.115931 -0.066769 0.440866
-0.112363 -0.0666229 0.443485
-0.108219 -0.0665001 0.447128
-0.10485 -0.0667569 0.450066
-0.101117 -0.0665821 0.452408
-0.097368 -0.0656405 0.455454
-0.0939083 -0.0659347 0.457384
-0.0904803 -0.0659784 0.459098
-0.0865385 -0.065884 0.461329
-0.0834416 -0.0656782 0.463123
-0.0792703 -0.0658325 0.466174
-0.0760154 -0.0654203 0.46693
-0.0723947 -0.0657093 0.468317
-0.0689945 -0.065391 0.469408
-0.0657306 -0.0652703 0.47121
-0.0622553 -0.0653064 0.472394
-0.0587463 -0.0655523 0.473382
-0.0553075 -0.0654237 0.474687
-0.0513618 -0.065205 0.475847
-0.0479621 -0.0652555 0.476898
-0.0444753 -0.0650364 0.477892
-0.0411477 -0.065279 0.478721
-0.0377221 -0.0651671 0.47925
-0.034409 -0.0652328 0.48008
-0.0306442 -0.064963 0.47977
-0.0274012 -0.0649604 0.480247
-0.0236798 -0.0651639 0.481722
-0.0205416 -0.0645779 0.482135
-0.0170526 -0.0651364 0.482879
-0.0137864 -0.0650429 0.480965
-0.0104667 -0.0647691 0.482521
-0.0067902 -0.0649422 0.483484
-0.00366622 -0.0650955 0.48171
-5.21072e-05 -0.0650787 0.482267
0.00343598 -0.0652285 0.482195
0.00681506 -0.0651022 0.480522
0.0105855 -0.0652613 0.480408
0.0135387 -0.0651179 0.479946
0.0171599 -0.0656127 0.479787
0.0205578 -0.0652125 0.478486
0.024268 -0.0651503 0.477332
0.0274795 -0.065126 0.476703
0.0308297 -0.0652163 0.475012
0.0344229 -0.0654746 0.475281
0.0380373 -0.0653464 0.473514
0.0413932 -0.0653272 0.472467
0.0447206 -0.0656234 0.470124
0.0483153 -0.0659173 0.469355
0.0520621 -0.0654883 0.467704
0.0553455 -0.0654105 0.46623
0.0586659 -0.0656801 0.464928
0.0622309 -0.065887 0.463359
0.0659099 -0.065729 0.460999
0.0693347 -0.0662524 0.459741
0.0729041 -0.0661338 0.458239
0.0763991 -0.0661227 0.456498
0.08015 -0.0661289 0.455313
0.0840566 -0.0665231 0.452286
0.0871441 -0.066145 0.45102
0.0909447 -0.0663325 0.447368
0.0946692 -0.0662176 0.447124
0.0984998 -0.0667408 0.444195
0.101985 -0.0670082 0.441738
0.105547 -0.0669802 0.43917
0.109213 -0.0669724 0.436955
0.112671 -0.0670889 0.434672
0.11684 -0.0675516 0.432759
0.120223 -0.0674838 0.430204
0.123742 -0.0676636 0.426733
0.128337 -0.0674789 0.422909
0.131707 -0.0676582 0.420272
0.135769 -0.0677049 0.416768
0.139795 -0.0680265 0.412534
0.143619 -0.068384 0.407983
0.148031 -0.0683003 0.401526
0.151936 -0.068582 0.396857
0.155771 -0.0691748 0.3916
0.160666 -0.0691812 0.383548
0.164896 -0.0695069 0.376046
0.169436 -0.0698209 0.367081
0.174253 -0.0705274 0.357426
0.178762 -0.0709601 0.347542
0.184019 -0.0714647 0.333758
0.189702 -0.0722032 0.316968
0.194883 -0.0724346 0.304854
0.200446 -0.0732626 0.291197
0.210411 -0.0753762 0.238917
0.21613 -0.076074 0.225241
0.221417 -0.0764752 0.216894
0.225621 -0.0765052 0.210565
0.230991 -0.0768373 0.202446
0.236016 -0.0774387 0.195368
0.241338 -0.0778067 0.186957
0.247737 -0.0782222 0.169439
0.25429 -0.0792754 0.152925
0.25949 -0.0796009 0.144464
0.264405 -0.0797997 0.138838
0.269473 -0.0797238 0.132944
0.274447 -0.0805166 0.128226
0.279462 -0.0807348 0.122477
0.284697 -0.0803422 0.116827
0.28942 -0.0809792 0.114405
0.294138 -0.0805797 0.1101
0.298697 -0.0810983 0.107654
0.303559 -0.0815022 0.105366
0.308358 -0.0814463 0.101283
0.313251 -0.0815126 0.097416
0.31844 -0.0818898 0.0923651
0.323798 -0.0819158 0.0863428
0.32819 -0.0821017 0.0825077
0.333826 -0.0824202 0.0767828
0.340096 -0.082582 0.0673946
0.345631 -0.0833629 0.0593635
0.352977 -0.0837639 0.0429037
0.360412 -0.084857 0.0256016
-0.196583 -0.0681848 0.324175
-0.191029 -0.0672526 0.340927
-0.185498 -0.0666678 0.353923
-0.181097 -0.0665089 0.363034
-0.175961 -0.0659088 0.372164
-0.17149 -0.0656489 0.380587
-0.167226 -0.0653496 0.388683
-0.162951 -0.0650565 0.394613
-0.158716 -0.0648323 0.400442
-0.154567 -0.0647258 0.405681
-0.150236 -0.0646738 0.409714
-0.146612 -0.0645053 0.41327
-0.142884 -0.0642939 0.416683
-0.138807 -0.0641884 0.420138
-0.13483 -0.0640336 0.424757
-0.130961 -0.0643759 0.427941
-0.127318 -0.0632581 0.429985
-0.123347 -0.0633292 0.433417
-0.119922 -0.0634122 0.437089
-0.116386 -0.0631334 0.439328
-0.112109 -0.0631716 0.444124
-0.108725 -0.0630009 0.445578
-0.105086 -0.0629322 0.448441
-0.10161 -0.0626971 0.451598
-0.0977051 -0.0626726 0.454654
-0.0938298 -0.0625996 0.457154
-0.0907506 -0.0624834 0.458081
-0.0868491 -0.0628264 0.460504
-0.0830894 -0.0625527 0.462619
-0.0797805 -0.0623128 0.464064
-0.0760318 -0.062166 0.466158
-0.0725732 -0.061898 0.468261
-0.0691559 -0.0624099 0.46946
-0.0651811 -0.0619088 0.470917
-0.0621609 -0.0617402 0.471657
-0.0584001 -0.061784 0.472623
-0.0552811 -0.0622448 0.474347
-0.0515381 -0.0619055 0.475947
-0.0480627 -0.0618131 0.476948
-0.0450443 -0.0615227 0.478061
-0.0412881 -0.0618461 0.477375
-0.0376588 -0.0617252 0.478645
-0.0345736 -0.0617275 0.479677
-0.0309629 -0.0616004 0.479424
-0.0273863 -0.0621369 0.481114
-0.0240103 -0.0620157 0.480739
-0.0205106 -0.0614526 0.480573
-0.0172153 -0.0616028 0.481131
-0.0135718 -0.0616778 0.481981
-0.0104531 -0.0615324 0.481407
-0.00681685 -0.0615554 0.481776
-0.00373365 -0.0617546 0.480859
0.000318678 -0.0618041 0.481101
0.00352658 -0.0617544 0.48105
0.00701142 -0.0617792 0.48052
0.0105213 -0.0617846 0.480204
0.0134787 -0.0617555 0.480231
0.0169038 -0.0617502 0.479106
0.0204296 -0.0619311 0.478065
0.0242041 -0.0619216 0.476853
0.0273362 -0.0618306 0.476325
0.0311428 -0.0618795 0.474779
0.0344074 -0.0622999 0.473479
0.0382103 -0.0621543 0.472598
0.0411055 -0.0618892 0.471058
0.0448868 -0.0622842 0.469929
0.0482636 -0.0622867 0.468802
0.0518305 -0.0624054 0.467343
0.0553403 -0.0621958 0.465514
0.0589735 -0.0623662 0.463222
0.0621498 -0.0624857 0.46217
0.065862 -0.0626793 0.459566
0.0693408 -0.0627299 0.458471
0.0730831 -0.0625346 0.457876
0.0764843 -0.0627222 0.454349
0.0802122 -0.0627603 0.453192
0.0836607 -0.0626518 0.451617
0.0874013 -0.0624344 0.449764
0.0907195 -0.0632893 0.447199
0.0945986 -0.0630807 0.444821
0.0981628 -0.0632904 0.443097
0.101941 -0.0632263 0.441225
0.105241 -0.0633538 0.437949
0.109327 -0.0634567 0.436327
0.113185 -0.0634879 0.43371
0.11691 -0.0638756 0.430761
0.12095 -0.0639469 0.427974
0.124394 -0.0638969 0.424999
0.127808 -0.0640964 0.421775
0.131926 -0.0642677 0.419714
0.135814 -0.064361 0.414948
0.139747 -0.0645852 0.41152
0.143628 -0.0646997 0.406541
0.148046 -0.0650364 0.400764
0.151932 -0.0652723 0.395151
0.156071 -0.0654183 0.388691
0.160624 -0.0658136 0.381967
0.165198 -0.0661425 0.374175
0.169955 -0.066234 0.364408
0.17449 -0.0666958 0.354741
0.179107 -0.0671822 0.344642
0.184217 -0.0679265 0.331911
0.190167 -0.0685409 0.312126
0.195355 -0.0689786 0.300469
0.20141 -0.0696641 0.282028
0.211079 -0.0714433 0.233635
0.216709 -0.0721293 0.221805
0.221504 -0.0726861 0.214192
0.226108 -0.0728275 0.207348
0.231801 -0.0731383 0.198995
0.236611 -0.0729575 0.191913
0.241379 -0.0736063 0.184151
0.248143 -0.0746686 0.165523
0.253994 -0.0751321 0.151613
0.259339 -0.0759118 0.143916
0.265059 -0.0759145 0.135455
0.269892 -0.0758437 0.127836
0.27518 -0.0764708 0.121642
0.280627 -0.0764337 0.114375
0.285337 -0.0766231 0.110399
0.290269 -0.0768109 0.106619
0.295499 -0.0765744 0.101362
0.300332 -0.0771506 0.0990614
0.305085 -0.0773708 0.094744
0.309219 -0.077595 0.0932404
0.314535 -0.0777326 0.0881181
0.320158 -0.0778 0.0826554
0.325055 -0.078004 0.0781927
0.33037 -0.0785964 0.0729738
0.335892 -0.0782469 0.0643498
0.342225 -0.0786202 0.053548
0.349662 -0.0795862 0.0388414
0.357742 -0.0800991 0.0167001
-0.198183 -0.0646204 0.310792
-0.191103 -0.0637893 0.338065
-0.186388 -0.0633419 0.349592
-0.181094 -0.0628379 0.36078
-0.17666 -0.0625754 0.369438
-0.17189 -0.062243 0.378844
-0.167514 -0.0617989 0.386489
-0.162892 -0.0616169 0.394827
-0.159017 -0.0614381 0.399307
-0.155108 -0.0611943 0.403897
-0.151026 -0.0610483 0.408591
-0.14658 -0.0601989 0.412631
-0.142899 -0.0606394 0.415326
-0.139066 -0.0604031 0.418367
-0.135053 -0.0606388 0.422866
-0.131504 -0.0602467 0.426002
-0.127136 -0.0602928 0.429677
-0.123718 -0.0601137 0.431786
-0.120181 -0.0598438 0.435481
-0.116373 -0.0598987 0.437739
-0.112435 -0.0596063 0.442927
-0.108562 -0.0595978 0.445499
-0.105277 -0.0596978 0.447449
-0.101237 -0.0592975 0.450578
-0.097481 -0.0594744 0.453227
-0.0939231 -0.059191 0.456669
-0.0899448 -0.0593235 0.458258
-0.0865455 -0.059182 0.461117
-0.0834237 -0.0588654 0.461432
-0.0796195 -0.0588899 0.463726
-0.0761387 -0.0590368 0.465278
-0.0724164 -0.0584461 0.466931
-0.0690529 -0.0589489 0.468418
-0.0653712 -0.0586316 0.470069
-0.0620538 -0.0588796 0.471638
-0.0588591 -0.0589705 0.47326
-0.0551071 -0.0584272 0.474904
-0.0518559 -0.058715 0.474913
-0.0480999 -0.0585372 0.476093
-0.0446673 -0.0579647 0.476558
-0.0411328 -0.0583337 0.477682
-0.0376664 -0.0581144 0.478438
-0.0343182 -0.0585389 0.478386
-0.0309453 -0.058329 0.478463
-0.0274464 -0.0582912 0.479652
-0.023785 -0.0582681 0.479219
-0.0206428 -0.0582639 0.480575
-0.0170058 -0.0581343 0.480257
-0.0135868 -0.0583375 0.480828
-0.0104547 -0.0582402 0.480718
-0.00696579 -0.0582378 0.481148
-0.00360799 -0.058389 0.480696
-0.000216581 -0.0582992 0.480926
0.003449 -0.0581311 0.479486
0.00673385 -0.0584981 0.479635
0.0100982 -0.0582824 0.479034
0.0137247 -0.058403 0.47887
0.0170616 -0.0587131 0.477703
0.02049 -0.0581245 0.476391
0.0240825 -0.0582946 0.475654
0.0272941 -0.0583981 0.47536
0.0306675 -0.0584198 0.474062
0.0343404 -0.0585518 0.472888
0.0380238 -0.0585731 0.471553
0.0413924 -0.0583263 0.470404
0.0450038 -0.0586986 0.468587
0.0484186 -0.0584921 0.468684
0.0521409 -0.0590191 0.465423
0.0555528 -0.0586444 0.464702
0.0588797 -0.0585902 0.462136
0.062487 -0.0587177 0.46011
0.0659636 -0.0591328 0.460359
0.0691901 -0.059129 0.458136
0.0732022 -0.0592413 0.45549
0.0770017 -0.0595357 0.454363
0.0803633 -0.059341 0.452837
0.083487 -0.0594035 0.451196
0.0877108 -0.0594091 0.449724
0.0908826 -0.0593108 0.446373
0.0947578 -0.0599232 0.444737
0.0984695 -0.0596689 0.442024
0.101939 -0.059821 0.439772
0.105922 -0.0600851 0.437072
0.10936 -0.0598726 0.43493
0.112721 -0.0601101 0.432568
0.116566 -0.0600183 0.429748
0.120789 -0.0603746 0.426849
0.124475 -0.0604273 0.424021
0.128067 -0.060716 0.419829
0.131886 -0.0608661 0.416663
0.135993 -0.0608093 0.412569
0.140293 -0.0610422 0.408379
0.144389 -0.0612418 0.403673
0.147513 -0.0616019 0.400018
0.15177 -0.0614035 0.393957
0.156695 -0.061819 0.386743
0.160871 -0.0620636 0.380242
0.165337 -0.0625732 0.371544
0.17008 -0.0629769 0.362743
0.174668 -0.0633954 0.353471
0.179557 -0.0632581 0.34139
0.185213 -0.064275 0.325359
0.19045 -0.0649924 0.308091
0.196143 -0.0652897 0.294763
0.202588 -0.0662748 0.270052
0.211282 -0.0679313 0.230754
0.216702 -0.0686711 0.219591
0.221928 -0.068548 0.210866
0.226664 -0.0690065 0.20356
0.231416 -0.0692114 0.196944
0.236996 -0.0695312 0.188197
0.242957 -0.0696139 0.175296
0.249308 -0.0705378 0.159246
0.254436 -0.0713651 0.150003
0.260263 -0.0710884 0.140631
0.265191 -0.0712981 0.132655
0.270814 -0.07133 0.122553
0.276792 -0.072103 0.111904
0.281686 -0.0725441 0.107598
0.286915 -0.072699 0.101524
0.29081 -0.0732141 0.0992928
0.29669 -0.0726503 0.093592
0.301894 -0.0731392 0.0892669
0.306779 -0.073012 0.0851007
0.311373 -0.0733139 0.0824394
0.316678 -0.073588 0.0774229
0.321819 -0.07379 0.0724521
0.327095 -0.0740213 0.0658733
0.332467 -0.0745411 0.0599844
0.339074 -0.0747597 0.0475605
0.346182 -0.0754245 0.0336673
-0.191769 -0.0598993 0.332017
-0.186229 -0.0597028 0.347227
-0.181343 -0.059429 0.358718
-0.176734 -0.0587104 0.367692
-0.172037 -0.0583916 0.377163
-0.167277 -0.0583393 0.385996
-0.163238 -0.0579187 0.392883
-0.158749 -0.058029 0.398894
-0.155275 -0.05756 0.401747
-0.150764 -0.0576001 0.407161
-0.147045 -0.0573397 0.411377
-0.142972 -0.0571088 0.415622
-0.139134 -0.0568911 0.417885
-0.135228 -0.0568896 0.421883
-0.131157 -0.0568293 0.425648
-0.12761 -0.0565696 0.428403
-0.124035 -0.0566898 0.431241
-0.120324 -0.0564706 0.434495
-0.116295 -0.056754 0.437825
-0.112549 -0.0563437 0.440784
-0.108842 -0.0565348 0.443318
-0.104909 -0.0560267 0.446606
-0.10155 -0.056164 0.449609
-0.0976207 -0.0560485 0.452052
-0.0940935 -0.0556521 0.454533
-0.0903971 -0.0557355 0.458042
-0.0868891 -0.0555273 0.458383
-0.0831522 -0.0555084 0.460614
-0.0799882 -0.0553725 0.462578
-0.0763024 -0.0553579 0.464852
-0.0727132 -0.0551333 0.4657
-0.0693517 -0.0555509 0.46815
-0.0655527 -0.0549503 0.469854
-0.062001 -0.0550906 0.470729
-0.0585458 -0.0550909 0.471485
-0.0551798 -0.0551339 0.47396
-0.0515283 -0.0550878 0.474441
-0.048128 -0.0546803 0.475368
-0.0447415 -0.054934 0.476059
-0.0412442 -0.0550362 0.478011
-0.037723 -0.0550078 0.477592
-0.0342399 -0.0548321 0.477996
-0.0308141 -0.0548158 0.478258
-0.0275263 -0.0547897 0.478819
-0.0241602 -0.0547813 0.479637
-0.0202945 -0.0550719 0.479164
-0.0172949 -0.0547976 0.478666
-0.0141232 -0.0547216 0.480108
-0.0102848 -0.0547358 0.47997
-0.00670913 -0.0549423 0.478541
-0.00344075 -0.0551496 0.479847
2.21175e-05 -0.0548451 0.479224
0.00374885 -0.055077 0.478808
0.0066651 -0.0548544 0.478117
0.0102399 -0.0550757 0.477675
0.0134972 -0.0551927 0.477983
0.0170873 -0.0548077 0.476676
0.0204339 -0.0548914 0.476259
0.0239502 -0.0552033 0.4754
0.0274511 -0.0552892 0.474464
0.0309087 -0.0552366 0.472761
0.0344362 -0.0551807 0.47346
0.0383957 -0.0552158 0.470181
0.041473 -0.0551536 0.469173
0.0444978 -0.0554791 0.468222
0.0481954 -0.05541 0.466864
0.052 -0.0550597 0.465274
0.0554117 -0.0552937 0.463819
0.0590223 -0.0555637 0.461785
0.0624886 -0.0557163 0.460751
0.0658156 -0.0555662 0.458761
0.0694952 -0.0558093 0.456892
0.0733075 -0.0557031 0.454694
0.0766704 -0.055614 0.453943
0.0805198 -0.0556844 0.451505
0.0839825 -0.0560501 0.449216
0.0876897 -0.0560846 0.447881
0.0913723 -0.0561923 0.445041
0.0948994 -0.0564871 0.442098
0.0982679 -0.056169 0.440805
0.102334 -0.0563262 0.438853
0.105849 -0.0564698 0.436055
0.109668 -0.0564606 0.433999
0.11314 -0.0568885 0.431694
0.117166 -0.056635 0.428748
0.120494 -0.0567855 0.425212
0.124604 -0.0569395 0.422329
0.128238 -0.0571833 0.419025
0.132243 -0.0571651 0.414836
0.13627 -0.0574773 0.410419
0.140442 -0.0573515 0.406234
0.143915 -0.0576241 0.40262
0.148201 -0.0578725 0.396913
0.152455 -0.0580038 0.390984
0.156729 -0.0581329 0.385155
0.160905 -0.0585045 0.378625
0.165155 -0.0587017 0.37046
0.170317 -0.0589768 0.361089
0.175092 -0.0595378 0.349971
0.179711 -0.0596471 0.339337
0.18554 -0.060349 0.319353
0.191193 -0.0611124 0.30248
0.196642 -0.0619731 0.289414
0.203832 -0.0625428 0.262236
0.211969 -0.0640622 0.22641
0.217306 -0.0644386 0.216106
0.222151 -0.0645123 0.207964
0.227606 -0.064723 0.199236
0.232194 -0.0649866 0.192991
0.237326 -0.0651178 0.184579
0.243465 -0.0660095 0.170177
0.249096 -0.06666 0.158546
0.254971 -0.0664762 0.14784
0.259677 -0.0671446 0.14025
0.265678 -0.0670999 0.128536
0.272479 -0.0681429 0.114459
0.27744 -0.068192 0.105539
0.283233 -0.0684148 0.0977746
0.28778 -0.0686839 0.0934038
0.293587 -0.0688214 0.0877686
0.297663 -0.0691792 0.085862
0.303406 -0.0691636 0.0794567
0.308258 -0.0694173 0.0748926
0.313261 -0.0697481 0.0716268
0.318556 -0.0696571 0.0658888
0.324098 -0.0698418 0.0591607
0.329401 -0.0702839 0.0518454
0.336484 -0.0708413 0.038408
0.342704 -0.0713648 0.0251197
-0.192914 -0.0566411 0.324316
-0.186867 -0.0561877 0.34307
-0.181752 -0.0556828 0.355178
-0.176906 -0.0551568 0.366363
-0.172071 -0.0550994 0.375494
-0.167553 -0.0545137 0.383836
-0.162794 -0.0546298 0.391568
-0.159067 -0.0545094 0.397903
-0.155117 -0.0539996 0.401866
-0.15078 -0.0541547 0.40625
-0.146982 -0.0539113 0.409887
-0.143147 -0.0535389 0.414075
-0.139333 -0.0535092 0.416865
-0.135134 -0.0534723 0.42068
-0.131647 -0.0533027 0.425075
-0.127951 -0.0534353 0.425842
-0.123865 -0.0533898 0.430204
-0.120411 -0.053316 0.433209
-0.116542 -0.0527389 0.435883
-0.112631 -0.052709 0.439722
-0.10894 -0.0525791 0.441998
-0.105323 -0.0526242 0.445937
-0.101469 -0.0523985 0.449425
-0.0974034 -0.052214 0.451604
-0.0942673 -0.0525529 0.453815
-0.0906483 -0.052446 0.456228
-0.0869273 -0.052181 0.458298
-0.0835119 -0.0521928 0.459084
-0.0798473 -0.0518796 0.462421
-0.0761342 -0.0521357 0.463695
-0.0727657 -0.0518812 0.465318
-0.0691205 -0.0518845 0.467414
-0.0654436 -0.0518267 0.467655
-0.061922 -0.0519037 0.469041
-0.0586286 -0.051836 0.471312
-0.0552139 -0.0518792 0.471319
-0.0518715 -0.0516819 0.472909
-0.0482246 -0.0517708 0.474152
-0.0447426 -0.0511349 0.474418
-0.0414951 -0.051447 0.476433
-0.0378082 -0.0513897 0.476732
-0.0341099 -0.051611 0.477653
-0.0309518 -0.0515554 0.476874
-0.0274681 -0.0514833 0.478286
-0.0241134 -0.051507 0.478037
-0.0203814 -0.0514308 0.4774
-0.0171565 -0.0512631 0.477983
-0.0139578 -0.0513217 0.478682
-0.0102613 -0.0514681 0.478675
-0.00710346 -0.0516124 0.478458
-0.00333137 -0.0517215 0.478077
0.000190689 -0.0514433 0.478008
0.00353943 -0.0515962 0.47786
0.00682194 -0.0516301 0.477288
0.010041 -0.0517444 0.477078
0.0137188 -0.0514915 0.476223
0.017122 -0.051792 0.476286
0.0203671 -0.0515281 0.475668
0.0244241 -0.0515439 0.474361
0.0277683 -0.0516402 0.474192
0.0307685 -0.0514558 0.472655
0.0343234 -0.0518903 0.471286
0.037604 -0.0519199 0.471317
0.041543 -0.0519691 0.46848
0.0447313 -0.0518636 0.466627
0.0484536 -0.0519296 0.465646
0.0518204 -0.0521388 0.464161
0.0553612 -0.0521686 0.462795
0.0588076 -0.0522009 0.461581
0.0624952 -0.0519718 0.459962
0.0661507 -0.0523914 0.456713
0.0695979 -0.05206 0.455743
0.07291 -0.0523289 0.45387
0.0763693 -0.0523496 0.452714
0.0802939 -0.0524417 0.450984
0.0840759 -0.0523949 0.44887
0.0877614 -0.0527577 0.446001
0.0911203 -0.0527633 0.444966
0.0949263 -0.0526211 0.441437
0.0986329 -0.052879 0.439868
0.102143 -0.0529445 0.438073
0.106135 -0.0528841 0.434166
0.109523 -0.0530998 0.432213
0.113404 -0.0531795 0.430507
0.117216 -0.0530364 0.426697
0.121043 -0.0533228 0.424286
0.124629 -0.0535155 0.420139
0.128541 -0.0535604 0.417102
0.132293 -0.0541177 0.413128
0.136335 -0.0538058 0.408024
0.14058 -0.0539249 0.402652
0.144347 -0.0541689 0.399565
0.148118 -0.0541722 0.394701
0.152521 -0.0543979 0.389472
0.157115 -0.0547441 0.38265
0.161233 -0.0548318 0.375346
0.16603 -0.0551541 0.366189
0.170494 -0.0554585 0.358306
0.175265 -0.0561277 0.347698
0.180372 -0.0559779 0.33517
0.186185 -0.0569068 0.313399
0.192372 -0.0578608 0.29519
0.1972 -0.0581776 0.281897
0.204406 -0.0590676 0.255876
0.212834 -0.0602471 0.221061
0.217754 -0.0606795 0.211962
0.222632 -0.0609117 0.204464
0.22752 -0.0608966 0.197373
0.232877 -0.0614769 0.188453
0.23817 -0.0615295 0.179389
0.244148 -0.0615874 0.16521
0.249569 -0.062048 0.155353
0.255035 -0.0628009 0.146699
0.260653 -0.0633289 0.136505
0.267017 -0.0636529 0.122274
0.273334 -0.0637861 0.106488
0.278928 -0.0644759 0.0973879
0.284314 -0.0646819 0.0902401
0.289335 -0.0649736 0.0845339
0.294843 -0.0650897 0.0782964
0.299794 -0.0649964 0.0727694
0.304683 -0.0654212 0.0694458
0.310581 -0.0652068 0.061659
0.31543 -0.065917 0.0580523
0.320632 -0.066305 0.0523543
0.327225 -0.0666129 0.040656
0.333806 -0.0666868 0.0251238
0.350572 -0.0691862 -0.0447938
-0.194022 -0.0530373 0.313817
-0.187391 -0.052491 0.338008
-0.182159 -0.0522725 0.351696
-0.176712 -0.0515385 0.364413
-0.172386 -0.0509821 0.37335
-0.167898 -0.050944 0.381896
-0.163708 -0.0511419 0.388552
-0.159126 -0.0508982 0.395893
-0.154894 -0.0503838 0.40032
-0.151112 -0.0501615 0.405113
-0.147584 -0.0501446 0.407631
-0.143415 -0.0500808 0.412555
-0.139405 -0.0498446 0.415556
-0.135257 -0.0498986 0.419839
-0.131432 -0.0498522 0.423611
-0.127907 -0.0499938 0.425562
-0.123931 -0.0496621 0.429995
-0.119974 -0.0496402 0.432615
-0.116549 -0.0493076 0.435258
-0.113066 -0.0492834 0.437492
-0.109064 -0.0492803 0.44095
-0.104903 -0.0491244 0.444108
-0.101745 -0.0489072 0.44663
-0.0977841 -0.0488196 0.451042
-0.094217 -0.0487812 0.451998
-0.0904381 -0.0484537 0.454892
-0.087017 -0.0486223 0.457036
-0.0832256 -0.0484689 0.45932
-0.0798065 -0.0488232 0.460949
-0.0762009 -0.0484167 0.462926
-0.0728717 -0.0487353 0.464082
-0.069101 -0.0482857 0.46614
-0.0661501 -0.0483235 0.46595
-0.0624739 -0.0481687 0.46928
-0.0584291 -0.0483018 0.470682
-0.0549914 -0.0482876 0.471272
-0.0517552 -0.0478949 0.472365
-0.0481952 -0.0484304 0.473256
-0.044862 -0.0484643 0.474039
-0.0410775 -0.0481264 0.475277
-0.0378311 -0.0480301 0.475771
-0.0342328 -0.0482707 0.475298
-0.0306857 -0.0482205 0.476269
-0.0274284 -0.048325 0.476897
-0.0240485 -0.0480001 0.477448
-0.0202678 -0.0480951 0.476112
-0.0171001 -0.0481237 0.477849
-0.0140335 -0.0478988 0.476946
-0.0102469 -0.0480957 0.477198
-0.0069305 -0.0480942 0.477325
-0.00337715 -0.0480842 0.476824
-1.90605e-05 -0.0479721 0.477226
0.00341246 -0.0483262 0.476865
0.00690894 -0.0479858 0.477396
0.0101753 -0.0481284 0.476077
0.0141719 -0.0478745 0.475537
0.0172434 -0.0484756 0.47429
0.0206404 -0.0479998 0.474217
0.0239454 -0.0482976 0.474373
0.0275308 -0.0485185 0.472837
0.0311843 -0.0483198 0.47113
0.034487 -0.0484162 0.470529
0.0380889 -0.0483774 0.46752
0.041724 -0.0482906 0.467226
0.0450639 -0.0485514 0.466604
0.0480778 -0.048214 0.464667
0.0517726 -0.0483896 0.463129
0.0556873 -0.0483911 0.461315
0.0591602 -0.048628 0.46004
0.0625124 -0.048438 0.458685
0.0662431 -0.048882 0.45596
0.0695474 -0.0487808 0.455262
0.0733713 -0.0489498 0.452433
0.0767947 -0.0488952 0.45182
0.0805108 -0.0487926 0.449562
0.0839312 -0.0490342 0.447149
0.0874254 -0.0491431 0.445649
0.0911047 -0.0493877 0.444312
0.0951165 -0.0497129 0.440789
0.0986519 -0.049361 0.439219
0.101856 -0.0494989 0.437092
0.106041 -0.0494665 0.433914
0.109731 -0.0492851 0.43136
0.11342 -0.0495579 0.42853
0.116975 -0.0495685 0.425668
0.121083 -0.0498942 0.422469
0.12459 -0.0500034 0.419634
0.128823 -0.049815 0.413641
0.132884 -0.0502082 0.409728
0.13672 -0.0505441 0.406875
0.140171 -0.0505524 0.402693
0.144324 -0.0505014 0.397841
0.148921 -0.0508984 0.391663
0.15337 -0.0507938 0.385806
0.157221 -0.0513569 0.380757
0.160818 -0.0511986 0.374463
0.166152 -0.0516788 0.364409
0.170358 -0.0522039 0.356372
0.17494 -0.0521478 0.346415
0.180727 -0.0523106 0.330335
0.187782 -0.0536953 0.303317
0.192402 -0.0540989 0.291155
0.199181 -0.0547449 0.271201
0.207974 -0.0559246 0.22912
0.212987 -0.0562323 0.217465
0.218354 -0.0566812 0.2084
0.223415 -0.0570566 0.200265
0.228462 -0.0571554 0.191843
0.233604 -0.0575793 0.184683
0.238917 -0.0575856 0.173329
0.24436 -0.058071 0.162831
0.249757 -0.0584573 0.152886
0.255433 -0.0587938 0.143476
0.261378 -0.0595477 0.132047
0.267546 -0.0595738 0.115422
0.274898 -0.0598939 0.0977066
0.280014 -0.059913 0.0881885
0.285688 -0.0604083 0.080555
0.291041 -0.0611449 0.0742105
0.296259 -0.0608302 0.0669266
0.301741 -0.0611929 0.0601509
0.307255 -0.0613254 0.0538676
0.313547 -0.0611712 0.0430057
0.319244 -0.0619898 0.0334842
0.325884 -0.0625165 0.0203745
0.337774 -0.0640921 -0.0248401
0.345386 -0.0646685 -0.0411439
0.352324 -0.0650323 -0.055819
-0.187757 -0.0487737 0.332937
-0.181693 -0.0486645 0.350777
-0.177698 -0.0480219 0.360479
-0.173012 -0.0480956 0.369906
-0.167926 -0.0474792 0.379804
-0.163506 -0.0474397 0.387535
-0.159431 -0.0469761 0.394061
-0.154869 -0.0467531 0.399604
-0.151194 -0.0468984 0.402704
-0.147217 -0.0466858 0.407785
-0.143517 -0.0468734 0.411438
-0.139513 -0.0465877 0.415158
-0.135472 -0.0460129 0.419173
-0.131649 -0.0464952 0.422612
-0.128552 -0.0462351 0.42397
-0.124144 -0.0460853 0.427428
-0.120327 -0.0461005 0.43181
-0.116956 -0.0458249 0.432998
-0.11276 -0.0455884 0.437208
-0.109079 -0.0457312 0.439925
-0.105337 -0.0456952 0.442116
-0.101514 -0.0455858 0.445934
-0.0981467 -0.0456354 0.448217
-0.0938897 -0.045449 0.452545
-0.090748 -0.0453469 0.453254
-0.0870125 -0.0450129 0.45674
-0.083342 -0.0454356 0.458859
-0.0795487 -0.045354 0.460417
-0.0760606 -0.0450186 0.461613
-0.0725083 -0.0448654 0.462922
-0.0689748 -0.0448235 0.46501
-0.0653206 -0.0446953 0.466928
-0.0620078 -0.0450248 0.467505
-0.0586088 -0.0447899 0.469354
-0.0550346 -0.0447209 0.469528
-0.0520013 -0.0448291 0.471084
-0.0480848 -0.0445831 0.472788
-0.0447306 -0.044779 0.473091
-0.0411711 -0.045044 0.47459
-0.0379189 -0.044615 0.475049
-0.0345334 -0.0444792 0.475469
-0.0310267 -0.0447528 0.474747
-0.0276106 -0.0446161 0.475528
-0.0239207 -0.0447799 0.475464
-0.0207369 -0.0446062 0.477164
-0.0169581 -0.0449746 0.475345
-0.0135714 -0.0444069 0.474992
-0.0102478 -0.0445333 0.476078
-0.00677029 -0.0447318 0.475593
-0.00349009 -0.0443534 0.475475
-0.000130179 -0.0446845 0.474831
0.00330179 -0.0445431 0.474729
0.00693386 -0.0446393 0.474989
0.010395 -0.0446208 0.474834
0.0136852 -0.0447699 0.474548
0.0171892 -0.0448092 0.473816
0.0205429 -0.0444389 0.473851
0.0242183 -0.0445134 0.473447
0.0277127 -0.0447285 0.472336
0.0313159 -0.0447922 0.470245
0.034733 -0.0449614 0.469669
0.0379238 -0.0450451 0.468897
0.0413018 -0.0451263 0.46702
0.0450764 -0.0447181 0.464851
0.0480139 -0.0449317 0.465078
0.0524243 -0.0452295 0.461439
0.0553807 -0.0454473 0.460938
0.0588217 -0.0448466 0.459444
0.0625422 -0.0451308 0.457188
0.0662289 -0.0454926 0.455395
0.0699083 -0.0453615 0.453657
0.0731563 -0.045462 0.452419
0.0767504 -0.0456099 0.450609
0.0804176 -0.045516 0.449547
0.0841197 -0.0458294 0.446586
0.0876381 -0.0458237 0.444915
0.0913231 -0.0458579 0.442437
0.0950645 -0.0454819 0.440099
0.0986047 -0.0459242 0.437452
0.102387 -0.0458174 0.436113
0.106162 -0.0459056 0.433721
0.11008 -0.0461864 0.430401
0.113761 -0.046141 0.428118
0.117297 -0.0461124 0.425567
0.121158 -0.0462366 0.421065
0.124811 -0.0461517 0.417294
0.128839 -0.0466977 0.412929
0.13294 -0.046566 0.407308
0.136418 -0.0465063 0.404874
0.140784 -0.0471548 0.399917
0.145028 -0.0472619 0.394933
0.149095 -0.0468294 0.390164
0.153248 -0.0475191 0.383303
0.157165 -0.0475795 0.377802
0.161886 -0.0476484 0.370405
0.166355 -0.0479341 0.361536
0.171029 -0.0484245 0.352132
0.175605 -0.0488916 0.342183
0.181659 -0.0488995 0.32165
0.188631 -0.0498929 0.295617
0.193974 -0.0507021 0.281591
0.199374 -0.0508079 0.267413
0.208261 -0.0519608 0.223746
0.213451 -0.0523841 0.211979
0.218894 -0.0526341 0.203012
0.223632 -0.0527572 0.196264
0.228214 -0.0528014 0.189832
0.234219 -0.0531239 0.178478
0.239886 -0.0536574 0.167511
0.244685 -0.0538517 0.159392
0.250177 -0.0542562 0.14962
0.256213 -0.0545301 0.139895
0.261907 -0.0548627 0.126958
0.269299 -0.0556053 0.105352
0.275762 -0.0557338 0.0915471
0.281722 -0.0561199 0.0801839
0.287176 -0.0568109 0.0719879
0.292777 -0.0566269 0.0625548
0.297819 -0.0570893 0.0556172
0.304674 -0.05746 0.0434358
0.311804 -0.0577499 0.0257026
0.318374 -0.0582513 0.0112348
0.327604 -0.0592504 -0.0159256
0.333207 -0.0594409 -0.0292051
0.340695 -0.0597668 -0.0416024
0.347148 -0.060184 -0.0523362
0.354266 -0.0605913 -0.0680747
-0.188992 -0.0449835 0.323756
-0.18348 -0.045076 0.34176
-0.177545 -0.0444406 0.357306
-0.173052 -0.0440071 0.36735
-0.168191 -0.0440487 0.376805
-0.163883 -0.0440295 0.384692
-0.159389 -0.043529 0.391647
-0.155771 -0.0434144 0.397263
-0.151151 -0.0434676 0.403164
-0.147432 -0.0428132 0.405904
-0.143664 -0.0429904 0.409642
-0.13964 -0.0429686 0.413856
-0.135402 -0.0425579 0.417783
-0.131856 -0.0426898 0.420226
-0.128194 -0.04294 0.423208
-0.124633 -0.0422022 0.427142
-0.120528 -0.0425823 0.429178
-0.116679 -0.0420145 0.433494
-0.11255 -0.0425596 0.436392
-0.108903 -0.042575 0.439305
-0.105305 -0.0425797 0.441582
-0.101971 -0.0422836 0.443907
-0.0980525 -0.042414 0.448162
-0.0943378 -0.0419263 0.450128
-0.0907608 -0.0420879 0.452961
-0.0869558 -0.0414917 0.454603
-0.0833329 -0.0419352 0.457487
-0.0798808 -0.0416558 0.458468
-0.0763864 -0.0414719 0.45971
-0.0727657 -0.0418426 0.462977
-0.0693652 -0.0416662 0.46369
-0.0654531 -0.0415767 0.465871
-0.0622848 -0.0417471 0.46696
-0.0584388 -0.0414516 0.469024
-0.0549731 -0.0410525 0.469309
-0.0517229 -0.0416827 0.470477
-0.0480124 -0.0413695 0.471719
-0.0446647 -0.0414833 0.472917
-0.0411592 -0.0409696 0.47177
-0.0378772 -0.0412745 0.472888
-0.034423 -0.0413369 0.473737
-0.0310606 -0.0413383 0.473869
-0.0277508 -0.0413417 0.473985
-0.0243464 -0.0411945 0.475056
-0.0206049 -0.0413828 0.474594
-0.0173914 -0.0414972 0.474341
-0.013406 -0.0413429 0.47492
-0.01042 -0.0412401 0.474667
-0.00676585 -0.0416164 0.474258
-0.00353912 -0.0412543 0.473847
-8.53146e-05 -0.0413361 0.474049
0.0033869 -0.0414187 0.474637
0.00726961 -0.0412889 0.472856
0.0102664 -0.0409618 0.472176
0.0136437 -0.0413956 0.473162
0.0172841 -0.0410266 0.47238
0.0206896 -0.0413681 0.472211
0.0242295 -0.0416173 0.471651
0.0279067 -0.0416435 0.469814
0.0310068 -0.0413065 0.468958
0.0345615 -0.0412974 0.468239
0.0381249 -0.0417468 0.46658
0.0416602 -0.0413503 0.466074
0.0449047 -0.0414738 0.46481
0.0483293 -0.0415344 0.463328
0.0519837 -0.0417265 0.461816
0.0557646 -0.0414932 0.460247
0.0591046 -0.041896 0.458273
0.0625626 -0.0416817 0.456668
0.0663551 -0.0415083 0.454335
0.0698753 -0.0415823 0.453687
0.0732393 -0.0417393 0.451935
0.0769601 -0.0420728 0.449466
0.0804812 -0.041946 0.44741
0.0843333 -0.0420364 0.446763
0.0881669 -0.0422471 0.442852
0.0914066 -0.0419999 0.443057
0.0952041 -0.0422393 0.439246
0.0985926 -0.0422997 0.437887
0.102334 -0.0422503 0.435731
0.105986 -0.0422264 0.433657
0.109774 -0.0422896 0.431022
0.113348 -0.0429313 0.426943
0.117231 -0.042517 0.423664
0.121364 -0.0427354 0.419589
0.124798 -0.0429683 0.415569
0.128986 -0.0432046 0.410997
0.132814 -0.0429336 0.40664
0.137217 -0.0432623 0.401805
0.141054 -0.0437762 0.396842
0.144945 -0.0432944 0.392135
0.149162 -0.0438652 0.387202
0.153868 -0.0439332 0.380749
0.157569 -0.0437799 0.375096
0.162042 -0.0443537 0.366863
0.166987 -0.0445661 0.356592
0.171345 -0.0445019 0.3483
0.176384 -0.0450204 0.336496
0.183134 -0.0457372 0.307065
0.188674 -0.0461393 0.289111
0.194699 -0.0460473 0.275183
0.199534 -0.0472679 0.263846
0.209166 -0.0481579 0.21733
0.213984 -0.0481541 0.207227
0.219695 -0.0487622 0.198188
0.224479 -0.0486037 0.191019
0.229222 -0.0491709 0.183599
0.234424 -0.0496851 0.1749
0.240293 -0.0497242 0.163194
0.245012 -0.0499788 0.155338
0.25095 -0.0503568 0.145914
0.256695 -0.0505584 0.135188
0.26345 -0.0511344 0.118311
0.269855 -0.0514009 0.09955
0.276755 -0.0516011 0.0841417
0.282292 -0.0520981 0.0733478
0.288198 -0.0520839 0.0633795
0.294033 -0.0526311 0.0536343
0.300828 -0.0528606 0.0372756
0.30881 -0.0539863 0.0177954
0.315987 -0.0542325 -0.00205469
0.324384 -0.0546923 -0.0239182
0.329644 -0.0550256 -0.0320752
0.336082 -0.0554221 -0.0414269
0.342365 -0.055387 -0.0511572
0.348348 -0.0557678 -0.0602665
-0.190293 -0.0417625 0.312779
-0.183732 -0.0413822 0.337041
-0.178111 -0.040884 0.353285
-0.173296 -0.0407838 0.365577
-0.168892 -0.0401575 0.37376
-0.164331 -0.0401777 0.381483
-0.160306 -0.0402091 0.388144
-0.155808 -0.0398103 0.39452
-0.151813 -0.0395002 0.400131
-0.147556 -0.0394866 0.404481
-0.143344 -0.0394702 0.409496
-0.139677 -0.0391946 0.412457
-0.135928 -0.0393678 0.416407
-0.131923 -0.0394452 0.419589
-0.128327 -0.0391414 0.422275
-0.124343 -0.0391113 0.425832
-0.120493 -0.0388574 0.42859
-0.116759 -0.0389963 0.431802
-0.113123 -0.0388536 0.43423
-0.109195 -0.038826 0.437637
-0.105274 -0.0387998 0.441571
-0.10154 -0.0385219 0.444128
-0.0983285 -0.038301 0.446092
-0.0945421 -0.0383167 0.44822
-0.0905313 -0.0385799 0.451931
-0.0872699 -0.0380388 0.453791
-0.0838108 -0.0383782 0.456429
-0.0797966 -0.0380146 0.457214
-0.0764835 -0.0381378 0.459604
-0.0729739 -0.0379642 0.461259
-0.0693801 -0.0378246 0.462557
-0.0657086 -0.0382691 0.464798
-0.0623307 -0.0381463 0.466475
-0.0585795 -0.0378756 0.466244
-0.0551117 -0.0378302 0.468186
-0.0519327 -0.0377427 0.469655
-0.0484022 -0.0376535 0.469756
-0.044973 -0.0381317 0.470324
-0.0416361 -0.0377949 0.471864
-0.0377583 -0.0381024 0.472065
-0.0345983 -0.0378253 0.472748
-0.0311137 -0.0378313 0.472903
-0.0276943 -0.0378916 0.472836
-0.0241576 -0.0376365 0.472833
-0.0209592 -0.0377833 0.473202
-0.0172087 -0.0376703 0.473216
-0.0140116 -0.0380652 0.473322
-0.0103974 -0.0375541 0.473101
-0.00663354 -0.0378177 0.471974
-0.00351459 -0.0375013 0.473991
-8.26491e-05 -0.0379017 0.472883
0.00345611 -0.0378397 0.473145
0.00693544 -0.037875 0.471999
0.0101755 -0.0377396 0.472222
0.0136128 -0.0381668 0.472132
0.0171867 -0.038003 0.471242
0.0207572 -0.0377649 0.471068
0.0245767 -0.0379996 0.469594
0.0278177 -0.0378714 0.469421
0.0308725 -0.038067 0.469364
0.0347031 -0.0379795 0.46696
0.0382292 -0.037951 0.465673
0.0413877 -0.0381941 0.464939
0.0453309 -0.0381771 0.462733
0.0484085 -0.0380742 0.46179
0.0519371 -0.0383027 0.460631
0.0556717 -0.0383625 0.458384
0.0593288 -0.0381748 0.457485
0.0627224 -0.038496 0.455901
0.0662723 -0.0383301 0.454575
0.0695764 -0.0385752 0.451912
0.0735199 -0.0386454 0.45065
0.0768503 -0.0382764 0.447978
0.0803387 -0.0384167 0.447771
0.0839743 -0.0382436 0.446587
0.0876507 -0.0384352 0.444231
0.0913464 -0.0387278 0.441902
0.0949203 -0.0387647 0.439709
0.0985995 -0.0385497 0.436812
0.102473 -0.0388996 0.43467
0.105993 -0.0389908 0.433306
0.110069 -0.0388708 0.429259
0.113845 -0.0388958 0.424664
0.117361 -0.039174 0.42196
0.121416 -0.039081 0.417669
0.125658 -0.0396514 0.412806
0.129313 -0.039742 0.407975
0.133404 -0.039697 0.40387
0.137589 -0.0397701 0.398841
0.141393 -0.0394511 0.394205
0.144864 -0.0399948 0.390983
0.149224 -0.0402785 0.385115
0.153498 -0.0401966 0.378088
0.158099 -0.0406884 0.370814
0.162754 -0.0406437 0.362804
0.167028 -0.0407133 0.354092
0.171897 -0.0410832 0.343734
0.177386 -0.0414358 0.327495
0.184313 -0.0425562 0.297054
0.189674 -0.0426996 0.283092
0.195032 -0.0429655 0.27172
0.200513 -0.0431824 0.256526
0.209718 -0.0446511 0.211259
0.214574 -0.044826 0.202322
0.219441 -0.0448913 0.195286
0.22531 -0.0447373 0.185695
0.229804 -0.0450893 0.179077
0.235515 -0.0452331 0.168358
0.240415 -0.0455797 0.160123
0.245327 -0.0458744 0.152434
0.251118 -0.0459799 0.142191
0.256881 -0.04634 0.132012
0.263828 -0.0467438 0.112616
0.271267 -0.0476645 0.0924166
0.277036 -0.047611 0.0803176
0.283103 -0.0478887 0.0686471
0.290118 -0.0480946 0.0526177
0.296429 -0.0488222 0.038579
0.303654 -0.0491508 0.0197446
0.310839 -0.0495883 0.000910759
0.319883 -0.050065 -0.024322
0.326453 -0.050347 -0.0357516
0.331614 -0.0507077 -0.0421779
0.337957 -0.0506653 -0.0507493
0.343736 -0.0508291 -0.0591359
0.350097 -0.051366 -0.0709269
-0.193967 -0.0388354 0.279789
-0.184741 -0.0373037 0.329717
-0.178711 -0.0373187 0.348037
-0.174191 -0.0367504 0.359577
-0.168935 -0.0370328 0.371844
-0.164714 -0.0363563 0.378963
-0.16037 -0.0363427 0.385627
-0.155787 -0.036389 0.392718
-0.151583 -0.0361219 0.398225
-0.147629 -0.0359512 0.403119
-0.144044 -0.0358294 0.406016
-0.139966 -0.035858 0.41091
-0.135581 -0.0359607 0.415617
-0.131658 -0.03556 0.418308
-0.128625 -0.0355875 0.421263
-0.123885 -0.0356209 0.425053
-0.120322 -0.0351779 0.427828
-0.116849 -0.0353778 0.430715
-0.113049 -0.0350463 0.433809
-0.109353 -0.035248 0.43606
-0.105629 -0.0349871 0.439524
-0.102156 -0.0352216 0.441714
-0.0982162 -0.0353459 0.444867
-0.094393 -0.0351899 0.448104
-0.0904473 -0.0348948 0.450189
-0.0870698 -0.0349005 0.452778
-0.0837839 -0.0349457 0.453415
-0.0799331 -0.0348977 0.456109
-0.0763344 -0.0348032 0.458567
-0.0730641 -0.03502 0.460549
-0.0692901 -0.0351631 0.461707
-0.0658376 -0.0345133 0.463316
-0.0623102 -0.0347171 0.463979
-0.0587261 -0.0342414 0.465585
-0.0552333 -0.0348716 0.467319
-0.0517436 -0.0344081 0.46741
-0.048073 -0.0344726 0.468732
-0.0448657 -0.03453 0.469754
-0.0413183 -0.0341976 0.469716
-0.0379278 -0.0342448 0.470335
-0.0347211 -0.0345731 0.470456
-0.0311577 -0.0345947 0.471085
-0.0277859 -0.0344358 0.471524
-0.0242644 -0.0349193 0.471488
-0.0206454 -0.0347142 0.472244
-0.0172685 -0.0350879 0.471793
-0.0136789 -0.0344068 0.471524
-0.0105215 -0.0343843 0.471041
-0.00694331 -0.0345013 0.471146
-0.00365004 -0.0342694 0.470897
4.81094e-05 -0.0344633 0.471323
0.00344808 -0.0344877 0.470165
0.00713191 -0.0347724 0.471856
0.0100149 -0.034408 0.470663
0.0137685 -0.0347069 0.470197
0.017264 -0.0346294 0.470623
0.020856 -0.0343903 0.469971
0.0241953 -0.0341972 0.468972
0.0279643 -0.0345088 0.467487
0.0313516 -0.0347621 0.466662
0.0345602 -0.0345891 0.466317
0.037771 -0.0346626 0.465055
0.0414088 -0.0344416 0.463699
0.0455698 -0.0345009 0.462288
0.0487688 -0.0344923 0.460192
0.0520473 -0.0348992 0.459345
0.0556528 -0.0347819 0.457542
0.059535 -0.0347577 0.456517
0.062611 -0.0347311 0.454442
0.0663654 -0.0350496 0.453622
0.0697805 -0.0346921 0.451121
0.073378 -0.0350292 0.450555
0.0768708 -0.0351492 0.448463
0.0806367 -0.0347476 0.446389
0.0841185 -0.034878 0.445733
0.0879349 -0.0350593 0.44286
0.0914046 -0.0349829 0.441307
0.0952193 -0.0352586 0.439018
0.098817 -0.0352859 0.43736
0.102242 -0.0353447 0.433931
0.106027 -0.0351157 0.432486
0.109589 -0.035341 0.429475
0.113702 -0.0357195 0.424115
0.11692 -0.0352996 0.422172
0.121531 -0.0355782 0.415778
0.125295 -0.0358783 0.410993
0.129644 -0.0362008 0.406755
0.133737 -0.0359407 0.401496
0.137556 -0.0359898 0.397316
0.141347 -0.0361002 0.393616
0.145316 -0.0366289 0.387424
0.149883 -0.0364175 0.379911
0.154067 -0.0366216 0.37409
0.158508 -0.0369393 0.366693
0.162924 -0.0369799 0.358296
0.167241 -0.0370897 0.349772
0.172248 -0.0374993 0.337752
0.17937 -0.0380694 0.309426
0.185352 -0.0388486 0.288216
0.190094 -0.0388426 0.278817
0.195629 -0.03915 0.266962
0.205502 -0.0403125 0.215369
0.210333 -0.0403761 0.206089
0.215776 -0.0403854 0.196093
0.220053 -0.0408182 0.190168
0.225424 -0.0409682 0.183285
0.230915 -0.0414388 0.174067
0.23595 -0.041549 0.164333
0.241346 -0.0415301 0.154965
0.246012 -0.0419218 0.147483
0.251917 -0.0420184 0.138081
0.25807 -0.042177 0.125382
0.264132 -0.0426755 0.108227
0.271664 -0.0433545 0.0889434
0.277925 -0.0431159 0.0756965
0.283608 -0.0439284 0.0628425
0.291268 -0.0440724 0.0441018
0.297667 -0.0444023 0.0286765
0.305107 -0.0449734 0.010124
0.314226 -0.0454298 -0.0187027
0.321054 -0.0460693 -0.0331175
0.327181 -0.0458035 -0.0423429
0.333137 -0.0459686 -0.0508149
0.339248 -0.0461013 -0.0584748
0.344935 -0.0465306 -0.0673559
-0.196595 -0.0351593 0.258
-0.185422 -0.0337387 0.321566
-0.179633 -0.0339241 0.34138
-0.174423 -0.0333318 0.356051
-0.16905 -0.0326843 0.368448
-0.164854 -0.0329726 0.375939
-0.16052 -0.0327124 0.384114
-0.155924 -0.0323319 0.39051
-0.151811 -0.0323933 0.395935
-0.14776 -0.0326132 0.401587
-0.143696 -0.0323216 0.40551
-0.139909 -0.0321387 0.410363
-0.136262 -0.0324219 0.414011
-0.132319 -0.0319435 0.416667
-0.128418 -0.0321025 0.419927
-0.124442 -0.0318401 0.424029
-0.120792 -0.0318206 0.424983
-0.116622 -0.0318252 0.429123
-0.113251 -0.0319909 0.432526
-0.109486 -0.0315497 0.4353
-0.105532 -0.0317241 0.43887
-0.102113 -0.0316768 0.440422
-0.0981233 -0.0314863 0.444494
-0.0943361 -0.0317257 0.446465
-0.0907397 -0.0313794 0.448516
-0.08714 -0.0313444 0.450974
-0.0837202 -0.0316138 0.45345
-0.0799062 -0.0313772 0.455373
-0.0768431 -0.0312515 0.456656
-0.0729793 -0.0311339 0.459201
-0.0692732 -0.0311703 0.4601
-0.0659874 -0.0313949 0.462116
-0.062772 -0.031081 0.462383
-0.0587754 -0.0312214 0.463996
-0.0554015 -0.031121 0.466462
-0.0521533 -0.0307224 0.465253
-0.048292 -0.0309743 0.468131
-0.0447054 -0.0309058 0.46784
-0.041565 -0.0312302 0.468673
-0.0378444 -0.0309281 0.469009
-0.0346688 -0.0309315 0.469065
-0.0309944 -0.0310555 0.470443
-0.0273141 -0.0310293 0.470785
-0.0243084 -0.0311002 0.470989
-0.0206287 -0.0309847 0.470402
-0.0173192 -0.0310269 0.470418
-0.0136416 -0.0312903 0.470375
-0.0104416 -0.0307985 0.470194
-0.00685568 -0.0310521 0.47114
-0.00369999 -0.0309935 0.471048
-4.58134e-05 -0.0312199 0.468883
0.00342893 -0.031248 0.470652
0.0068336 -0.0309474 0.469471
0.0102938 -0.0309135 0.470101
0.0140638 -0.0307986 0.468837
0.0170008 -0.0310613 0.469572
0.0208008 -0.0310168 0.467854
0.0242071 -0.0309578 0.468747
0.0275906 -0.0312506 0.466947
0.0308424 -0.0311238 0.466415
0.0347247 -0.0311126 0.464891
0.0380151 -0.0311061 0.464397
0.041388 -0.0308595 0.462642
0.0451888 -0.0311632 0.460676
0.0485169 -0.0312323 0.460392
0.0522043 -0.0310815 0.458008
0.0557154 -0.0311562 0.456797
0.0594574 -0.031239 0.455558
0.0627455 -0.0316689 0.45369
0.0663545 -0.0313098 0.452676
0.070018 -0.0312571 0.451375
0.0731333 -0.0316337 0.450118
0.0767265 -0.0312069 0.44834
0.0805749 -0.0316635 0.446902
0.0842661 -0.0316196 0.445488
0.0877783 -0.0319168 0.443296
0.0913945 -0.0313567 0.442165
0.0949838 -0.0319435 0.43976
0.0988023 -0.0317875 0.437179
0.102297 -0.032175 0.435205
0.106024 -0.0319504 0.431791
0.109742 -0.0319883 0.429682
0.113691 -0.0319387 0.424067
0.117526 -0.0325109 0.420062
0.121676 -0.0320417 0.4143
0.125321 -0.0321859 0.409819
0.129488 -0.0324196 0.403988
0.133338 -0.0323976 0.39886
0.137557 -0.0326938 0.395502
0.141699 -0.0326184 0.390301
0.145729 -0.0326722 0.384521
0.150227 -0.0332961 0.377219
0.154098 -0.0331554 0.370825
0.158786 -0.0332099 0.36296
0.163119 -0.0334786 0.354244
0.168296 -0.0333998 0.342486
0.173377 -0.0337672 0.328685
0.180693 -0.0345006 0.296883
0.185401 -0.0348591 0.283895
0.191337 -0.0351397 0.273264
0.195397 -0.0352498 0.264621
0.206328 -0.0367007 0.209282
0.210498 -0.0368335 0.201794
0.216252 -0.0367162 0.192372
0.221458 -0.0367549 0.185079
0.22627 -0.0370198 0.177287
0.231425 -0.0371164 0.16783
0.236837 -0.0376422 0.159013
0.242085 -0.0372328 0.150386
0.247013 -0.0374674 0.142647
0.252072 -0.0378904 0.134567
0.258927 -0.037964 0.118042
0.265664 -0.0387241 0.100144
0.271821 -0.0387834 0.085441
0.278387 -0.0389614 0.0715598
0.285607 -0.0393179 0.0554531
0.291377 -0.039405 0.0415604
0.298506 -0.040166 0.0244089
0.307179 -0.0403878 -0.00162959
0.315647 -0.0414972 -0.0306735
0.322558 -0.0412041 -0.0431795
0.327859 -0.0416791 -0.0496409
0.334081 -0.0415255 -0.0585837
0.34017 -0.0422078 -0.066144
0.348895 -0.0424944 -0.0889256
-0.188576 -0.030589 0.296642
-0.179382 -0.0304267 0.338688
-0.174772 -0.0297456 0.351454
-0.169548 -0.0294707 0.365318
-0.164958 -0.0292604 0.373808
-0.160828 -0.0291878 0.38117
-0.156424 -0.0290646 0.388047
-0.152227 -0.0290272 0.394004
-0.147661 -0.0289583 0.40014
-0.144147 -0.0288359 0.403843
-0.140194 -0.0283123 0.408043
-0.136016 -0.0290249 0.412174
-0.132476 -0.0286032 0.415079
-0.128426 -0.0285827 0.418285
-0.124848 -0.0283818 0.421668
-0.12102 -0.0287256 0.424738
-0.116735 -0.0281411 0.428814
-0.113422 -0.0282548 0.43001
-0.109725 -0.028508 0.434552
-0.105834 -0.0281955 0.436826
-0.101811 -0.0282434 0.439572
-0.0983545 -0.0282307 0.442042
-0.094533 -0.0281486 0.445222
-0.0906119 -0.0276182 0.446719
-0.0876884 -0.0279314 0.449251
-0.0835773 -0.0283297 0.45255
-0.0804241 -0.0279304 0.452944
-0.0766786 -0.0280028 0.455004
-0.0728713 -0.0280068 0.457614
-0.0695268 -0.0278021 0.457758
-0.0658992 -0.0279224 0.460654
-0.0627605 -0.0276877 0.462591
-0.058761 -0.0277159 0.46329
-0.0556431 -0.0277509 0.464104
-0.0522593 -0.0277095 0.464943
-0.0486192 -0.0276211 0.465707
-0.0449928 -0.0275263 0.466803
-0.0417227 -0.0278863 0.466868
-0.0379779 -0.0278699 0.46642
-0.0343846 -0.0276516 0.467203
-0.0307882 -0.0274243 0.468692
-0.0274973 -0.0277453 0.468875
-0.0239738 -0.0275627 0.46937
-0.0207456 -0.027567 0.46938
-0.0173348 -0.0274696 0.469401
-0.0138824 -0.0276286 0.469598
-0.0102273 -0.0275934 0.46965
-0.00690213 -0.027339 0.469285
-0.00350374 -0.0276342 0.469511
0.000187329 -0.0277109 0.46988
0.00370102 -0.027769 0.468887
0.00691082 -0.0280077 0.46918
0.0106131 -0.0271912 0.467927
0.0140219 -0.0272864 0.468274
0.0172948 -0.0278656 0.466575
0.0205504 -0.0275217 0.466325
0.0246468 -0.0277369 0.466366
0.0277842 -0.0276938 0.464698
0.0314425 -0.0277327 0.465048
0.0346355 -0.0275225 0.463552
0.0380399 -0.0277665 0.462642
0.0415964 -0.0277468 0.46235
0.0453698 -0.0280043 0.459794
0.0489383 -0.0274057 0.458876
0.0523437 -0.0275553 0.457322
0.0560239 -0.0277196 0.455685
0.0594178 -0.0280422 0.454668
0.0627574 -0.0281126 0.453928
0.0663057 -0.0282613 0.451796
0.0696654 -0.0282668 0.451275
0.0735209 -0.0276742 0.450135
0.0768572 -0.0279068 0.449046
0.0806947 -0.0281959 0.447259
0.0842929 -0.0281247 0.445619
0.0877178 -0.0281185 0.444415
0.0913721 -0.0279778 0.441201
0.0950704 -0.0278852 0.438995
0.0987999 -0.0284667 0.437231
0.102366 -0.0283834 0.434364
0.106086 -0.0282327 0.432536
0.109931 -0.028393 0.428698
0.113709 -0.0281671 0.424667
0.117868 -0.0287248 0.418702
0.121371 -0.0285633 0.414494
0.125559 -0.0287254 0.408972
0.129659 -0.0287535 0.402043
0.133396 -0.0286257 0.397542
0.137938 -0.0289425 0.39169
0.141718 -0.0290806 0.388571
0.146018 -0.0289038 0.380405
0.150572 -0.0291923 0.373814
0.154451 -0.0295932 0.366459
0.159451 -0.0296621 0.357612
0.16411 -0.0295018 0.346965
0.168834 -0.0300858 0.336147
0.175073 -0.0304807 0.315406
0.18098 -0.0305539 0.290116
0.186076 -0.0313565 0.279294
0.19135 -0.0311856 0.269394
0.196991 -0.0312936 0.254613
0.206089 -0.0324301 0.204535
0.211664 -0.0328168 0.195609
0.216719 -0.0328213 0.188387
0.22167 -0.0327845 0.180121
0.22707 -0.0329587 0.171213
0.232231 -0.0332386 0.162249
0.237776 -0.0333482 0.153861
0.243093 -0.0333539 0.144595
0.247832 -0.0333807 0.137698
0.253131 -0.0342007 0.128789
0.259296 -0.0344005 0.113546
0.266322 -0.0344081 0.0950854
0.272262 -0.0347101 0.0819911
0.279074 -0.0351912 0.0680904
0.286273 -0.0350851 0.0516045
0.29205 -0.035658 0.0386651
0.298478 -0.035876 0.0231893
0.309487 -0.0363417 -0.0176594
0.318195 -0.0368276 -0.0422199
0.32349 -0.0368192 -0.0501969
0.329257 -0.0371686 -0.0580001
0.335696 -0.0372605 -0.0667
0.342487 -0.037345 -0.0815301
-0.190348 -0.0273985 0.27715
-0.181132 -0.0260838 0.326485
-0.175331 -0.0259762 0.346102
-0.169957 -0.0263091 0.360866
-0.165534 -0.0257665 0.369884
-0.16096 -0.0256557 0.378799
-0.156808 -0.0253097 0.384896
-0.152363 -0.0256559 0.391334
-0.14773 -0.025088 0.397792
-0.144444 -0.0251344 0.400899
-0.140215 -0.0250662 0.406742
-0.136392 -0.0252732 0.410232
-0.132324 -0.0250665 0.412976
-0.128331 -0.0247234 0.41718
-0.124552 -0.024943 0.420497
-0.120712 -0.0246378 0.424528
-0.117466 -0.0247742 0.427228
-0.113352 -0.0249183 0.43033
-0.109871 -0.0246529 0.431967
-0.10579 -0.0245105 0.436209
-0.102013 -0.0245599 0.438303
-0.0982342 -0.0246225 0.441321
-0.0947289 -0.0246782 0.444206
-0.0911193 -0.0244917 0.446308
-0.0876879 -0.0242795 0.448337
-0.083716 -0.0246529 0.450701
-0.0799736 -0.0248239 0.452373
-0.0768226 -0.0246413 0.454129
-0.0729673 -0.0244639 0.45625
-0.0695082 -0.0243473 0.458203
-0.0660756 -0.0244259 0.458476
-0.0624193 -0.024222 0.460086
-0.0592574 -0.0242626 0.46143
-0.0555838 -0.0243272 0.462067
-0.0520527 -0.0241158 0.464728
-0.0483518 -0.023969 0.464685
-0.0452123 -0.0239596 0.464794
-0.0416306 -0.0242403 0.466021
-0.0378546 -0.0239568 0.467022
-0.0343524 -0.0240141 0.467236
-0.0308806 -0.0240569 0.467034
-0.0277471 -0.0242473 0.468274
-0.0242687 -0.0242908 0.467311
-0.0207491 -0.0241308 0.468005
-0.0171472 -0.0241069 0.46769
-0.0136538 -0.0242798 0.467107
-0.010415 -0.0241462 0.468105
-0.00727144 -0.0241963 0.467675
-0.00374465 -0.0241555 0.467611
4.69466e-05 -0.0242871 0.467638
0.00351088 -0.024189 0.467191
0.00725308 -0.0238814 0.466652
0.010185 -0.0241165 0.467126
0.0137531 -0.0240525 0.467746
0.0171458 -0.0240601 0.466716
