ply
format ascii 1.0
element vertex 1692
property float x
property float y
property float z
end_header
0.00463375 0.30063 -0.115527
0.00998817 0.297962 -0.0975547
0.0141193 0.2966 -0.0872986
0.0188867 0.295238 -0.080075
0.0237265 0.295195 -0.0744863
0.0281098 0.294543 -0.0733311
0.0323885 0.294777 -0.0731001
0.0369745 0.29489 -0.0740707
0.0419223 0.294691 -0.0755055
0.0469699 0.294829 -0.0767109
0.0515 0.295228 -0.0779147
0.0558409 0.29567 -0.0787783
0.061254 0.29599 -0.0837991
0.0656444 0.296449 -0.0862465
0.0708027 0.296981 -0.0932641
0.0757373 0.298294 -0.100115
0.0808317 0.299835 -0.109297
0.086817 0.303175 -0.134554
0.140342 0.327957 -0.308301
0.145342 0.326534 -0.295868
0.150034 0.3253 -0.287566
0.154093 0.323756 -0.280962
0.158606 0.32317 -0.274976
0.163849 0.322378 -0.26969
0.168415 0.321422 -0.264361
0.173329 0.321142 -0.259576
0.178163 0.320616 -0.25613
0.182742 0.319784 -0.251872
0.187116 0.319032 -0.247677
0.192049 0.318514 -0.243935
0.197117 0.318521 -0.241327
0.202142 0.318084 -0.23798
0.206543 0.317865 -0.236625
0.211742 0.317032 -0.232929
0.216264 0.316934 -0.230074
0.220996 0.316862 -0.229463
0.225638 0.31643 -0.22778
0.231034 0.315645 -0.225434
0.235774 0.315732 -0.223451
0.240705 0.315735 -0.223044
0.245376 0.315587 -0.221117
0.25074 0.315255 -0.218705
0.255493 0.315234 -0.218136
0.260026 0.314861 -0.216774
0.264994 0.315164 -0.216127
0.269915 0.314768 -0.214415
0.27452 0.314737 -0.213417
0.279192 0.314519 -0.212295
0.284495 0.314238 -0.211515
0.289062 0.313725 -0.211413
0.294425 0.313812 -0.210517
0.298576 0.313833 -0.210167
0.304039 0.313869 -0.209424
0.309346 0.313787 -0.210033
0.313964 0.313807 -0.208946
0.318363 0.313613 -0.208275
0.323551 0.313954 -0.208675
0.328958 0.313326 -0.206314
0.333403 0.313113 -0.206071
0.338243 0.313744 -0.207637
0.343303 0.313699 -0.206223
0.34812 0.313119 -0.205964
0.352998 0.313673 -0.205488
0.3583 0.313416 -0.204889
0.363178 0.312916 -0.204569
0.367729 0.313159 -0.204209
0.372476 0.313024 -0.203778
0.377282 0.313314 -0.203592
0.382865 0.312933 -0.204084
0.388093 0.313341 -0.205278
0.393163 0.313886 -0.206536
0.000268922 0.313944 -0.177492
0.00444543 0.304723 -0.110413
0.00992673 0.301236 -0.0899365
0.013973 0.300004 -0.0800335
0.0184203 0.299022 -0.0719941
0.023883 0.298657 -0.0667365
0.0278142 0.298251 -0.0663033
0.0321952 0.298319 -0.0647469
0.0369247 0.298149 -0.0657775
0.0416257 0.29859 -0.0667512
0.0467792 0.29855 -0.0679607
0.051456 0.298658 -0.0703762
0.0558505 0.298972 -0.0708191
0.0607717 0.299652 -0.0748909
0.0657918 0.30019 -0.0796032
0.0704051 0.301006 -0.0843937
0.0758308 0.301728 -0.0924003
0.0807055 0.303538 -0.101265
0.0860445 0.305167 -0.117722
0.150461 0.331856 -0.298605
0.154503 0.330025 -0.288239
0.159356 0.329272 -0.281274
0.16416 0.328089 -0.274669
0.168743 0.327589 -0.26953
0.17346 0.326881 -0.264301
0.178346 0.325768 -0.25872
0.183043 0.325249 -0.254337
0.187834 0.324525 -0.249711
0.192242 0.324163 -0.245944
0.197037 0.323887 -0.242722
0.202187 0.323681 -0.240259
0.206723 0.322717 -0.23655
0.211881 0.322095 -0.233739
0.216589 0.321824 -0.231227
0.221238 0.321827 -0.23052
0.226189 0.32201 -0.227655
0.23108 0.320938 -0.225872
0.235712 0.320734 -0.224681
0.240393 0.320592 -0.222598
0.245234 0.320792 -0.222121
0.250497 0.320156 -0.219427
0.254771 0.319642 -0.218059
0.259745 0.320156 -0.216104
0.264649 0.319579 -0.214463
0.269551 0.319577 -0.21399
0.274142 0.319134 -0.212173
0.279334 0.319517 -0.212216
0.284118 0.31918 -0.211271
0.289182 0.318734 -0.210346
0.293813 0.31863 -0.209218
0.298946 0.31882 -0.209877
0.303587 0.318815 -0.208311
0.308802 0.318871 -0.208261
0.313806 0.318469 -0.20648
0.318381 0.318168 -0.205818
0.324167 0.318524 -0.206536
0.328088 0.318117 -0.206336
0.333239 0.318127 -0.205497
0.33837 0.318007 -0.204729
0.343108 0.31796 -0.204344
0.347644 0.317656 -0.203605
0.352283 0.317892 -0.202858
0.357797 0.317877 -0.202599
0.362452 0.31752 -0.202628
0.367671 0.317742 -0.20119
0.37234 0.317569 -0.201152
0.377018 0.317696 -0.201478
0.382234 0.317738 -0.199846
0.387252 0.317357 -0.19962
0.392486 0.317555 -0.201656
0.397686 0.318186 -0.20457
-1.48306e-05 0.319754 -0.182596
0.00471293 0.308475 -0.103592
0.00919671 0.305355 -0.0832684
0.0139749 0.303698 -0.0712056
0.0188751 0.302909 -0.0635676
0.0231574 0.302122 -0.0609698
0.0280447 0.30222 -0.0581574
0.0321727 0.302178 -0.0557594
0.0372789 0.301897 -0.0575702
0.0419649 0.301693 -0.057626
0.0464166 0.302089 -0.0601964
0.0510631 0.302263 -0.0603178
0.0560686 0.302666 -0.0632811
0.0608872 0.30302 -0.0671799
0.0652578 0.303752 -0.0714409
0.0699005 0.30422 -0.0762041
0.0750758 0.305847 -0.0826998
0.0800306 0.306505 -0.0908961
0.0854637 0.30879 -0.1051
0.155896 0.337765 -0.301977
0.159606 0.3365 -0.291713
0.164664 0.334749 -0.281836
0.168987 0.333609 -0.27496
0.173954 0.33291 -0.268774
0.178046 0.331759 -0.263853
0.183284 0.331317 -0.25917
0.187731 0.330201 -0.253191
0.192632 0.329748 -0.249135
0.197503 0.328998 -0.245013
0.201987 0.328149 -0.240882
0.207123 0.327961 -0.239
0.212204 0.327498 -0.235887
0.216162 0.327368 -0.23353
0.221313 0.327213 -0.230803
0.226163 0.326577 -0.2289
0.231359 0.326456 -0.226679
0.235799 0.325758 -0.224762
0.24051 0.325757 -0.222784
0.245404 0.325404 -0.220789
0.250421 0.325391 -0.218456
0.255091 0.324941 -0.217755
0.259992 0.325124 -0.215856
0.264595 0.324761 -0.214905
0.269265 0.324432 -0.212709
0.274404 0.324217 -0.212391
0.279409 0.324308 -0.211261
0.284124 0.323908 -0.209881
0.288797 0.32377 -0.208942
0.293605 0.323529 -0.207614
0.299113 0.323374 -0.207611
0.303568 0.323367 -0.207446
0.308565 0.323581 -0.206047
0.313516 0.323627 -0.20559
0.318728 0.3235 -0.205792
0.323064 0.322992 -0.204398
0.328103 0.322718 -0.203804
0.333459 0.322657 -0.203742
0.337407 0.322121 -0.202104
0.342556 0.322517 -0.202049
0.347802 0.322938 -0.201227
0.352394 0.322703 -0.201151
0.357099 0.322536 -0.20084
0.362316 0.322289 -0.200099
0.367161 0.322616 -0.199719
0.372227 0.322183 -0.198585
0.376897 0.322509 -0.198483
0.381241 0.322129 -0.197903
0.386546 0.321501 -0.197265
0.391315 0.321974 -0.196579
0.397071 0.321956 -0.198842
8.80262e-05 0.325159 -0.184666
0.00477595 0.312361 -0.0988894
0.00934058 0.309064 -0.0738566
0.0142497 0.307043 -0.0638978
0.0186505 0.306265 -0.0578442
0.0237942 0.305349 -0.0541792
0.0279818 0.305098 -0.0508704
0.0323478 0.30493 -0.0510104
0.0373336 0.305101 -0.0496414
0.0418533 0.305492 -0.0504308
0.0460178 0.305329 -0.0510566
0.0508734 0.305595 -0.0531785
0.0556599 0.305802 -0.0571871
0.0601129 0.306499 -0.0591269
0.0651693 0.307255 -0.0643995
0.0700242 0.30787 -0.0694954
0.0749343 0.308795 -0.0760362
0.0797592 0.310088 -0.0829582
0.0852826 0.312207 -0.0953538
0.0905429 0.314576 -0.115197
0.165237 0.341428 -0.291449
0.169802 0.339226 -0.280685
0.174464 0.33874 -0.275157
0.179471 0.338029 -0.269134
0.183291 0.336335 -0.261905
0.188685 0.335941 -0.257577
0.193179 0.335257 -0.252556
0.198191 0.334515 -0.24808
0.202396 0.333455 -0.244396
0.206837 0.333281 -0.240643
0.212249 0.332793 -0.237711
0.21638 0.332239 -0.234537
0.221469 0.33218 -0.232619
0.226536 0.332213 -0.229774
0.231144 0.330952 -0.226664
0.235901 0.331565 -0.225681
0.240271 0.331012 -0.223166
0.245851 0.330499 -0.221285
0.250285 0.33071 -0.219179
0.254911 0.330065 -0.218212
0.259705 0.329598 -0.215611
0.264563 0.329588 -0.214543
0.269409 0.328881 -0.213516
0.274371 0.328958 -0.211858
0.27918 0.328849 -0.210274
0.284042 0.328962 -0.209379
0.289211 0.328742 -0.208626
0.294257 0.328761 -0.208552
0.29838 0.328297 -0.206983
0.303498 0.328099 -0.205886
0.308599 0.328068 -0.205755
0.31335 0.328389 -0.20447
0.318053 0.328094 -0.20388
0.323128 0.327972 -0.202988
0.328047 0.328329 -0.202677
0.3328 0.328386 -0.202394
0.337786 0.327847 -0.200103
0.342419 0.32787 -0.201134
0.347092 0.327475 -0.199454
0.351836 0.327354 -0.19794
0.357021 0.327053 -0.19794
0.3619 0.326965 -0.197812
0.36654 0.326954 -0.196849
0.370962 0.327 -0.196999
0.376001 0.327074 -0.195419
0.381605 0.326602 -0.194935
0.386026 0.326731 -0.194332
0.390788 0.326715 -0.194142
0.396017 0.326628 -0.194276
0.400842 0.326707 -0.194642
0.406696 0.327597 -0.200094
0.00023113 0.330994 -0.188326
0.00499723 0.317019 -0.0993502
0.00946139 0.312366 -0.0695662
0.0137247 0.310515 -0.0577192
0.0183886 0.309643 -0.0498102
0.0231262 0.309013 -0.0460722
0.0274866 0.308792 -0.0433538
0.0325664 0.308449 -0.0415895
0.0369972 0.308531 -0.0409112
0.0414655 0.308586 -0.0417931
0.04623 0.308663 -0.042897
0.0509873 0.309054 -0.045855
0.0555631 0.309721 -0.0480592
0.0599501 0.309922 -0.052017
0.0649407 0.310389 -0.056994
0.0694475 0.311608 -0.0609758
0.074915 0.312585 -0.0684233
0.079514 0.313596 -0.0740876
0.0849614 0.3154 -0.0853381
0.0902462 0.317557 -0.103473
0.170596 0.346218 -0.292934
0.175328 0.344919 -0.28196
0.179946 0.344172 -0.275846
0.184231 0.342429 -0.267334
0.189336 0.341801 -0.262355
0.19351 0.340825 -0.256879
0.198042 0.340088 -0.252806
0.202769 0.339985 -0.249011
0.207314 0.339321 -0.24488
0.212232 0.338833 -0.239959
0.216618 0.338022 -0.238069
0.221551 0.337637 -0.233704
0.22643 0.337333 -0.231773
0.231083 0.3373 -0.230128
0.236171 0.33683 -0.22799
0.240591 0.336027 -0.22392
0.245157 0.335884 -0.22251
0.2502 0.335133 -0.220409
0.254816 0.335225 -0.219049
0.259745 0.335134 -0.21708
0.264838 0.334624 -0.21508
0.269511 0.334769 -0.21348
0.274006 0.334681 -0.211765
0.278679 0.334084 -0.210373
0.284103 0.334091 -0.209766
0.28883 0.333474 -0.2091
0.293718 0.333391 -0.208357
0.298584 0.332966 -0.206771
0.303819 0.332897 -0.205426
0.308684 0.333316 -0.204736
0.313196 0.332827 -0.203542
0.317781 0.332635 -0.20255
0.322749 0.333025 -0.201998
0.327657 0.332861 -0.200526
0.332226 0.332424 -0.200673
0.337305 0.332432 -0.200135
0.341887 0.332031 -0.199353
0.347411 0.331966 -0.199683
0.35143 0.332116 -0.197031
0.356619 0.331671 -0.196504
0.361422 0.331428 -0.195362
0.366322 0.331403 -0.194571
0.371352 0.331219 -0.194059
0.375773 0.330978 -0.192449
0.380146 0.331407 -0.191884
0.386067 0.331021 -0.191705
0.390829 0.331067 -0.190702
0.395015 0.330802 -0.190304
0.400253 0.331192 -0.191095
0.405555 0.330843 -0.191915
0.00513522 0.331734 -0.167524
0.00853872 0.317317 -0.0681992
0.0138794 0.314568 -0.0518658
0.0183082 0.313547 -0.0441165
0.023021 0.312557 -0.0389829
0.0274238 0.312298 -0.0364528
0.0320111 0.312026 -0.0344934
0.036242 0.312229 -0.0338209
0.0410576 0.31199 -0.033273
0.0457722 0.31165 -0.0351145
0.0509439 0.312162 -0.0366707
0.0550784 0.312772 -0.0397921
0.0599079 0.313595 -0.0438845
0.0647216 0.313958 -0.0479519
0.0695145 0.314987 -0.0525935
0.0738744 0.315943 -0.0585485
0.0794323 0.317095 -0.0658338
0.0842232 0.318174 -0.0771439
0.0895972 0.32036 -0.0893681
0.180164 0.350311 -0.285069
0.184768 0.349498 -0.276354
0.189277 0.347814 -0.268509
0.193624 0.346635 -0.261987
0.198625 0.34565 -0.256352
0.202852 0.344972 -0.251451
0.207903 0.344651 -0.24792
0.213315 0.344526 -0.244349
0.217476 0.343557 -0.239843
0.222062 0.343157 -0.23616
0.226851 0.342238 -0.2338
0.231652 0.34259 -0.231367
0.236504 0.341928 -0.228814
0.241105 0.341611 -0.227071
0.245661 0.340856 -0.223271
0.250513 0.34073 -0.222378
0.254877 0.340226 -0.218799
0.260166 0.340258 -0.217603
0.264831 0.339635 -0.215006
0.269402 0.339408 -0.213849
0.274543 0.339191 -0.212272
0.279245 0.338705 -0.210152
0.283923 0.339204 -0.209049
0.288851 0.338278 -0.208194
0.293544 0.338229 -0.206787
0.298389 0.33842 -0.205187
0.303742 0.338292 -0.205422
0.308011 0.337542 -0.203044
0.312831 0.337711 -0.202973
0.317882 0.337745 -0.202754
0.322214 0.337329 -0.201287
0.327476 0.337717 -0.199979
0.332288 0.337236 -0.199087
0.33728 0.337193 -0.197668
0.3419 0.336875 -0.196698
0.34699 0.337287 -0.197037
0.351261 0.336559 -0.195065
0.355567 0.336309 -0.19424
0.361078 0.336544 -0.193801
0.366439 0.335978 -0.192937
0.370537 0.336368 -0.192369
0.375581 0.336095 -0.19147
0.380252 0.336446 -0.190296
0.385428 0.33616 -0.189513
0.389538 0.335386 -0.188247
0.394558 0.335219 -0.187578
0.399421 0.335227 -0.186483
0.404175 0.335015 -0.187923
0.40979 0.336113 -0.188103
0.00498644 0.337145 -0.167884
0.00932715 0.32128 -0.0637732
0.0136564 0.317877 -0.047029
0.0183177 0.316864 -0.036442
0.022752 0.316365 -0.0337358
0.0275122 0.315879 -0.0296628
0.0318184 0.315441 -0.0270524
0.0367145 0.315063 -0.0253534
0.0411866 0.315252 -0.0255408
0.0458915 0.315515 -0.0270975
0.0506395 0.315757 -0.0285046
0.0554263 0.316323 -0.0315545
0.0599189 0.316839 -0.0358136
0.0644271 0.31732 -0.0406806
0.069069 0.318163 -0.0446715
0.0742029 0.31898 -0.0511591
0.0786858 0.320455 -0.0576406
0.0843243 0.321729 -0.0689976
0.0887983 0.323784 -0.0785785
0.0946125 0.326829 -0.0987332
0.185959 0.355659 -0.287507
0.189926 0.354876 -0.278696
0.194412 0.353022 -0.269142
0.199133 0.352346 -0.262711
0.203538 0.351301 -0.258176
0.20825 0.350404 -0.252811
0.213149 0.35018 -0.248429
0.217268 0.348674 -0.243537
0.22206 0.348204 -0.239633
0.227344 0.348503 -0.237642
0.231656 0.347828 -0.234512
0.236425 0.347116 -0.23086
0.241225 0.346787 -0.228623
0.245889 0.345994 -0.224612
0.250826 0.345938 -0.223486
0.255664 0.345424 -0.221704
0.259883 0.345354 -0.21824
0.264848 0.345211 -0.216337
0.269612 0.345185 -0.215039
0.27459 0.344079 -0.212972
0.27913 0.343918 -0.211998
0.284116 0.344014 -0.210306
0.288812 0.344104 -0.208178
0.293771 0.343866 -0.208218
0.298063 0.342923 -0.205403
0.303111 0.343485 -0.20446
0.307902 0.343042 -0.203918
0.312754 0.342923 -0.203307
0.317435 0.342082 -0.201056
0.322417 0.342615 -0.199921
0.327347 0.342605 -0.199529
0.332342 0.341755 -0.197815
0.337025 0.342167 -0.197369
0.341734 0.341905 -0.197066
0.346939 0.341928 -0.195604
0.35131 0.341495 -0.195159
0.355868 0.341388 -0.192335
0.361052 0.341539 -0.192252
0.365333 0.341221 -0.191512
0.370237 0.340927 -0.190809
0.375202 0.340853 -0.190223
0.379912 0.340349 -0.187778
0.384598 0.340186 -0.187432
0.389323 0.340082 -0.186012
0.394604 0.339868 -0.184797
0.39908 0.340032 -0.184717
0.403675 0.339831 -0.18285
0.408726 0.340154 -0.183389
0.414049 0.340129 -0.186411
0.00501241 0.341918 -0.167936
0.00983093 0.340748 -0.156134
0.0135539 0.322833 -0.0452628
0.0186613 0.321265 -0.0328534
0.022787 0.320017 -0.0279748
0.0272723 0.31933 -0.0230684
0.0317885 0.319102 -0.0195191
0.0368203 0.318962 -0.0180013
0.041225 0.318929 -0.0174351
0.0456769 0.318745 -0.0188615
0.0500065 0.318762 -0.0212932
0.0545691 0.319541 -0.0240734
0.0595227 0.320342 -0.0274673
0.0639678 0.320752 -0.0326855
0.0687868 0.321817 -0.0368936
0.0740807 0.322585 -0.0436587
0.0787677 0.323712 -0.0513732
0.0841606 0.325149 -0.0604002
0.0888923 0.326895 -0.0709722
0.0948723 0.330047 -0.0918393
0.195486 0.360123 -0.281935
0.199898 0.35811 -0.271009
0.204259 0.357202 -0.263951
0.209001 0.3568 -0.258228
0.2136 0.35556 -0.252965
0.21822 0.354978 -0.248409
0.222513 0.354118 -0.24437
0.227568 0.353739 -0.241151
0.232224 0.353512 -0.23831
0.236885 0.353069 -0.235063
0.241635 0.352395 -0.231041
0.246187 0.351435 -0.227791
0.250952 0.350962 -0.2253
0.255811 0.350949 -0.221853
0.260855 0.350387 -0.220716
0.26558 0.350506 -0.218764
0.27004 0.349996 -0.216374
0.275114 0.349592 -0.214278
0.279258 0.349356 -0.213589
0.284176 0.349532 -0.211736
0.289015 0.348661 -0.209007
0.29359 0.348706 -0.207369
0.298504 0.348412 -0.206617
0.303292 0.348153 -0.205405
0.308086 0.34778 -0.203176
0.313196 0.347044 -0.202697
0.317766 0.34745 -0.201467
0.322422 0.347405 -0.200025
0.32717 0.347168 -0.197691
0.332215 0.347037 -0.19713
0.336616 0.346711 -0.196925
0.340979 0.346121 -0.195396
0.346172 0.346653 -0.194844
0.35134 0.346768 -0.193199
0.356058 0.346566 -0.192966
0.36074 0.346223 -0.191246
0.365565 0.345698 -0.190385
0.369974 0.345278 -0.187758
0.374857 0.345327 -0.188076
0.380103 0.345358 -0.185653
0.384241 0.345447 -0.185787
0.388991 0.344868 -0.183944
0.393996 0.344593 -0.18228
0.398704 0.344378 -0.182714
0.402677 0.344165 -0.180383
0.40837 0.344326 -0.1809
0.413259 0.344611 -0.181226
0.4189 0.345008 -0.183934
0.00472413 0.346966 -0.168591
0.0100708 0.344577 -0.155105
0.0135669 0.3286 -0.0503654
0.0180922 0.325662 -0.0321078
0.0230688 0.324202 -0.0227776
0.0273041 0.323318 -0.0176501
0.031584 0.322122 -0.0135262
0.0359444 0.322396 -0.0116313
0.0406013 0.321649 -0.0112815
0.0450499 0.321871 -0.0113468
0.0500494 0.322516 -0.0130827
0.0546649 0.322919 -0.0164726
0.0592905 0.323437 -0.0206814
0.0635213 0.32401 -0.0247335
0.0687518 0.325109 -0.0301375
0.0732781 0.325911 -0.0356429
0.0784938 0.327214 -0.0433574
0.083603 0.328948 -0.0521109
0.0884922 0.330465 -0.063251
0.0931191 0.33234 -0.0753579
0.205437 0.365136 -0.276751
0.209679 0.362883 -0.267038
0.214171 0.362418 -0.261286
0.218835 0.361522 -0.255198
0.223429 0.360082 -0.249411
0.22798 0.359287 -0.24513
0.232903 0.359346 -0.241493
0.236905 0.358584 -0.237608
0.241933 0.357252 -0.233855
0.246141 0.357015 -0.231154
0.251289 0.356713 -0.228282
0.255994 0.356702 -0.225348
0.260601 0.356049 -0.223299
0.26553 0.355709 -0.220942
0.269994 0.3552 -0.218292
0.274778 0.354645 -0.216257
0.279584 0.353824 -0.213808
0.284332 0.354676 -0.212158
0.289595 0.354012 -0.21069
0.293796 0.353973 -0.208259
0.298527 0.353602 -0.206536
0.303467 0.353251 -0.205714
0.308151 0.352784 -0.202952
0.312879 0.352384 -0.202791
0.317721 0.352601 -0.200338
0.322744 0.352347 -0.200096
0.327302 0.35227 -0.198499
0.331882 0.352192 -0.197294
0.336616 0.351551 -0.195366
0.34179 0.351404 -0.194754
0.346777 0.351836 -0.193389
0.350872 0.350773 -0.191682
0.356119 0.350824 -0.190649
0.360541 0.350315 -0.189631
0.365716 0.350291 -0.189338
0.370306 0.350495 -0.187756
0.374422 0.350081 -0.185996
0.379268 0.349726 -0.184763
0.384214 0.349988 -0.183417
0.388936 0.349022 -0.181771
0.393191 0.349148 -0.181311
0.398065 0.348844 -0.179049
0.403228 0.349052 -0.178972
0.407216 0.348364 -0.177046
0.412278 0.348805 -0.177763
0.418015 0.348996 -0.180402
0.423746 0.349718 -0.185147
0.004998 0.351814 -0.170321
0.00923608 0.350335 -0.154917
0.0148221 0.348508 -0.144036
0.0183686 0.329487 -0.0317073
0.0230178 0.32789 -0.019891
0.0270956 0.326757 -0.0131845
0.0316502 0.326139 -0.00735784
0.0365109 0.325124 -0.00502491
0.041233 0.325507 -0.00355196
0.0450258 0.325297 -0.00418973
0.0499821 0.325568 -0.00545239
0.0545309 0.326173 -0.00793767
0.0589969 0.326736 -0.0123851
0.063643 0.327314 -0.0161402
0.0683491 0.328556 -0.0206661
0.0732798 0.329502 -0.0275674
0.0779639 0.330426 -0.0349767
0.0826683 0.331694 -0.0423923
0.0880859 0.333499 -0.0540509
0.0926557 0.335291 -0.0672488
0.0989828 0.339889 -0.0929039
0.211173 0.371139 -0.284493
0.214654 0.368269 -0.269547
0.219206 0.367426 -0.263494
0.223642 0.36551 -0.254265
0.22848 0.366142 -0.251861
0.2335 0.36462 -0.246627
0.237607 0.364287 -0.242906
0.242059 0.36362 -0.238982
0.247049 0.362585 -0.235717
0.251375 0.362187 -0.231724
0.255972 0.3623 -0.228653
0.260766 0.361364 -0.22611
0.265964 0.360857 -0.223233
0.270305 0.360579 -0.220209
0.274619 0.360521 -0.218627
0.279514 0.359892 -0.216008
0.285191 0.359512 -0.213763
0.288887 0.359034 -0.211692
0.294002 0.358404 -0.20934
0.299042 0.358701 -0.208213
0.303491 0.358358 -0.206698
0.308016 0.357945 -0.203957
0.313151 0.357838 -0.203578
0.317733 0.357623 -0.201782
0.322499 0.357453 -0.199429
0.326898 0.356665 -0.198831
0.332303 0.356494 -0.196285
0.336558 0.356364 -0.195777
0.341346 0.356526 -0.194081
0.346202 0.356128 -0.193144
0.350449 0.355525 -0.191946
0.355818 0.355623 -0.189936
0.360389 0.355438 -0.188666
0.364946 0.355307 -0.187213
0.369885 0.35513 -0.185561
0.374667 0.355006 -0.185474
0.378681 0.354363 -0.183848
0.38402 0.354432 -0.182128
0.388588 0.353866 -0.180911
0.393057 0.353668 -0.178866
0.398048 0.35339 -0.178455
0.402775 0.353328 -0.176986
0.406987 0.35365 -0.176425
0.411686 0.352814 -0.17518
0.416683 0.353292 -0.175184
0.423419 0.353751 -0.179523
0.00981374 0.35431 -0.152363
0.0147846 0.353043 -0.143493
0.019057 0.351228 -0.134764
0.0229581 0.332415 -0.0195348
0.0277343 0.330645 -0.00924563
0.0314841 0.329553 -0.00203061
0.0358432 0.328988 0.000833154
0.0401257 0.328653 0.00285459
0.0450801 0.328659 0.00271749
0.049344 0.328752 0.00174952
0.0544849 0.329105 -0.00193
0.058847 0.330186 -0.0033946
0.0634882 0.330729 -0.0085535
0.0685578 0.331489 -0.0157948
0.0725173 0.332614 -0.0205042
0.0778295 0.333759 -0.027889
0.0825775 0.335486 -0.0354371
0.0878203 0.336809 -0.046675
0.093012 0.339249 -0.060082
0.0988263 0.342854 -0.0822299
0.220863 0.374849 -0.276616
0.224638 0.372825 -0.266856
0.229071 0.371779 -0.259258
0.234141 0.370893 -0.252983
0.238228 0.370612 -0.249008
0.242722 0.36994 -0.244539
0.247538 0.368239 -0.238504
0.252634 0.368545 -0.236618
0.256884 0.367857 -0.233012
0.261422 0.366727 -0.229119
0.26592 0.36662 -0.226876
0.270952 0.365749 -0.223613
0.275188 0.366119 -0.221318
0.280178 0.365536 -0.219554
0.284937 0.364645 -0.216096
0.289855 0.364326 -0.21355
0.294223 0.364677 -0.212208
0.298895 0.363832 -0.209545
0.303661 0.363743 -0.207868
0.308183 0.36287 -0.205919
0.313093 0.362878 -0.204097
0.317393 0.361663 -0.201335
0.322396 0.362823 -0.200758
0.327196 0.362337 -0.199409
0.331939 0.36151 -0.19683
0.336685 0.361496 -0.196133
0.340999 0.361396 -0.193717
0.346583 0.360919 -0.19276
0.350994 0.360638 -0.191322
0.355276 0.360156 -0.188859
0.359911 0.360937 -0.188281
0.364639 0.35988 -0.187093
0.369886 0.359593 -0.185788
0.374115 0.359573 -0.183612
0.378924 0.359438 -0.18201
0.383887 0.359217 -0.18132
0.388236 0.358529 -0.179119
0.392745 0.358738 -0.178118
0.397184 0.358365 -0.176775
0.401857 0.358152 -0.174935
0.40722 0.357949 -0.174124
0.411963 0.357914 -0.173901
0.416277 0.357446 -0.173132
0.421464 0.3577 -0.173583
0.427566 0.359244 -0.179386
0.0101195 0.358885 -0.151417
0.0143242 0.357323 -0.14182
0.0189746 0.356002 -0.134451
0.0236022 0.354404 -0.12565
0.0272702 0.334891 -0.00868392
0.0310817 0.333958 -0.00121689
0.0358089 0.332784 0.00502789
0.0405259 0.332378 0.00736237
0.045088 0.33215 0.00818574
0.0493083 0.332233 0.00917292
0.0541792 0.332561 0.00575757
0.0580552 0.333155 0.00434101
0.0632402 0.333768 -0.000706434
0.0679328 0.334611 -0.00644326
0.0725979 0.335755 -0.0121222
0.0775388 0.336961 -0.0206108
0.082449 0.338661 -0.029772
0.0867641 0.340425 -0.0369711
0.092554 0.342257 -0.0523925
0.097923 0.345565 -0.0689867
0.230451 0.380039 -0.27427
0.234723 0.377247 -0.262335
0.239245 0.377014 -0.257303
0.243744 0.375681 -0.250171
0.247852 0.374189 -0.245039
0.252357 0.373894 -0.240989
0.257294 0.373357 -0.236158
0.261763 0.372504 -0.232891
0.266849 0.372377 -0.229987
0.271316 0.37156 -0.227364
0.275378 0.371037 -0.224553
0.280453 0.370612 -0.221356
0.284844 0.370086 -0.219074
0.290292 0.369766 -0.216464
0.294775 0.369622 -0.215376
0.299478 0.368962 -0.212039
0.304003 0.368579 -0.209325
0.308838 0.368156 -0.207497
0.312952 0.368273 -0.205356
0.318318 0.367428 -0.203412
0.322639 0.367244 -0.201226
0.327184 0.366891 -0.198708
0.331798 0.366407 -0.197581
0.336567 0.366225 -0.195609
0.341239 0.365943 -0.19376
0.345945 0.366193 -0.192472
0.350366 0.365763 -0.190543
0.355581 0.365709 -0.189928
0.360082 0.365215 -0.188339
0.364791 0.364654 -0.185965
0.369835 0.36505 -0.184877
0.374389 0.364621 -0.183893
0.378705 0.364156 -0.181688
0.383792 0.364218 -0.17986
0.388035 0.363687 -0.177636
0.392369 0.362988 -0.176005
0.397665 0.362719 -0.175454
0.402103 0.362842 -0.173552
0.405928 0.36247 -0.172198
0.411233 0.362292 -0.171465
0.416188 0.362783 -0.171086
0.421385 0.362419 -0.171718
0.426236 0.362416 -0.172315
0.00960941 0.363794 -0.151023
0.0149612 0.36186 -0.139444
0.0192454 0.360706 -0.132071
0.02394 0.359446 -0.124526
0.0276353 0.340792 -0.0146654
0.0314302 0.337929 0.00209534
0.0359323 0.336977 0.00931168
0.0404056 0.336199 0.0126137
0.0445501 0.336153 0.0144148
0.0493407 0.335844 0.0153273
0.0536793 0.335977 0.0125936
0.0582857 0.336238 0.0116161
0.0629411 0.336684 0.00737512
0.0674173 0.337774 0.00249732
0.0720858 0.338986 -0.00384378
0.0776337 0.340479 -0.0137138
0.0820011 0.341731 -0.0215621
0.0873111 0.343621 -0.0320179
0.0916436 0.345229 -0.0420287
0.09724 0.34828 -0.060041
0.240061 0.383591 -0.268008
0.244724 0.38182 -0.258425
0.248827 0.381159 -0.253127
0.25363 0.379991 -0.247751
0.258281 0.37941 -0.242564
0.262811 0.379128 -0.239218
0.26677 0.377532 -0.234357
0.271942 0.377788 -0.230562
0.276234 0.376462 -0.22693
0.281088 0.37631 -0.225478
0.285636 0.37558 -0.222189
0.290487 0.375802 -0.220504
0.295092 0.374625 -0.216762
0.299806 0.374606 -0.213898
0.303902 0.373997 -0.211923
0.309128 0.373128 -0.208935
0.313192 0.373101 -0.207134
0.317931 0.372672 -0.203958
0.322846 0.372988 -0.203175
0.327264 0.372089 -0.199568
0.332346 0.371697 -0.198097
0.336597 0.371119 -0.196426
0.341081 0.370974 -0.194062
0.345962 0.370704 -0.192952
0.351131 0.370345 -0.191189
0.355441 0.370552 -0.189829
0.359732 0.369709 -0.187421
0.364799 0.36998 -0.18617
0.369351 0.369183 -0.184146
0.374424 0.369347 -0.183185
0.378617 0.368259 -0.181129
0.383232 0.368704 -0.178685
0.388104 0.368273 -0.176898
0.392561 0.368016 -0.175883
0.397469 0.36802 -0.173096
0.401474 0.367734 -0.172521
0.406616 0.367293 -0.171594
0.411281 0.366753 -0.169758
0.415317 0.366926 -0.168583
0.420921 0.366877 -0.16941
0.425188 0.366897 -0.169427
0.00950721 0.369059 -0.152848
0.014328 0.366148 -0.138842
0.0190196 0.365793 -0.131856
0.0243635 0.363886 -0.123845
0.0289465 0.362813 -0.115312
0.0315979 0.343809 -0.00434637
0.0360106 0.340315 0.0104951
0.0401851 0.340339 0.0161296
0.0448384 0.339346 0.0186187
0.0490397 0.339019 0.0202566
0.0534966 0.33941 0.0206771
0.057648 0.33969 0.0191609
0.0625722 0.340225 0.0167907
0.0676334 0.341175 0.00989902
0.0723528 0.342162 0.00291038
0.0771091 0.343585 -0.00492907
0.0817559 0.345241 -0.0124192
0.0865848 0.346884 -0.0236206
0.0922562 0.349289 -0.0382993
0.0976109 0.352266 -0.0538049
0.246167 0.38963 -0.277017
0.250304 0.38816 -0.264257
0.25411 0.386677 -0.256253
0.258493 0.385194 -0.248745
0.263214 0.384027 -0.242528
0.26754 0.383729 -0.239892
0.272371 0.383162 -0.235809
0.276662 0.382174 -0.232011
0.281754 0.3822 -0.229524
0.285724 0.381416 -0.225572
0.290706 0.380963 -0.223295
0.295527 0.380167 -0.220097
0.300282 0.379984 -0.217451
0.304705 0.379401 -0.214003
0.30943 0.379223 -0.212566
0.313834 0.378905 -0.209656
0.318408 0.378062 -0.206212
0.323093 0.377743 -0.204062
0.327561 0.377826 -0.201656
0.332323 0.377332 -0.200051
0.337144 0.376725 -0.197278
0.342089 0.37603 -0.196386
0.345953 0.375846 -0.192841
0.350604 0.37595 -0.191547
0.355574 0.374812 -0.189813
0.36029 0.375106 -0.187691
0.365421 0.374354 -0.185094
0.369347 0.373912 -0.184266
0.373892 0.374087 -0.181378
0.378636 0.373469 -0.180207
0.383054 0.373201 -0.178187
0.388206 0.373055 -0.176058
0.392472 0.372483 -0.174397
0.396431 0.372829 -0.172282
0.401756 0.372253 -0.17228
0.406347 0.371378 -0.169206
0.411004 0.371811 -0.168851
0.415197 0.371621 -0.167855
0.420339 0.371271 -0.166382
0.425617 0.371129 -0.16836
0.430747 0.371596 -0.170354
0.0146948 0.371247 -0.136638
0.0198136 0.36987 -0.129623
0.0237861 0.368694 -0.122257
0.0286724 0.367274 -0.115551
0.033196 0.365601 -0.106765
0.0358543 0.346386 0.00595331
0.0401309 0.344602 0.01652
0.044327 0.343396 0.0227584
0.0492463 0.343184 0.0255517
0.0533063 0.342901 0.0252601
0.0581229 0.342858 0.0252303
0.062343 0.343742 0.0235782
0.0669611 0.343787 0.0185822
0.0718543 0.345132 0.0124929
0.0766978 0.346332 0.00391471
0.081546 0.347791 -0.00668788
0.0866514 0.350594 -0.0170557
0.0914811 0.352465 -0.0290027
0.0968482 0.355035 -0.0446458
0.260229 0.392627 -0.260988
0.264313 0.390958 -0.253937
0.26822 0.390508 -0.247574
0.272993 0.389826 -0.243522
0.277608 0.388513 -0.23757
0.282339 0.387809 -0.234286
0.286949 0.387662 -0.231464
0.291466 0.38668 -0.227851
0.29629 0.38592 -0.223216
0.300611 0.385716 -0.221291
0.305385 0.384897 -0.217411
0.309772 0.38454 -0.214928
0.314391 0.384297 -0.212054
0.319313 0.383864 -0.20959
0.323196 0.383258 -0.207525
0.328283 0.382903 -0.20385
0.332608 0.382446 -0.201858
0.337437 0.382033 -0.200004
0.341954 0.382136 -0.197904
0.346306 0.380849 -0.19397
0.350635 0.380603 -0.191211
0.355434 0.380791 -0.19011
0.360174 0.379821 -0.187623
0.365189 0.379453 -0.18613
0.369284 0.379126 -0.183058
0.373768 0.378905 -0.182173
0.378682 0.378719 -0.179672
0.382891 0.378355 -0.178055
0.387903 0.377676 -0.176291
0.392589 0.378047 -0.174012
0.396529 0.377212 -0.172938
0.401709 0.377136 -0.170872
0.405905 0.376636 -0.168992
0.410551 0.376971 -0.168134
0.415139 0.37632 -0.166451
0.419753 0.375984 -0.165007
0.424931 0.375367 -0.16526
0.430201 0.376416 -0.167313
0.0147623 0.376118 -0.134506
0.0187572 0.374472 -0.12826
0.0240503 0.373076 -0.120363
0.0281823 0.37211 -0.114392
0.0336766 0.370736 -0.106619
0.0380127 0.368583 -0.0947797
0.0399264 0.349042 0.0149875
0.0447313 0.347816 0.0226949
0.048577 0.347227 0.0277548
0.0532778 0.346522 0.0296506
0.0577287 0.346366 0.0305672
0.0618563 0.346295 0.0289744
0.0666973 0.346898 0.0264907
0.0713736 0.348462 0.0223002
0.0760495 0.349479 0.0144422
0.0804023 0.350954 0.00679862
0.0862003 0.353319 -0.00787139
0.0910487 0.355556 -0.0206945
0.0965495 0.358129 -0.0365558
0.102192 0.362413 -0.0618691
0.270251 0.397679 -0.261416
0.274457 0.396762 -0.253706
0.278719 0.39506 -0.247241
0.283359 0.393904 -0.24038
0.287707 0.393548 -0.237083
0.292138 0.392922 -0.233535
0.296627 0.392674 -0.230201
0.3009 0.391643 -0.225588
0.305465 0.390761 -0.222508
0.310542 0.39014 -0.218132
0.314649 0.390011 -0.216109
0.319281 0.389064 -0.212051
0.323841 0.388479 -0.208996
0.328546 0.388463 -0.206225
0.333243 0.387953 -0.203659
0.338013 0.387271 -0.201438
0.342269 0.386758 -0.19866
0.346591 0.386722 -0.196755
0.350968 0.386545 -0.193922
0.355582 0.385377 -0.190992
0.360291 0.384701 -0.187617
0.364298 0.384316 -0.186232
0.369334 0.383956 -0.184403
0.374386 0.38362 -0.182213
0.37875 0.383919 -0.180519
0.383674 0.383215 -0.177964
0.388009 0.382596 -0.176483
0.391859 0.382484 -0.173887
0.396607 0.381944 -0.171914
0.4011 0.382031 -0.170334
0.405805 0.381145 -0.167702
0.410281 0.381367 -0.167101
0.415023 0.381357 -0.166216
0.419915 0.381069 -0.164343
0.424199 0.380639 -0.163064
0.429681 0.380367 -0.164147
0.435578 0.381399 -0.168915
0.0144981 0.380752 -0.136099
0.0192655 0.379026 -0.125672
0.023584 0.377213 -0.119397
0.0286736 0.376447 -0.112798
0.0334917 0.375415 -0.105166
0.0378205 0.373451 -0.0977619
0.0422533 0.371515 -0.0850389
0.044529 0.35204 0.022069
0.0489948 0.35102 0.0294948
0.0532674 0.350122 0.0329497
0.0575607 0.350151 0.0355904
0.0622747 0.349957 0.0357502
0.0662886 0.350461 0.0346136
0.0706551 0.35091 0.0320296
0.075796 0.352406 0.0246843
0.0802964 0.353639 0.0156343
0.0856477 0.355812 0.00192702
0.0915847 0.359204 -0.0151622
0.0961211 0.361325 -0.0287995
0.101813 0.365679 -0.0504572
0.280375 0.402478 -0.261122
0.284834 0.401608 -0.253205
0.288661 0.400921 -0.247902
0.293048 0.398869 -0.240135
0.297391 0.398564 -0.236929
0.302266 0.398386 -0.232776
0.3066 0.397452 -0.227905
0.310836 0.39638 -0.223809
0.315296 0.395978 -0.221363
0.319959 0.394857 -0.216842
0.324419 0.393798 -0.212622
0.329147 0.3938 -0.209967
0.333464 0.393681 -0.207273
0.337536 0.392506 -0.203465
0.342252 0.392205 -0.201733
0.347155 0.39135 -0.197617
0.351582 0.391222 -0.195584
0.356182 0.390892 -0.192769
0.360611 0.389842 -0.189428
0.365298 0.389845 -0.187743
0.369275 0.388727 -0.184657
0.374089 0.388916 -0.182203
0.379018 0.388666 -0.180907
0.383347 0.388313 -0.178395
0.387439 0.387749 -0.176142
0.392167 0.386881 -0.173547
0.396669 0.38683 -0.170923
0.401363 0.38687 -0.170585
0.405971 0.386429 -0.167672
0.410521 0.385986 -0.165817
0.41456 0.385457 -0.163591
0.419242 0.385389 -0.16259
0.424189 0.385334 -0.161502
0.428895 0.384858 -0.161513
0.434303 0.385699 -0.164629
0.0190416 0.383914 -0.124642
0.0234237 0.381893 -0.118038
0.0282783 0.380965 -0.111664
0.0334046 0.379866 -0.103294
0.0379019 0.378327 -0.0961535
0.0422556 0.376355 -0.0861454
0.0466961 0.373626 -0.0707486
0.0491069 0.355437 0.0300963
0.0532518 0.354404 0.036775
0.0574753 0.353473 0.0410233
0.0617658 0.353275 0.0422697
0.0663539 0.353199 0.0411795
0.0706313 0.353823 0.038078
0.0753295 0.355104 0.0339507
0.0800349 0.356156 0.0251749
0.0850993 0.358587 0.0148708
0.0902735 0.360863 -0.00304461
0.0955961 0.364265 -0.0190496
0.100971 0.367871 -0.0382714
0.294953 0.406833 -0.25405
0.299373 0.406228 -0.249003
0.303252 0.404287 -0.240713
0.307228 0.403182 -0.235143
0.312368 0.402399 -0.231212
0.316573 0.401687 -0.225917
0.320947 0.40123 -0.223074
0.325262 0.400301 -0.21892
0.32951 0.399648 -0.214341
0.334004 0.399282 -0.211035
0.338634 0.398077 -0.2067
0.342794 0.397128 -0.203853
0.346908 0.397364 -0.200727
0.351631 0.396355 -0.197271
0.356264 0.395604 -0.194029
0.360579 0.395159 -0.1921
0.365071 0.394751 -0.188519
0.369236 0.393476 -0.185461
0.374381 0.393594 -0.183031
0.37886 0.39367 -0.181321
0.383594 0.392888 -0.178244
0.387293 0.393052 -0.17675
0.392781 0.392173 -0.174362
0.396832 0.391627 -0.171509
0.401347 0.391531 -0.170973
0.405954 0.391511 -0.168367
0.409941 0.390202 -0.164755
0.414689 0.390518 -0.163763
0.419442 0.390228 -0.162595
0.424142 0.389491 -0.160594
0.428634 0.389883 -0.160219
0.434237 0.390245 -0.161454
0.0191449 0.387755 -0.123311
0.0237668 0.386099 -0.115448
0.0282955 0.384957 -0.108626
0.0335202 0.384092 -0.102449
0.0371851 0.382562 -0.0958629
0.0425714 0.380969 -0.0866208
0.0466471 0.379305 -0.0763018
0.050815 0.375084 -0.0536764
0.0532072 0.358079 0.0376318
0.057211 0.357273 0.0415797
0.0616586 0.357664 0.0449047
0.0657478 0.356763 0.0454934
0.0704412 0.357386 0.0451597
0.0752092 0.357392 0.0415092
0.079844 0.358818 0.0341003
0.0845366 0.360603 0.0248865
0.0897837 0.363605 0.00945032
0.0949116 0.366678 -0.00719023
0.100617 0.370736 -0.0291862
0.305594 0.412346 -0.257662
0.309776 0.410528 -0.246503
0.313767 0.409741 -0.241384
0.317669 0.408303 -0.234496
0.321704 0.407636 -0.229943
0.325744 0.406191 -0.224016
0.330297 0.405626 -0.220292
0.334704 0.404822 -0.216057
0.339207 0.403796 -0.210699
0.343476 0.403013 -0.206496
0.347926 0.40191 -0.203126
0.35197 0.402102 -0.20116
0.356759 0.400979 -0.196582
0.361323 0.400968 -0.193573
0.365243 0.400136 -0.189744
0.369392 0.399362 -0.186557
0.37408 0.398854 -0.184138
0.378634 0.39904 -0.182021
0.383506 0.397685 -0.179078
0.387918 0.397515 -0.175228
0.392088 0.397425 -0.174
0.396623 0.396999 -0.171027
0.401287 0.396486 -0.169623
0.405745 0.396161 -0.166826
0.410595 0.395369 -0.164989
0.414778 0.395368 -0.164053
0.418949 0.394727 -0.161539
0.424398 0.394201 -0.160425
0.428547 0.394588 -0.159571
0.433663 0.394585 -0.160125
0.0189602 0.392522 -0.122951
0.0236824 0.39087 -0.113585
0.0283972 0.38953 -0.105747
0.0333751 0.388086 -0.0998309
0.0378768 0.387189 -0.0939739
0.0423993 0.385473 -0.0858748
0.0464675 0.384038 -0.0770936
0.0510336 0.381526 -0.0625396
0.0532237 0.363994 0.0318776
0.0577268 0.362138 0.0433433
0.0617783 0.360769 0.0483757
0.0662135 0.360597 0.0494969
0.0707208 0.360959 0.0497745
0.0750866 0.360794 0.0490067
0.0796689 0.361415 0.0431454
0.0843965 0.363146 0.0359184
0.0894603 0.366021 0.0215771
0.0947986 0.369161 0.00192487
0.0995856 0.372553 -0.0158117
0.319622 0.415587 -0.246794
0.323314 0.414446 -0.239855
0.327167 0.412597 -0.231807
0.331241 0.411302 -0.226034
0.335844 0.410743 -0.221338
0.339791 0.409874 -0.216302
0.34419 0.409642 -0.212483
0.348273 0.40824 -0.207175
0.352791 0.407321 -0.203333
0.357541 0.406915 -0.199143
0.361904 0.406344 -0.195611
0.365922 0.404922 -0.192272
0.37021 0.405348 -0.190299
0.37475 0.404149 -0.185563
0.379039 0.403707 -0.183233
0.382823 0.403623 -0.180514
0.387919 0.402382 -0.177065
0.392225 0.402087 -0.173889
0.396942 0.401463 -0.171757
0.40104 0.401475 -0.168304
0.406397 0.401204 -0.166557
0.409787 0.400428 -0.165023
0.41468 0.400265 -0.162951
0.419544 0.399785 -0.161349
0.423582 0.399512 -0.159136
0.428818 0.399184 -0.159582
0.433483 0.399102 -0.159046
0.0240368 0.395593 -0.111276
0.0288328 0.393951 -0.103979
0.0327375 0.392706 -0.0984035
0.0376536 0.391595 -0.092032
0.0421152 0.390628 -0.0860782
0.0469445 0.388995 -0.0765269
0.0507234 0.38671 -0.0666027
0.0553228 0.383458 -0.0473249
0.0573536 0.366913 0.040863
0.0617778 0.365415 0.0478714
0.0657573 0.364614 0.0523206
0.0703303 0.364354 0.0545231
0.0747195 0.364234 0.0538626
0.0791357 0.364545 0.0517291
0.0834497 0.365443 0.0468225
0.0887184 0.367624 0.0361098
0.093294 0.370708 0.0202262
0.099607 0.375435 -0.00656629
0.328556 0.419796 -0.245603
0.333165 0.419349 -0.23847
0.336738 0.417149 -0.230153
0.340823 0.416152 -0.223171
0.345266 0.415255 -0.217855
0.349552 0.414512 -0.212237
0.353383 0.413776 -0.208538
0.357693 0.412484 -0.203574
0.362408 0.410998 -0.199337
0.366748 0.411047 -0.194929
0.370952 0.410261 -0.190935
0.374765 0.40922 -0.187159
0.379594 0.409125 -0.183726
0.38373 0.40841 -0.181184
0.387868 0.407852 -0.178349
0.392288 0.407041 -0.174202
0.396523 0.406792 -0.172776
0.401068 0.40606 -0.169317
0.405597 0.405658 -0.167146
0.410146 0.405241 -0.164598
0.414549 0.404898 -0.162745
0.418948 0.40442 -0.160963
0.423827 0.403811 -0.159864
0.428202 0.4044 -0.15852
0.43351 0.40373 -0.158573
0.43895 0.405061 -0.16254
0.0238654 0.400098 -0.110097
0.028569 0.398047 -0.101417
0.033043 0.396919 -0.0962319
0.0378413 0.395477 -0.0890238
0.0423773 0.394769 -0.0825202
0.0469416 0.39288 -0.0763676
0.0511809 0.391584 -0.0660055
0.0556903 0.389013 -0.0517366
0.0593258 0.383544 -0.0244672
0.0619191 0.370328 0.0462188
0.0657409 0.368883 0.0533018
0.0701229 0.36869 0.0557288
0.0741669 0.36796 0.0577366
0.0783963 0.368206 0.058094
0.0835759 0.368612 0.0546197
0.0877707 0.369503 0.0495025
0.0932326 0.372501 0.0324926
0.0983449 0.37748 0.00946701
0.104956 0.383194 -0.0216696
0.338818 0.424916 -0.243593
0.342432 0.423966 -0.235886
0.346031 0.421259 -0.224925
0.350363 0.420028 -0.218338
0.354126 0.419294 -0.213871
0.358633 0.418001 -0.206893
0.362577 0.417067 -0.202228
0.367105 0.416725 -0.198816
0.371357 0.416247 -0.194631
0.374968 0.414864 -0.189747
0.379442 0.414455 -0.186939
0.383673 0.41358 -0.183141
0.388391 0.412575 -0.178309
0.392523 0.412479 -0.176625
0.39656 0.41176 -0.173306
0.401585 0.411083 -0.171066
0.405866 0.410931 -0.167325
0.410418 0.410246 -0.165401
0.414917 0.409698 -0.163085
0.419442 0.409636 -0.160653
0.423539 0.408954 -0.15918
0.428232 0.408882 -0.15753
0.432984 0.408897 -0.158171
0.438173 0.40941 -0.16042
0.0235559 0.40482 -0.111845
0.0287046 0.402618 -0.100286
0.0329261 0.40123 -0.093837
0.0373331 0.400444 -0.0880971
0.0421305 0.399257 -0.0820663
0.0471069 0.397616 -0.0737703
0.0510022 0.395938 -0.06619
0.0554998 0.393582 -0.0545466
0.0600212 0.390125 -0.0350018
0.0620629 0.375695 0.0403233
0.0657632 0.373229 0.052344
0.069978 0.371818 0.0577745
0.0743962 0.371962 0.0589919
0.0787573 0.371955 0.0611593
0.0829639 0.371601 0.0607183
0.0876709 0.372587 0.0575806
0.0924509 0.373873 0.0483619
0.0979749 0.378759 0.0258621
0.10413 0.385095 -0.00831056
0.348548 0.429462 -0.23866
0.352036 0.426533 -0.227195
0.355919 0.425548 -0.219934
0.359914 0.424136 -0.213491
0.363693 0.423109 -0.2073
0.367879 0.422366 -0.203566
0.371806 0.422047 -0.198702
0.375817 0.420371 -0.192703
0.379787 0.419817 -0.189368
0.384346 0.419101 -0.18506
0.388752 0.418038 -0.180935
0.392783 0.417173 -0.177013
0.397454 0.417007 -0.17337
0.401634 0.416049 -0.170477
0.405944 0.415832 -0.16838
0.410426 0.415197 -0.164945
0.415098 0.414826 -0.164207
0.419175 0.413946 -0.161732
0.423915 0.414471 -0.159974
0.428116 0.413432 -0.157793
0.43317 0.413665 -0.158414
0.438365 0.413905 -0.160036
0.0284698 0.407251 -0.0993705
0.0329266 0.405454 -0.0918243
0.0374129 0.404383 -0.0853419
0.0421067 0.403315 -0.0792007
0.0468694 0.402101 -0.0724628
0.0509972 0.40037 -0.0655866
0.0554511 0.398539 -0.0554981
0.0600727 0.396209 -0.0415332
0.0636279 0.391223 -0.0180783
0.06592 0.378696 0.0474598
0.0699338 0.377352 0.0556314
0.0745392 0.375836 0.0619229
0.078846 0.375393 0.0637199
0.0833331 0.375132 0.0643003
0.0874987 0.376081 0.061657
0.0919565 0.376001 0.060878
0.0968921 0.378724 0.0473932
0.103292 0.386255 0.00834358
0.354208 0.435126 -0.243953
0.357521 0.433326 -0.232891
0.360932 0.431457 -0.223761
0.364397 0.430296 -0.216786
0.368621 0.427892 -0.207377
0.372661 0.427639 -0.202804
0.376691 0.426703 -0.197139
0.380699 0.425169 -0.192676
0.3847 0.424475 -0.186991
0.389202 0.423201 -0.183331
0.393325 0.422596 -0.178872
0.396929 0.422372 -0.175805
0.401352 0.420919 -0.172144
0.405709 0.421012 -0.169069
0.410444 0.420139 -0.166106
0.414637 0.41943 -0.163686
0.419611 0.419002 -0.16244
0.423471 0.418769 -0.159879
0.428319 0.418961 -0.158003
0.433128 0.419257 -0.158548
0.438495 0.418881 -0.159254
0.0284039 0.411787 -0.0980687
0.0329484 0.410342 -0.0896637
0.0375406 0.408516 -0.0836432
0.0421682 0.40727 -0.0765185
0.0469375 0.406014 -0.0707576
0.0512493 0.404645 -0.0636804
0.0553844 0.403194 -0.0550613
0.059908 0.400647 -0.0425341
0.0643526 0.397387 -0.025183
0.0673428 0.391094 0.00760877
0.070228 0.382236 0.0529357
0.0739919 0.380566 0.0603648
0.0789207 0.37934 0.0650406
0.0828393 0.379475 0.0674884
0.0870479 0.379698 0.0660199
0.0915875 0.379386 0.0658231
0.0963667 0.380083 0.062297
0.101478 0.384397 0.041963
0.363123 0.438431 -0.235412
0.366113 0.437105 -0.225673
0.369776 0.434639 -0.214658
0.373205 0.432887 -0.208058
0.377451 0.431985 -0.201564
0.381384 0.430793 -0.195499
0.385118 0.42983 -0.190455
0.389698 0.428738 -0.18581
0.393905 0.428193 -0.181685
0.397782 0.427238 -0.178183
0.401759 0.426569 -0.173979
0.406509 0.425778 -0.169703
0.410638 0.425231 -0.167199
0.414849 0.424817 -0.164736
0.419369 0.424197 -0.162014
0.424287 0.423832 -0.160597
0.4283 0.423437 -0.158832
0.433471 0.423966 -0.158347
0.438133 0.423478 -0.159844
0.0285687 0.416621 -0.0998659
0.0333865 0.414465 -0.0870855
0.0371346 0.413251 -0.0822008
0.0422497 0.411865 -0.0752888
0.0464487 0.410552 -0.0690196
0.0511419 0.409366 -0.0611787
0.0555037 0.407512 -0.0543377
0.0598565 0.40549 -0.04424
0.0643527 0.403222 -0.0303357
0.0680116 0.398017 -0.00707936
0.071062 0.387651 0.0457863
0.0742579 0.385773 0.0579489
0.0783517 0.383352 0.0655526
0.0825929 0.383245 0.0679971
0.087127 0.383247 0.0696164
0.091057 0.38283 0.0710489
0.0954563 0.383506 0.069911
0.100107 0.384003 0.0641568
0.10746 0.395716 0.00639737
0.36895 0.444809 -0.24123
0.371426 0.441524 -0.226058
0.374781 0.439533 -0.215401
0.378581 0.438258 -0.208145
0.382329 0.4375 -0.202391
0.386137 0.435445 -0.194836
0.389833 0.434202 -0.189509
0.394214 0.433662 -0.18428
0.398464 0.433001 -0.18103
0.402128 0.431934 -0.17676
0.406313 0.430902 -0.171736
0.410756 0.430914 -0.169405
0.415293 0.429943 -0.165654
0.41948 0.429381 -0.163363
0.423928 0.429166 -0.161067
0.4286 0.428179 -0.160192
0.432962 0.428162 -0.158873
0.439017 0.429182 -0.162186
0.0325643 0.418983 -0.0873463
0.0375201 0.417337 -0.0791507
0.0423605 0.416335 -0.072227
0.0465472 0.41458 -0.0662525
0.0507198 0.413529 -0.0602803
0.0554622 0.412163 -0.0543594
0.0602344 0.409996 -0.0438092
0.0638233 0.408194 -0.0334339
0.0677612 0.405177 -0.0177197
0.071601 0.398985 0.0117168
0.0749735 0.390527 0.0530871
0.0784827 0.388676 0.0624077
0.082964 0.387459 0.0676626
0.0867902 0.387272 0.0706211
0.0909967 0.386852 0.0730509
0.0958516 0.386522 0.073633
0.099996 0.387095 0.0725338
0.104759 0.389008 0.0619004
0.3767 0.447556 -0.229079
0.380015 0.444196 -0.214452
0.383356 0.441996 -0.204025
0.387045 0.441902 -0.199984
0.39075 0.440045 -0.193523
0.394982 0.439226 -0.187044
0.398482 0.43838 -0.183237
0.402892 0.437157 -0.178285
0.406769 0.436365 -0.173148
0.411168 0.435539 -0.170743
0.415755 0.435314 -0.167916
0.419819 0.434587 -0.164244
0.424354 0.434118 -0.162581
0.428638 0.433369 -0.161016
0.433634 0.433609 -0.16028
0.440278 0.435313 -0.167949
0.033198 0.423159 -0.0864847
0.0372694 0.421588 -0.0770681
0.0421163 0.420445 -0.0713699
0.0466317 0.418672 -0.0647604
0.0510022 0.418033 -0.0584254
0.0556991 0.416357 -0.0512338
0.0600266 0.414499 -0.0424905
0.0640706 0.412304 -0.0328434
0.0685266 0.409624 -0.0178835
0.0720952 0.405789 0.00143909
0.0754564 0.39914 0.0342369
0.0785559 0.3936 0.0584177
0.0826722 0.392651 0.0663894
0.0868733 0.391504 0.0706877
0.0911706 0.390564 0.0736872
0.0953682 0.390803 0.0744545
0.100148 0.389896 0.0768515
0.10418 0.391393 0.0745437
0.382115 0.452392 -0.229331
0.384859 0.450212 -0.217691
0.38795 0.447768 -0.206522
0.391561 0.446427 -0.198656
0.395742 0.445385 -0.192662
0.399375 0.443847 -0.186998
0.403354 0.442392 -0.180389
0.407331 0.441732 -0.17645
0.411726 0.440655 -0.172736
0.415728 0.440982 -0.169228
0.420381 0.43977 -0.166109
0.42486 0.439293 -0.163673
0.429288 0.43906 -0.162411
0.434531 0.438852 -0.163063
0.0331538 0.427643 -0.0856731
0.0374478 0.42623 -0.075552
0.0424733 0.424831 -0.0692754
0.046954 0.422886 -0.0632524
0.0513051 0.421951 -0.0566857
0.0554735 0.420611 -0.0488353
0.0602772 0.418879 -0.0418491
0.0643618 0.417429 -0.0319457
0.06867 0.414755 -0.0207026
0.0721925 0.411432 -0.00423861
0.0758986 0.406341 0.0203984
0.0792421 0.400387 0.0495276
0.0828927 0.397579 0.0633816
0.0874491 0.395776 0.0708151
0.091572 0.394735 0.0744537
0.095486 0.394953 0.0770739
0.0995198 0.394858 0.0771588
0.103673 0.394403 0.07784
0.108585 0.395433 0.0748178
0.389632 0.454724 -0.217113
0.393068 0.453115 -0.206721
0.396479 0.451618 -0.199299
0.400175 0.449207 -0.190847
0.403589 0.448249 -0.184424
0.408061 0.447063 -0.17923
0.412063 0.447186 -0.175659
0.416296 0.445536 -0.171231
0.420804 0.444954 -0.167832
0.425121 0.444839 -0.166203
0.429568 0.443778 -0.16414
0.434688 0.444469 -0.166388
0.0375011 0.430966 -0.076448
0.0421638 0.429065 -0.0667491
0.0465717 0.427493 -0.0613863
0.0507139 0.42623 -0.0543315
0.055353 0.425359 -0.0485232
0.0599655 0.423021 -0.0405798
0.0645496 0.421627 -0.0318866
0.0685173 0.419408 -0.0211451
0.072489 0.416473 -0.00667977
0.0760722 0.412469 0.0117773
0.0798685 0.407959 0.0352846
0.0834527 0.402473 0.0589855
0.0871971 0.400721 0.068451
0.0909809 0.399413 0.0739744
0.0958888 0.399225 0.0769579
0.0995337 0.399185 0.0784034
0.104057 0.398727 0.0787061
0.108102 0.398755 0.07925
0.112662 0.399526 0.0740373
0.394779 0.459538 -0.216244
0.397826 0.458416 -0.207431
0.401411 0.456155 -0.197854
0.404828 0.453814 -0.188648
0.408548 0.452509 -0.182819
0.41286 0.452114 -0.178491
0.416712 0.451204 -0.174239
0.421083 0.450189 -0.170799
0.425629 0.449947 -0.168712
0.4297 0.449245 -0.166191
0.435176 0.44987 -0.168817
0.0375249 0.435679 -0.0776019
0.0418549 0.433688 -0.0667036
0.0468977 0.432084 -0.0591383
0.0513266 0.430398 -0.0528998
0.0553785 0.429647 -0.0461998
0.0597571 0.42781 -0.0395527
0.064026 0.426149 -0.0307803
0.0681943 0.424034 -0.0226755
0.0724808 0.421483 -0.00925088
0.076529 0.417997 0.00678182
0.0799768 0.413272 0.0275139
0.0835701 0.408983 0.0497726
0.0877189 0.406034 0.0649544
0.0914857 0.404764 0.071406
0.0956241 0.403758 0.075864
0.0992987 0.402858 0.0797309
0.103647 0.4022 0.0817921
0.107758 0.402406 0.0818956
0.112816 0.40269 0.0807326
0.402978 0.46195 -0.204738
0.406309 0.460828 -0.197526
0.40928 0.458919 -0.188894
0.413866 0.458097 -0.183437
0.417674 0.457282 -0.178443
0.421677 0.456008 -0.174141
0.426425 0.455988 -0.172498
0.430836 0.455023 -0.171259
0.0416507 0.437954 -0.0658388
0.0463131 0.436111 -0.0571342
0.0508944 0.43461 -0.050957
0.0551919 0.433746 -0.0447609
0.0598869 0.431801 -0.036514
0.0639973 0.430485 -0.0299175
0.0683076 0.428393 -0.0203633
0.0728235 0.426333 -0.00934815
0.0766168 0.423379 0.00399339
0.0801144 0.420401 0.0195898
0.0838602 0.415424 0.0399699
0.0878714 0.411026 0.059682
0.0915999 0.408742 0.069265
0.0958968 0.408097 0.0752931
0.100006 0.407009 0.0793658
0.103946 0.406207 0.0824736
0.108298 0.406269 0.0826437
0.112362 0.406244 0.0840068
0.116768 0.406874 0.0805883
0.408383 0.468108 -0.208975
0.411394 0.466091 -0.198171
0.414927 0.46349 -0.187955
0.418831 0.463456 -0.183847
0.422721 0.461904 -0.179112
0.427102 0.46151 -0.177221
0.432837 0.462293 -0.180709
0.0417861 0.443686 -0.0705249
0.0460278 0.440827 -0.0567348
0.0507981 0.439367 -0.0494301
0.0554464 0.437697 -0.0418
0.0597451 0.436224 -0.0365987
0.0641142 0.43488 -0.0295584
0.0681839 0.433079 -0.0208673
0.072279 0.430553 -0.00985932
0.0767746 0.428035 0.00189865
0.0803167 0.424904 0.0166349
0.0842725 0.420935 0.0334574
0.0878274 0.416742 0.0534184
0.0919873 0.41424 0.0657645
0.0954125 0.412771 0.0724751
