ply
format ascii 1.0
element vertex 1732
property float x
property float y
property float z
end_header
0.0389679 0.228165 0.420166
0.0428759 0.227758 0.421624
0.0462505 0.227339 0.42481
0.050128 0.227281 0.426027
0.053303 0.226946 0.428701
0.0565496 0.226453 0.430608
0.0601645 0.226354 0.432532
0.0633102 0.226012 0.435709
0.066786 0.22533 0.436425
0.0704403 0.225697 0.438835
0.0737004 0.225302 0.4409
0.0770192 0.224807 0.444115
0.0809463 0.224396 0.444789
0.0840698 0.223851 0.448799
0.0872809 0.223414 0.45214
0.0906324 0.223158 0.453436
0.0938625 0.22309 0.455608
0.0973573 0.222291 0.458402
0.100816 0.222454 0.460347
0.104106 0.221692 0.462467
0.107178 0.221425 0.463608
0.110762 0.22133 0.466234
0.113778 0.220986 0.468276
0.117556 0.221089 0.468957
0.120485 0.220812 0.471184
0.124107 0.220577 0.472785
0.127552 0.220557 0.473146
0.130428 0.219947 0.475041
0.134115 0.219798 0.476182
0.137333 0.219868 0.476208
0.140545 0.219744 0.478225
0.143769 0.219399 0.479366
0.14775 0.219636 0.478508
0.151078 0.219946 0.477796
0.154795 0.219642 0.478731
0.157881 0.219381 0.478993
0.160789 0.219336 0.479917
0.164456 0.219419 0.478572
0.168208 0.219836 0.478158
0.171791 0.219676 0.477857
0.174922 0.219704 0.477547
0.178661 0.219806 0.478076
0.182146 0.220187 0.476548
0.185625 0.219995 0.476229
0.188881 0.219844 0.475743
0.192523 0.220103 0.475369
0.195926 0.22027 0.474481
0.199663 0.220593 0.473063
0.203594 0.220757 0.471395
0.206895 0.220986 0.470038
0.21043 0.221229 0.468509
0.214639 0.221405 0.465798
0.218428 0.221646 0.463212
0.222377 0.22253 0.460949
0.225783 0.222511 0.458767
0.229629 0.222616 0.457002
0.233637 0.223434 0.454102
0.23743 0.223364 0.451681
0.241302 0.224019 0.448882
0.245287 0.224278 0.447088
0.249379 0.224354 0.442785
0.253749 0.225567 0.437979
0.257976 0.226252 0.434339
0.262103 0.226511 0.42974
0.26699 0.228015 0.4225
0.272231 0.228894 0.414862
0.276612 0.230326 0.406587
-0.097528 0.243633 0.337136
-0.0932019 0.24328 0.341565
-0.0892952 0.242503 0.346193
-0.085465 0.242264 0.347411
-0.0816176 0.241712 0.349954
-0.0780179 0.241353 0.351906
-0.0741946 0.241393 0.355029
-0.0703857 0.241048 0.356192
-0.0667612 0.240533 0.357927
-0.0626506 0.240316 0.360399
-0.0592483 0.240162 0.361695
-0.0553448 0.240111 0.363031
-0.0515493 0.240102 0.364437
-0.0476767 0.239516 0.366799
-0.0439456 0.239373 0.366228
-0.040217 0.239022 0.367065
-0.0370589 0.238801 0.369945
-0.0328692 0.238723 0.370989
-0.0291778 0.238493 0.37249
-0.0258943 0.238325 0.374426
-0.0220499 0.237877 0.376124
-0.017969 0.238207 0.377175
-0.0146957 0.237587 0.379279
-0.0110061 0.237178 0.381046
-0.00749543 0.237119 0.38377
-0.0033317 0.236718 0.38561
9.31919e-05 0.236314 0.388144
0.00352067 0.235869 0.390807
0.00738687 0.235537 0.393385
0.0107264 0.235146 0.396912
0.0143849 0.234516 0.399035
0.0177221 0.234425 0.402376
0.0213304 0.233886 0.405421
0.024779 0.233357 0.40934
0.0287026 0.233088 0.411281
0.0320287 0.232318 0.414383
0.0356633 0.232049 0.417451
0.0392125 0.232018 0.41916
0.0426009 0.231532 0.421299
0.0461789 0.231129 0.424319
0.0498582 0.230929 0.425404
0.0531165 0.230708 0.427701
0.0566254 0.230107 0.430886
0.0598531 0.230283 0.431315
0.0631954 0.22939 0.434571
0.0671831 0.229179 0.435788
0.0705155 0.22892 0.437754
0.0734809 0.228715 0.44004
0.0772861 0.22782 0.444609
0.0806899 0.22798 0.44591
0.0839618 0.227118 0.448949
0.0872935 0.227035 0.450703
0.0904504 0.226296 0.453333
0.0939495 0.226488 0.45591
0.0975777 0.225802 0.458697
0.100539 0.225429 0.461391
0.104076 0.225779 0.462605
0.107338 0.225215 0.464081
0.110626 0.224955 0.467115
0.114029 0.224766 0.467875
0.116912 0.224005 0.469981
0.120578 0.224071 0.471722
0.123702 0.224101 0.472195
0.127302 0.223802 0.474006
0.130775 0.223462 0.475662
0.134211 0.223457 0.475928
0.137406 0.223127 0.477064
0.140847 0.223001 0.477147
0.143891 0.223129 0.479036
0.147616 0.223129 0.477622
0.150817 0.223369 0.478044
0.154549 0.223189 0.478733
0.15823 0.22306 0.478824
0.161711 0.22303 0.478134
0.164683 0.222973 0.478263
0.168032 0.223067 0.478341
0.17197 0.223078 0.477749
0.175109 0.222879 0.477821
0.178404 0.223015 0.47754
0.182191 0.223327 0.476097
0.185747 0.223438 0.475045
0.189092 0.223336 0.475671
0.192546 0.223641 0.474936
0.196064 0.223746 0.472876
0.199722 0.22372 0.472259
0.203476 0.224331 0.470705
0.20715 0.224533 0.468082
0.210674 0.224431 0.467237
0.214759 0.22495 0.464363
0.218559 0.225348 0.462044
0.222446 0.225721 0.459882
0.226127 0.225921 0.457719
0.229724 0.226506 0.454422
0.234021 0.226621 0.452884
0.238112 0.227454 0.448379
0.241656 0.227536 0.445918
0.245712 0.228327 0.442565
0.249952 0.228867 0.438195
0.254239 0.230137 0.433447
0.258621 0.230192 0.428326
0.263532 0.231058 0.421708
0.268208 0.232823 0.413015
0.274439 0.234141 0.401565
-0.108696 0.247428 0.336563
-0.104738 0.24695 0.343263
-0.100502 0.246131 0.345547
-0.0969364 0.245896 0.347761
-0.0932226 0.245768 0.350087
-0.0893923 0.24539 0.352271
-0.0855356 0.245265 0.355784
-0.0818047 0.2449 0.355513
-0.077748 0.244466 0.358149
-0.0737585 0.244404 0.359309
-0.0700031 0.243938 0.36145
-0.0666898 0.243683 0.362546
-0.0627164 0.243469 0.362879
-0.0587204 0.243481 0.36518
-0.0551613 0.243216 0.365092
-0.0514035 0.243381 0.366843
-0.0478784 0.242957 0.368659
-0.0442823 0.242864 0.369344
-0.0408061 0.242721 0.370379
-0.0366782 0.242584 0.371259
-0.033059 0.241859 0.373469
-0.0291554 0.242194 0.374367
-0.0258145 0.24158 0.376561
-0.0219051 0.241293 0.377228
-0.0183319 0.241356 0.378932
-0.0146926 0.240648 0.380367
-0.0109905 0.240936 0.381969
-0.00725225 0.240789 0.383561
-0.00372315 0.240449 0.385772
-2.18941e-05 0.23933 0.388942
0.00387738 0.24017 0.39005
0.00764271 0.239288 0.394277
0.0108628 0.238569 0.396188
0.0142844 0.238328 0.398456
0.0178726 0.237673 0.402936
0.0215308 0.237873 0.403938
0.0252539 0.237123 0.408099
0.0284612 0.236424 0.411069
0.0323974 0.236104 0.41284
0.0356424 0.235536 0.416339
0.038979 0.235696 0.417974
0.0429083 0.235167 0.420855
0.0458797 0.234751 0.42273
0.0495753 0.23412 0.425005
0.0531147 0.234072 0.427644
0.0566303 0.233734 0.4296
0.0600151 0.23338 0.431211
0.0635961 0.23337 0.433206
0.0668176 0.232605 0.436857
0.0706855 0.232248 0.438834
0.0739646 0.231847 0.441118
0.0771219 0.231513 0.443897
0.0804201 0.23152 0.445732
0.083829 0.230974 0.449132
0.0870712 0.230341 0.450996
0.0905112 0.23013 0.453535
0.0943012 0.229778 0.456388
0.0975826 0.229454 0.458405
0.100428 0.228903 0.460838
0.104096 0.228782 0.463091
0.107393 0.228506 0.465259
0.11045 0.228249 0.466344
0.11408 0.227995 0.468471
0.117217 0.227623 0.470515
0.120698 0.227211 0.471061
0.124007 0.227101 0.473503
0.127312 0.227425 0.473694
0.130606 0.226937 0.475742
0.133906 0.226872 0.475497
0.13768 0.226914 0.476714
0.140683 0.226492 0.477722
0.144275 0.226513 0.478637
0.147419 0.226344 0.478258
0.151047 0.226237 0.478825
0.154516 0.226967 0.478416
0.158048 0.226564 0.47656
0.161191 0.226509 0.478609
0.164622 0.226583 0.478335
0.167999 0.226633 0.478596
0.171594 0.22665 0.477213
0.175274 0.22657 0.477127
0.17849 0.226927 0.476763
0.181874 0.226845 0.476107
0.185594 0.22713 0.475735
0.189254 0.227551 0.474112
0.19297 0.227241 0.472897
0.196416 0.227209 0.472452
0.200189 0.227647 0.470392
0.203705 0.227887 0.469719
0.207242 0.228007 0.467512
0.211169 0.228386 0.465039
0.215303 0.228796 0.462499
0.218739 0.229337 0.459576
0.222851 0.229871 0.456887
0.226603 0.229901 0.453778
0.230754 0.23046 0.451393
0.234475 0.230831 0.44866
0.238687 0.231969 0.444314
0.242617 0.2319 0.441406
0.246654 0.232515 0.437204
0.250868 0.233244 0.432191
0.255955 0.234353 0.425603
0.259976 0.234958 0.419956
0.265772 0.236818 0.409152
0.271352 0.239035 0.394879
-0.115703 0.250349 0.341963
-0.111593 0.249765 0.346049
-0.108103 0.249494 0.348296
-0.104226 0.248956 0.350622
-0.100588 0.248661 0.352215
-0.0967 0.248679 0.354113
-0.0927766 0.248616 0.356007
-0.0891065 0.248246 0.356405
-0.0851453 0.247991 0.358
-0.0811912 0.247932 0.358686
-0.077409 0.24802 0.362137
-0.073866 0.24735 0.362453
-0.0701499 0.247159 0.364436
-0.0667104 0.246884 0.365427
-0.062713 0.246931 0.365122
-0.0590553 0.246825 0.367349
-0.0553773 0.246484 0.368329
-0.0518084 0.246574 0.369608
-0.0478815 0.246115 0.369984
-0.0442786 0.245996 0.371581
-0.0404728 0.245589 0.373845
-0.0363991 0.245662 0.374114
-0.0330169 0.245712 0.374833
-0.0293748 0.245542 0.376135
-0.0255536 0.245392 0.376864
-0.0218507 0.245009 0.379363
-0.0178326 0.244596 0.380929
-0.0146769 0.244648 0.380849
-0.011189 0.244412 0.382529
-0.00715655 0.24393 0.38459
-0.00364993 0.243871 0.386155
-0.000205331 0.243619 0.388737
0.00371788 0.243318 0.390306
0.00718208 0.242977 0.391982
0.0107287 0.242444 0.394427
0.0146169 0.24177 0.398294
0.0179789 0.241707 0.399863
0.0219636 0.241316 0.403556
0.025002 0.240871 0.406329
0.0289022 0.240362 0.408144
0.0323546 0.239743 0.412027
0.0356043 0.239678 0.414774
0.0392911 0.239145 0.415824
0.0431993 0.238659 0.419768
0.0462938 0.238464 0.421815
0.0496963 0.237758 0.424558
0.0531534 0.237965 0.426377
0.0564583 0.237463 0.428243
0.059993 0.237025 0.43106
0.0635426 0.236766 0.433392
0.0667799 0.23636 0.435826
0.0705999 0.236114 0.437454
0.0739331 0.235301 0.441495
0.0771767 0.235152 0.443016
0.080856 0.234794 0.445733
0.0839322 0.23457 0.447924
0.0872972 0.234312 0.450758
0.0905304 0.233758 0.453406
0.0938781 0.233372 0.45613
0.0972329 0.232755 0.459404
0.100861 0.23263 0.461687
0.103913 0.23213 0.463936
0.107435 0.231832 0.464877
0.110897 0.23151 0.467538
0.113941 0.231416 0.468688
0.117265 0.231061 0.469921
0.120909 0.230989 0.471326
0.123756 0.230512 0.473332
0.127417 0.230948 0.473741
0.130729 0.230609 0.474454
0.134002 0.230325 0.476297
0.137482 0.230452 0.476006
0.141017 0.229777 0.476905
0.144383 0.229827 0.477639
0.147499 0.230287 0.477637
0.151181 0.22986 0.477648
0.154761 0.230015 0.478059
0.157956 0.229834 0.478219
0.16129 0.229544 0.478325
0.164636 0.229839 0.478356
0.168353 0.230318 0.47739
0.171761 0.230003 0.477928
0.174965 0.230346 0.476514
0.178508 0.230053 0.475603
0.182312 0.230273 0.474916
0.186038 0.230831 0.473538
0.18922 0.230829 0.474111
0.19301 0.230969 0.471599
0.196705 0.231074 0.470004
0.200764 0.232135 0.467288
0.203842 0.231185 0.467186
0.207799 0.231911 0.46552
0.211464 0.232301 0.462212
0.215299 0.233003 0.459522
0.219293 0.232795 0.457192
0.223044 0.233805 0.45412
0.226993 0.234056 0.451627
0.230368 0.234188 0.449288
0.235187 0.23474 0.444808
0.239521 0.235702 0.440025
0.243244 0.236154 0.436104
0.247907 0.23755 0.429934
0.252059 0.238054 0.424677
0.257402 0.239624 0.414644
0.262616 0.24123 0.404342
-0.127418 0.254731 0.339053
-0.123256 0.253987 0.345146
-0.119141 0.253191 0.34885
-0.115319 0.25292 0.349687
-0.111218 0.252929 0.353429
-0.107639 0.252295 0.354415
-0.103806 0.252337 0.356594
-0.0999265 0.251567 0.357334
-0.0959053 0.251899 0.359063
-0.0925481 0.251492 0.359151
-0.088783 0.251258 0.361651
-0.0852442 0.251034 0.361767
-0.0815209 0.250945 0.363231
-0.0773387 0.250698 0.364185
-0.0738455 0.250741 0.365453
-0.069811 0.250284 0.366885
-0.0661267 0.250361 0.368474
-0.0622953 0.249847 0.368424
-0.0587029 0.250172 0.370433
-0.0551474 0.250233 0.370471
-0.0511491 0.249796 0.371071
-0.0478727 0.249691 0.371675
-0.0437584 0.249355 0.374542
-0.0404623 0.249296 0.375067
-0.0364801 0.249063 0.37586
-0.0331529 0.24911 0.377129
-0.0292165 0.248683 0.377173
-0.0255702 0.248559 0.379246
-0.0216327 0.248483 0.380381
-0.0180621 0.248412 0.381047
-0.014916 0.248323 0.382946
-0.0109259 0.247717 0.383284
-0.00742214 0.247679 0.385252
-0.00364421 0.247371 0.387411
0.000281324 0.247232 0.389137
0.00363286 0.246803 0.390057
0.00713245 0.246777 0.391934
0.0108429 0.246044 0.394919
0.0146247 0.245994 0.396786
0.0182441 0.245437 0.400378
0.0217402 0.245242 0.401919
0.0251259 0.244505 0.405327
0.0290726 0.244212 0.407747
0.0323519 0.243654 0.410187
0.0355168 0.243603 0.412943
0.0389417 0.243343 0.415309
0.0427875 0.242798 0.418175
0.0462297 0.241784 0.420478
0.0495529 0.24168 0.423525
0.0533133 0.241347 0.425948
0.0567309 0.241254 0.428125
0.0600476 0.241042 0.430444
0.0636307 0.240142 0.433338
0.0673351 0.239822 0.435802
0.0705836 0.239492 0.436939
0.0739329 0.239372 0.439348
0.0772913 0.238938 0.441945
0.0807649 0.238404 0.444885
0.0842068 0.238207 0.448005
0.0873386 0.237543 0.450098
0.0909697 0.237148 0.453657
0.0940548 0.236938 0.456021
0.0974339 0.236317 0.458223
0.100705 0.235849 0.46091
0.103985 0.23606 0.463187
0.106988 0.235407 0.465356
0.110633 0.235011 0.46794
0.113899 0.234871 0.469125
0.117194 0.23461 0.470671
0.120799 0.234464 0.471859
0.123952 0.23449 0.471831
0.126894 0.234102 0.473981
0.130434 0.233719 0.475017
0.134182 0.233793 0.475829
0.137612 0.234014 0.476098
0.140612 0.233752 0.476966
0.143851 0.233781 0.476506
0.147854 0.23344 0.477065
0.151086 0.233705 0.47712
0.154351 0.233271 0.478213
0.157862 0.233379 0.477664
0.161668 0.233382 0.478043
0.164848 0.233674 0.477149
0.168463 0.233668 0.476501
0.171637 0.233297 0.477038
0.17518 0.233873 0.475835
0.178871 0.233577 0.475247
0.182387 0.234371 0.473261
0.185933 0.233871 0.47342
0.189667 0.234749 0.47087
0.193241 0.234482 0.470211
0.197033 0.234789 0.467813
0.200636 0.235382 0.466787
0.204531 0.235391 0.464466
0.208001 0.23575 0.461868
0.211626 0.236064 0.46002
0.215987 0.236775 0.456299
0.219921 0.237385 0.452666
0.223784 0.237698 0.45063
0.22794 0.238201 0.447075
0.231649 0.238221 0.444798
0.235805 0.239285 0.439217
0.239999 0.239784 0.43499
0.24459 0.241121 0.427755
0.249656 0.242366 0.419597
0.25438 0.243752 0.410786
0.259981 0.246033 0.396885
-0.138478 0.258716 0.337831
-0.134484 0.257818 0.34401
-0.130563 0.257249 0.346365
-0.126586 0.256706 0.349688
-0.122451 0.256376 0.352296
-0.118954 0.256214 0.354619
-0.115288 0.255868 0.355528
-0.111242 0.255603 0.356631
-0.107047 0.255171 0.359535
-0.103593 0.255175 0.359704
-0.100045 0.255296 0.361439
-0.0959234 0.254886 0.36231
-0.0923267 0.25475 0.363311
-0.0883606 0.254548 0.363574
-0.0847649 0.254549 0.36491
-0.0811314 0.253987 0.366971
-0.0773688 0.254297 0.366953
-0.0734943 0.254288 0.36985
-0.07 0.25389 0.369044
-0.066123 0.253677 0.37065
-0.0623689 0.253378 0.370648
-0.0586031 0.252819 0.372848
-0.0548463 0.253087 0.373762
-0.051649 0.252989 0.374382
-0.0478032 0.252898 0.374711
-0.0437663 0.253066 0.375057
-0.0403369 0.252743 0.376628
-0.0365216 0.252553 0.377974
-0.0327456 0.252084 0.377929
-0.02921 0.252154 0.379414
-0.0253109 0.251901 0.380694
-0.021943 0.251895 0.381006
-0.0185422 0.251866 0.382367
-0.0146935 0.251936 0.382478
-0.0106606 0.251115 0.384878
-0.0072853 0.251106 0.386101
-0.0035149 0.251043 0.387469
-0.000199405 0.250997 0.38851
0.00375662 0.250574 0.389987
0.00719277 0.250079 0.391863
0.0106329 0.249914 0.394359
0.0146016 0.249686 0.396015
0.0183365 0.249354 0.39842
0.0215478 0.248521 0.400732
0.0253845 0.248423 0.403527
0.0286148 0.248071 0.406245
0.0320251 0.247749 0.408319
0.0355736 0.24711 0.411751
0.0392598 0.24659 0.4148
0.0430523 0.246561 0.417131
0.0465323 0.24625 0.419359
0.0497656 0.245495 0.421591
0.0530995 0.245188 0.424118
0.056764 0.24475 0.426941
0.0604942 0.244192 0.429441
0.0635007 0.243677 0.432046
0.0667287 0.243678 0.434213
0.0704465 0.243174 0.437794
0.0737063 0.242826 0.440048
0.0772669 0.242254 0.441732
0.0806405 0.241905 0.444227
0.0841249 0.241582 0.44767
0.086995 0.241162 0.449968
0.0907192 0.240702 0.45289
0.093971 0.240475 0.455059
0.0974175 0.239775 0.458377
0.100611 0.239286 0.460647
0.103986 0.239124 0.462883
0.107444 0.239055 0.46431
0.110343 0.238324 0.467131
0.113958 0.238484 0.468625
0.11748 0.23816 0.470196
0.120831 0.237955 0.472039
0.12406 0.237721 0.472518
0.127266 0.237601 0.473615
0.130572 0.237734 0.473791
0.134149 0.237166 0.475681
0.137629 0.237167 0.475812
0.140753 0.236764 0.476789
0.144165 0.237029 0.47658
0.147734 0.237059 0.476631
0.151081 0.237081 0.476396
0.154451 0.236782 0.478064
0.15799 0.237083 0.476721
0.161368 0.236886 0.47691
0.164764 0.237435 0.475795
0.168318 0.237195 0.475567
0.172162 0.237347 0.475444
0.175523 0.237689 0.473769
0.179076 0.237661 0.473287
0.182868 0.237451 0.472758
0.186116 0.237795 0.470845
0.189997 0.238276 0.469357
0.193506 0.23853 0.46776
0.197021 0.238566 0.465959
0.201187 0.239149 0.462996
0.204685 0.239131 0.461913
0.208687 0.239851 0.45891
0.21249 0.240145 0.455544
0.21622 0.24036 0.453325
0.220318 0.24128 0.449538
0.224407 0.241533 0.446131
0.228343 0.242084 0.442843
0.232429 0.242963 0.437863
0.237155 0.24359 0.432732
0.242072 0.245222 0.423999
0.247011 0.246595 0.415377
0.251873 0.248134 0.404905
-0.150211 0.262592 0.336526
-0.14576 0.261533 0.342753
-0.141497 0.261083 0.347054
-0.137821 0.260525 0.349268
-0.134106 0.260176 0.351612
-0.129853 0.259936 0.354127
-0.125866 0.259444 0.356095
-0.122263 0.259251 0.356915
-0.118735 0.259275 0.358683
-0.114557 0.258835 0.359092
-0.111071 0.258644 0.361638
-0.106707 0.258644 0.363128
-0.103513 0.258099 0.362864
-0.0997106 0.257689 0.364546
-0.0957719 0.257821 0.364958
-0.0921538 0.257874 0.366343
-0.0885317 0.257721 0.366985
-0.0847097 0.25741 0.367657
-0.0809069 0.257517 0.369035
-0.0772341 0.257244 0.369452
-0.0734874 0.257117 0.370424
-0.0698249 0.256717 0.372378
-0.0660926 0.256791 0.373858
-0.0624014 0.256903 0.373314
-0.0587065 0.256546 0.374834
-0.0550127 0.256751 0.374538
-0.0514481 0.256603 0.375419
-0.0473569 0.256075 0.376137
-0.0436442 0.256225 0.376795
-0.0401431 0.256261 0.377878
-0.0366348 0.256119 0.378626
-0.0328308 0.255707 0.379171
-0.0297249 0.255528 0.37999
-0.0254611 0.255567 0.380599
-0.0217422 0.255391 0.38185
-0.0180048 0.254931 0.3837
-0.0146116 0.255143 0.383293
-0.0110628 0.255284 0.38466
-0.00700996 0.254797 0.385088
-0.00369365 0.254862 0.386137
-0.000284404 0.254247 0.388006
0.0039764 0.253958 0.39091
0.00692133 0.253839 0.392127
0.0108177 0.25354 0.393084
0.0146761 0.253585 0.395015
0.0179568 0.253024 0.397747
0.021741 0.252526 0.400426
0.0252178 0.252271 0.401537
0.0288889 0.251501 0.405284
0.0323561 0.251392 0.40718
0.0356604 0.251064 0.409214
0.0396317 0.250458 0.412718
0.0427841 0.250069 0.415738
0.0464045 0.249937 0.417803
0.0498103 0.24914 0.420382
0.0535408 0.248937 0.423448
0.0566681 0.248778 0.426021
0.060227 0.248283 0.428509
0.0638807 0.247954 0.430107
0.0671774 0.247445 0.433462
0.0705092 0.246888 0.436883
0.0740148 0.246449 0.438538
0.0771508 0.246132 0.44134
0.0814036 0.24579 0.444019
0.083944 0.24499 0.447305
0.0875113 0.244728 0.449955
0.0909621 0.244343 0.451398
0.0939513 0.243896 0.455029
0.0971395 0.243425 0.457209
0.100602 0.243036 0.460403
0.104128 0.243094 0.461724
0.107192 0.242251 0.464744
0.110572 0.241955 0.466592
0.114075 0.241862 0.46783
0.117283 0.241778 0.470295
0.120932 0.241017 0.470671
0.123858 0.241096 0.472226
0.127234 0.241225 0.472663
0.130778 0.240974 0.47437
0.134176 0.241044 0.4742
0.137674 0.240442 0.475166
0.140958 0.240615 0.475022
0.144471 0.240518 0.475735
0.14791 0.24044 0.476623
0.151417 0.240619 0.476815
0.154478 0.240699 0.476662
0.157938 0.240878 0.475984
0.161658 0.240549 0.475486
0.165171 0.240951 0.47465
0.168459 0.240725 0.47414
0.171895 0.241175 0.473739
0.175382 0.241215 0.472965
0.178921 0.241268 0.471587
0.182962 0.241686 0.469785
0.186011 0.2419 0.468593
0.190103 0.241789 0.46739
0.193582 0.242296 0.465936
0.197597 0.243065 0.462365
0.201739 0.243481 0.459914
0.205274 0.243388 0.457541
0.209303 0.243846 0.455162
0.212801 0.244137 0.452554
0.216955 0.244988 0.448065
0.220909 0.245473 0.444359
0.225011 0.246169 0.439885
0.229344 0.247195 0.43514
0.233589 0.247866 0.43022
0.238704 0.249336 0.420447
0.243961 0.251374 0.409376
0.249645 0.252919 0.396565
-0.16152 0.266113 0.338323
-0.156433 0.264951 0.345372
-0.153145 0.264602 0.349166
-0.148909 0.263947 0.351333
-0.144836 0.263578 0.35318
-0.141193 0.263204 0.354644
-0.137142 0.263125 0.355736
-0.133548 0.263055 0.356582
-0.129443 0.262834 0.359337
-0.125774 0.262398 0.360358
-0.122193 0.262581 0.362052
-0.117934 0.262356 0.36326
-0.114549 0.261886 0.363788
-0.110839 0.262118 0.365202
-0.107033 0.261846 0.365804
-0.103365 0.261765 0.36709
-0.0993405 0.261581 0.367114
-0.0960258 0.261141 0.367646
-0.0923232 0.261288 0.368788
-0.0883521 0.26109 0.37025
-0.084396 0.261091 0.371157
-0.0808493 0.260711 0.371046
-0.0773266 0.260337 0.372828
-0.0734491 0.260461 0.373612
-0.0697249 0.260543 0.373752
-0.066044 0.260041 0.374692
-0.0621917 0.260371 0.375116
-0.0584497 0.259982 0.376575
-0.055061 0.259761 0.377547
-0.0514008 0.259827 0.37795
-0.0474783 0.2599 0.377533
-0.0439634 0.259565 0.377841
-0.0400382 0.259637 0.379264
-0.0367069 0.259705 0.378671
-0.0329182 0.259775 0.379739
-0.0291192 0.259562 0.380283
-0.0254586 0.259292 0.380807
-0.0215517 0.258875 0.382596
-0.0184635 0.258835 0.383213
-0.0144953 0.258818 0.384334
-0.0107133 0.258843 0.385755
-0.00711523 0.258231 0.387146
-0.00359216 0.258018 0.38687
-0.000232381 0.257941 0.388968
0.00341156 0.257768 0.391061
0.00719624 0.258005 0.391301
0.0107998 0.257359 0.392017
0.0145382 0.257 0.394961
0.0184429 0.256387 0.397179
0.0217529 0.256398 0.398047
0.0250415 0.256418 0.398908
0.0289161 0.255539 0.403983
0.032467 0.255373 0.405538
0.0358327 0.255282 0.407682
0.0393096 0.254358 0.411451
0.0429606 0.254067 0.413306
0.046614 0.253856 0.415287
0.0499151 0.252681 0.419679
0.0533209 0.252654 0.422141
0.0567813 0.252434 0.424631
0.0602069 0.25176 0.428508
0.063828 0.251388 0.43024
0.0668852 0.250843 0.432697
0.0701246 0.250395 0.435999
0.0741818 0.250138 0.43778
0.077617 0.249797 0.439529
0.0808519 0.249278 0.443699
0.0837211 0.24946 0.44453
0.0874745 0.248795 0.446985
0.0909515 0.248438 0.450674
0.094135 0.24813 0.453708
0.097511 0.247318 0.456784
0.100677 0.246724 0.458722
0.104133 0.246487 0.461642
0.107456 0.246136 0.462672
0.11058 0.245889 0.464962
0.113968 0.245386 0.466134
0.117549 0.244993 0.468634
0.120675 0.24511 0.469759
0.12413 0.244773 0.471399
0.127713 0.244482 0.472476
0.130735 0.244552 0.473207
0.134171 0.244056 0.47428
0.137734 0.24418 0.474356
0.141177 0.243984 0.475258
0.144712 0.244334 0.474918
0.147946 0.244209 0.475662
0.151495 0.244311 0.473124
0.154604 0.243717 0.47519
0.158402 0.244574 0.473927
0.162028 0.244339 0.473767
0.165334 0.244919 0.472488
0.168714 0.244779 0.472682
0.172598 0.244974 0.471538
0.176019 0.245204 0.470097
0.179331 0.245121 0.470155
0.183117 0.245551 0.467327
0.186918 0.245522 0.466179
0.190569 0.246108 0.463722
0.194248 0.246455 0.460882
0.19819 0.246732 0.458446
0.201922 0.247278 0.455727
0.205966 0.247822 0.452383
0.209516 0.248274 0.450531
0.213808 0.248682 0.446239
0.217815 0.249543 0.441569
0.222312 0.250372 0.436831
0.226389 0.251054 0.431869
0.231158 0.252344 0.424176
0.235785 0.253739 0.415167
0.241592 0.255756 0.402454
-0.171775 0.269066 0.34406
-0.167612 0.268442 0.347585
-0.16378 0.267847 0.350718
-0.160006 0.267219 0.351051
-0.155806 0.267215 0.354693
-0.151918 0.266877 0.357474
-0.148452 0.266647 0.357856
-0.144431 0.266362 0.359244
-0.140589 0.266319 0.360151
-0.137125 0.265939 0.360686
-0.133333 0.26614 0.361483
-0.129314 0.265644 0.36377
-0.125386 0.26552 0.365129
-0.12182 0.265664 0.364918
-0.117999 0.26501 0.366875
-0.114501 0.265437 0.366299
-0.110126 0.265129 0.368477
-0.106641 0.26502 0.368618
-0.10263 0.264689 0.368686
-0.098922 0.264968 0.369899
-0.0957881 0.264546 0.371026
-0.091845 0.264691 0.370842
-0.0880713 0.264071 0.371671
-0.0842352 0.264488 0.373231
-0.0806535 0.264049 0.374379
-0.0770989 0.263588 0.374589
-0.0733863 0.264 0.374303
-0.0698171 0.263896 0.37504
-0.0662964 0.263624 0.375482
-0.0623589 0.263562 0.376104
-0.058734 0.263851 0.377019
-0.0545606 0.263562 0.377494
-0.0513646 0.263433 0.378972
-0.0472827 0.263119 0.379233
-0.0439784 0.26311 0.37983
-0.0400362 0.262987 0.380604
-0.0365586 0.262906 0.379719
-0.0328653 0.263003 0.380729
-0.029154 0.263009 0.381034
-0.0253279 0.262878 0.381943
-0.0220072 0.262639 0.381723
-0.0182577 0.262547 0.383209
-0.0143287 0.262652 0.384412
-0.0111724 0.262462 0.384598
-0.00722393 0.261929 0.386228
-0.00325239 0.261457 0.3881
-0.000184563 0.261214 0.388946
0.00349837 0.261578 0.389237
0.0074547 0.261555 0.390482
0.0112232 0.261181 0.392139
0.0144402 0.260951 0.393795
0.0179227 0.261021 0.394455
0.0216636 0.260018 0.396366
0.0253033 0.259898 0.399093
0.0288439 0.25971 0.40149
0.0325216 0.259124 0.403446
0.0359698 0.258932 0.406319
0.0393428 0.258408 0.408605
0.0432837 0.258041 0.410825
0.0464815 0.256943 0.415585
0.050082 0.25696 0.417586
0.0540036 0.25669 0.420867
0.0567336 0.255783 0.423332
0.0599623 0.255541 0.426364
0.0637196 0.254824 0.429392
0.0671493 0.254799 0.431316
0.0705595 0.254643 0.433366
0.0741389 0.253853 0.436847
0.0771099 0.253563 0.438916
0.0810455 0.253327 0.441334
0.0844838 0.25305 0.443529
0.087627 0.251994 0.446638
0.0911233 0.251995 0.448389
0.0943567 0.251311 0.451992
0.0974792 0.250906 0.454293
0.100944 0.250768 0.457488
0.104252 0.250464 0.459857
0.107605 0.249523 0.46183
0.110692 0.24945 0.463213
0.1144 0.249248 0.465808
0.117459 0.248625 0.466974
0.12108 0.248972 0.467633
0.124076 0.248289 0.470194
0.127618 0.248423 0.470662
0.130942 0.24803 0.472357
0.134642 0.248093 0.472076
0.137655 0.247691 0.473717
0.141228 0.24815 0.472949
0.14463 0.247617 0.473939
0.148005 0.247634 0.47313
0.151244 0.247957 0.472697
0.15521 0.248216 0.472251
0.15847 0.247899 0.472454
0.162605 0.247972 0.471502
0.165574 0.248105 0.471287
0.169191 0.248352 0.469596
0.172597 0.248623 0.468499
0.176526 0.248686 0.467669
0.179723 0.249566 0.46592
0.183625 0.249677 0.463493
0.187046 0.249511 0.462334
0.190735 0.249909 0.459414
0.194784 0.25059 0.457246
0.198908 0.251208 0.453059
0.202451 0.251357 0.450957
0.206628 0.252328 0.447336
0.210418 0.253268 0.442242
0.214705 0.253268 0.439246
0.218856 0.254473 0.432743
0.223818 0.255913 0.425567
0.22829 0.256715 0.418224
0.233308 0.257985 0.408824
-0.182743 0.272259 0.345975
-0.178136 0.271643 0.349892
-0.174791 0.271319 0.351854
-0.171005 0.270981 0.352967
-0.166925 0.270787 0.355391
-0.163483 0.270414 0.356567
-0.159163 0.270439 0.358093
-0.155322 0.269622 0.358927
-0.151233 0.270063 0.361472
-0.147598 0.269939 0.361831
-0.143823 0.269359 0.363491
-0.140232 0.269226 0.364051
-0.136354 0.26903 0.363935
-0.132742 0.268949 0.365475
-0.128814 0.269179 0.366416
-0.124914 0.268591 0.367207
-0.121194 0.26844 0.367888
-0.117807 0.268433 0.368381
-0.113916 0.26875 0.369272
-0.110239 0.268352 0.369093
-0.106713 0.26811 0.370673
-0.102935 0.268356 0.371803
-0.0988837 0.267852 0.372429
-0.0954445 0.267976 0.372514
-0.0919111 0.267374 0.373792
-0.0884333 0.267541 0.373845
-0.0843343 0.267718 0.374674
-0.0802798 0.267481 0.37558
-0.0768846 0.267251 0.376324
-0.0732659 0.267636 0.376753
-0.0696991 0.26704 0.376902
-0.0660662 0.267062 0.378209
-0.0620068 0.267148 0.378361
-0.0580966 0.267126 0.378257
-0.0550713 0.266662 0.379201
-0.051084 0.266994 0.37912
-0.0474711 0.266598 0.379573
-0.0440002 0.266474 0.380384
-0.0403246 0.266714 0.379681
-0.0363488 0.266319 0.380904
-0.0324886 0.266382 0.38152
-0.0292592 0.266656 0.381522
-0.0255683 0.266188 0.382206
-0.0218305 0.266281 0.382449
-0.018076 0.266046 0.382949
-0.0149215 0.266378 0.383936
-0.0106721 0.265811 0.385823
-0.00724417 0.265901 0.386305
-0.00366911 0.265196 0.387195
-6.68977e-05 0.265651 0.387418
0.00354305 0.265568 0.388743
0.00706602 0.264681 0.391128
0.0106203 0.264912 0.391767
0.0146255 0.264723 0.39254
0.0179941 0.264389 0.393734
0.0217683 0.264246 0.395862
0.0253056 0.2634 0.398236
0.0288248 0.263194 0.399385
0.0320328 0.26301 0.401132
0.0359437 0.262735 0.40357
0.0393304 0.262371 0.4059
0.0431928 0.262111 0.40861
0.0467898 0.261616 0.411825
0.0504191 0.260933 0.415029
0.0534069 0.260428 0.417961
0.0572842 0.260187 0.419685
0.0601884 0.259387 0.423824
0.0637689 0.258925 0.426679
0.0674094 0.258532 0.429298
0.0704151 0.257888 0.431886
0.0743197 0.257819 0.434883
0.077764 0.256894 0.437603
0.0808213 0.256723 0.440271
0.0844098 0.256556 0.442554
0.0876131 0.256318 0.444477
0.0910902 0.255602 0.447123
0.0946166 0.255293 0.450101
0.0977703 0.254689 0.452418
0.10125 0.254491 0.454461
0.104539 0.254123 0.456717
0.107709 0.253059 0.460412
0.111053 0.2535 0.461124
0.114247 0.252648 0.463618
0.117676 0.253059 0.464588
0.121321 0.252178 0.467314
0.124424 0.252232 0.46808
0.127763 0.252111 0.46808
0.131013 0.251984 0.469812
0.134656 0.251542 0.470554
0.137541 0.251978 0.471185
0.141173 0.251399 0.471889
0.145088 0.251693 0.471304
0.148473 0.251923 0.470034
0.15158 0.251446 0.471864
0.155012 0.25144 0.471231
0.158524 0.251672 0.469715
0.162309 0.252357 0.468466
0.165689 0.2528 0.466798
0.169438 0.252682 0.466286
0.173179 0.252787 0.464754
0.176603 0.25273 0.463759
0.180375 0.253076 0.462211
0.184103 0.253809 0.458944
0.187989 0.253881 0.456876
0.191754 0.254447 0.454071
0.195342 0.254897 0.451253
0.19996 0.255714 0.446011
0.203837 0.256145 0.443266
0.208128 0.257618 0.437457
0.211882 0.257293 0.434244
0.216386 0.259166 0.426589
0.220803 0.260258 0.419522
0.226048 0.261885 0.409117
-0.194129 0.27613 0.346556
-0.1892 0.275334 0.352001
-0.185783 0.275131 0.353607
-0.18218 0.274468 0.35419
-0.177951 0.2739 0.356304
-0.17413 0.274025 0.356578
-0.170287 0.274011 0.358815
-0.166707 0.273489 0.358433
-0.162729 0.273795 0.361158
-0.15921 0.273642 0.362547
-0.155111 0.273055 0.363368
-0.151072 0.272784 0.364157
-0.147411 0.272903 0.365181
-0.143348 0.272911 0.364599
-0.139747 0.272456 0.36699
-0.136394 0.272396 0.368306
-0.132646 0.272239 0.368331
-0.128646 0.272254 0.36884
-0.124873 0.271766 0.369488
-0.1212 0.271894 0.370483
-0.117814 0.271849 0.371262
-0.114242 0.272266 0.37059
-0.110386 0.271521 0.371836
-0.106402 0.271612 0.37319
-0.102887 0.271559 0.373259
-0.0991752 0.271397 0.373891
-0.0951622 0.271144 0.374179
-0.0914886 0.271233 0.375243
-0.0880672 0.271172 0.375645
-0.0839554 0.270962 0.37652
-0.0805314 0.270884 0.377214
-0.0767842 0.270966 0.377915
-0.0732649 0.270714 0.377879
-0.0694572 0.270733 0.377637
-0.0660526 0.270691 0.37771
-0.0618384 0.270608 0.37876
-0.0584387 0.270664 0.379408
-0.0548536 0.270697 0.379006
-0.0510965 0.270591 0.378991
-0.0475081 0.270642 0.379833
-0.0439077 0.270096 0.380692
-0.0400067 0.270326 0.380738
-0.0362769 0.270218 0.379602
-0.0327406 0.269802 0.381586
-0.0290689 0.270057 0.382298
-0.0255369 0.269878 0.382595
-0.0219474 0.27005 0.382433
-0.0186606 0.270183 0.382136
-0.0145983 0.269648 0.383506
-0.0110839 0.269656 0.384584
-0.00738434 0.269359 0.385689
-0.0033966 0.268834 0.3876
0.000212379 0.268805 0.387723
0.00340282 0.269023 0.389204
0.0074248 0.268613 0.389602
0.0104793 0.268925 0.39049
0.0147094 0.268559 0.392048
0.0181799 0.268029 0.393156
0.0217351 0.268034 0.393947
0.0251868 0.267768 0.395499
0.0284855 0.267805 0.397423
0.0321943 0.26699 0.399877
0.0358716 0.266955 0.401101
0.0394628 0.266488 0.40339
0.0432159 0.265988 0.406046
0.0468627 0.265346 0.409488
0.0500909 0.264656 0.411873
0.0537474 0.264647 0.415257
0.0571456 0.264033 0.417978
0.0606168 0.263274 0.421269
0.0639245 0.262966 0.424046
0.0674509 0.262411 0.426636
0.0707914 0.262007 0.429814
0.0745554 0.261747 0.432329
0.0778345 0.261294 0.434507
0.0806729 0.261088 0.436769
0.0844703 0.260591 0.43893
0.0875684 0.259911 0.442317
0.0913852 0.259323 0.444748
0.0951477 0.259353 0.447129
0.0979421 0.259015 0.449467
0.101365 0.258594 0.450859
0.104788 0.258457 0.453719
0.107925 0.257907 0.456273
0.111308 0.256966 0.458752
0.114544 0.256849 0.460988
0.11785 0.256604 0.462535
0.121451 0.256955 0.462535
0.124733 0.255943 0.464663
0.127799 0.256021 0.465866
0.131474 0.25578 0.467151
0.134864 0.255892 0.467357
0.138757 0.255655 0.467892
0.141472 0.255416 0.468603
0.145688 0.256011 0.467176
0.148879 0.25562 0.467638
0.152179 0.255834 0.467029
0.155374 0.255578 0.467457
0.159218 0.255988 0.466444
0.163052 0.256054 0.464515
0.166352 0.25659 0.462466
0.169855 0.256551 0.462573
0.173611 0.256863 0.460092
0.17737 0.257083 0.457955
0.18089 0.257712 0.455688
0.185034 0.257838 0.453093
0.188839 0.25909 0.448836
0.193058 0.259953 0.444309
0.196876 0.260142 0.441726
0.200692 0.261156 0.436975
0.205095 0.261607 0.43231
0.209313 0.262376 0.426559
0.214096 0.264282 0.417362
0.219607 0.266481 0.404963
-0.205489 0.280102 0.343675
-0.201304 0.279082 0.349254
-0.196874 0.278555 0.353537
-0.192782 0.278237 0.354977
-0.188813 0.278131 0.35655
-0.184842 0.277697 0.358166
-0.181546 0.27746 0.359097
-0.177258 0.277686 0.359575
-0.173794 0.27739 0.361083
-0.169731 0.276915 0.361813
-0.165974 0.276979 0.363387
-0.16206 0.276487 0.363706
-0.158247 0.276231 0.365862
-0.154855 0.276408 0.365929
-0.150955 0.276279 0.366764
-0.146652 0.276003 0.367737
-0.143765 0.276355 0.367853
-0.139975 0.275506 0.368949
-0.136256 0.275802 0.369674
-0.132214 0.27586 0.370443
-0.128619 0.275623 0.371641
-0.124878 0.275647 0.371199
-0.12131 0.275339 0.372337
-0.117663 0.275519 0.372159
-0.113535 0.274729 0.374166
-0.10953 0.275165 0.373947
-0.106179 0.274876 0.374383
-0.102859 0.274785 0.374834
-0.0988113 0.275106 0.374618
-0.0952043 0.274875 0.375206
-0.0914875 0.27471 0.376263
-0.0879273 0.27458 0.376284
-0.0844986 0.274635 0.376174
-0.0806309 0.274426 0.378081
-0.0766606 0.274289 0.37771
-0.0729063 0.274303 0.378678
-0.0694792 0.274292 0.378824
-0.0658784 0.274424 0.379275
-0.0622167 0.274362 0.379384
-0.058623 0.274249 0.379739
-0.0548083 0.273701 0.379927
-0.0508729 0.273945 0.38018
-0.047502 0.273793 0.380436
-0.0438398 0.273573 0.381268
-0.0401339 0.27384 0.380836
-0.0366133 0.273848 0.38169
-0.0329633 0.274189 0.380938
-0.0291354 0.273977 0.381086
-0.0254275 0.273471 0.382305
-0.0215443 0.274014 0.382241
-0.0180972 0.273583 0.383348
-0.0145238 0.273253 0.384905
-0.0109674 0.27334 0.384869
-0.0071291 0.273041 0.386486
-0.0032943 0.272957 0.386865
6.17335e-05 0.27281 0.386734
0.00336892 0.272846 0.388427
0.00731587 0.272337 0.389029
0.0109595 0.272479 0.389679
0.0143375 0.272227 0.390607
0.018091 0.272089 0.390803
0.0216438 0.271994 0.392093
0.0250856 0.271668 0.394377
0.0290765 0.271817 0.394653
0.0328951 0.271095 0.396764
0.0358479 0.270603 0.39879
0.0394938 0.270591 0.400207
0.0434625 0.270538 0.402633
0.0465889 0.269886 0.404709
0.0505847 0.269151 0.408409
0.053717 0.268732 0.411137
0.0572703 0.268201 0.414414
0.0606636 0.267803 0.417711
0.0641728 0.267492 0.42013
0.0669348 0.26646 0.423526
0.0710675 0.266187 0.426589
0.0740773 0.26576 0.428993
0.0779284 0.265446 0.430865
0.081173 0.265324 0.433067
0.0848378 0.264367 0.435868
0.0882528 0.264276 0.438797
0.0913905 0.263421 0.441344
0.0946123 0.263339 0.443274
0.0980291 0.262653 0.445582
0.101687 0.262823 0.447079
0.104934 0.262714 0.449316
0.107948 0.26156 0.45397
0.111797 0.261458 0.455234
0.115071 0.26093 0.456854
0.118618 0.260916 0.458009
0.121747 0.260479 0.459428
0.124885 0.260298 0.46051
0.128169 0.260493 0.461457
0.131593 0.260024 0.46333
0.135179 0.259672 0.463392
0.138711 0.260004 0.462603
0.14214 0.259964 0.463938
0.145413 0.259751 0.463142
0.148584 0.259701 0.463121
0.152888 0.260018 0.462473
0.156376 0.260765 0.460169
0.159918 0.260712 0.459358
0.163286 0.260915 0.457668
0.167219 0.261189 0.456566
0.171073 0.261575 0.453811
0.174002 0.261622 0.452864
0.17837 0.262127 0.449813
0.182182 0.262507 0.447209
0.186192 0.26368 0.442591
0.190087 0.263933 0.439689
0.19414 0.265145 0.434015
0.198047 0.26549 0.430449
0.202683 0.266664 0.423205
0.207771 0.268314 0.413814
0.211971 0.269212 0.406477
-0.212404 0.283088 0.347825
-0.208019 0.282479 0.352063
-0.203893 0.282245 0.354855
-0.20021 0.281787 0.356731
-0.196318 0.281631 0.356989
-0.192053 0.281303 0.35854
-0.188788 0.281007 0.359511
-0.184504 0.280768 0.361244
-0.181001 0.280697 0.361585
-0.17727 0.280568 0.361688
-0.173272 0.280424 0.363533
-0.169743 0.280406 0.364529
-0.166202 0.280039 0.36427
-0.162306 0.280031 0.365739
-0.158451 0.27997 0.366
-0.154868 0.279738 0.367358
-0.151067 0.279984 0.367175
-0.147076 0.279619 0.369519
-0.143395 0.279682 0.369556
-0.139718 0.279359 0.370798
-0.136081 0.279348 0.370495
-0.132021 0.279685 0.371824
-0.128395 0.278871 0.372529
-0.125091 0.278969 0.371978
-0.121023 0.278756 0.373171
-0.117486 0.27852 0.373744
-0.113518 0.278608 0.374013
-0.110119 0.278615 0.374553
-0.106192 0.279074 0.374638
-0.102524 0.278492 0.375502
-0.0988664 0.278199 0.375037
-0.0951717 0.278453 0.376175
-0.0915021 0.277978 0.376776
-0.0881793 0.27813 0.377556
-0.0842057 0.278103 0.377168
-0.0806291 0.277954 0.377922
-0.0761842 0.277734 0.378322
-0.0727958 0.278035 0.378629
-0.0693326 0.277701 0.378609
-0.0657748 0.277693 0.379378
-0.0618455 0.277553 0.379987
-0.0581903 0.277314 0.380166
-0.0551795 0.277852 0.379688
-0.051085 0.277629 0.380246
-0.0476044 0.277694 0.379961
-0.0436913 0.27725 0.381037
-0.0401251 0.277398 0.381615
-0.0366262 0.277261 0.381111
-0.0328112 0.27754 0.38108
-0.0290851 0.27748 0.381673
-0.0256713 0.27699 0.382882
-0.0218827 0.277229 0.383036
-0.0182367 0.277302 0.383809
-0.0145171 0.277175 0.384193
-0.0111249 0.276656 0.3852
-0.00743839 0.276859 0.384818
-0.00348948 0.276673 0.386689
-0.000106354 0.276609 0.386688
0.00377196 0.276833 0.38712
0.00705571 0.276339 0.387215
0.010879 0.275952 0.389059
0.014584 0.275776 0.390627
0.0184129 0.275725 0.39107
0.0220131 0.27594 0.390586
0.0253862 0.275648 0.391263
0.0291353 0.275733 0.392331
0.0327157 0.275119 0.394021
0.0361697 0.275442 0.39478
0.0397332 0.274674 0.397573
0.0433824 0.27405 0.400232
0.0465388 0.27414 0.400923
0.0505891 0.273757 0.403397
0.0537361 0.273061 0.406645
0.0576398 0.272369 0.409904
0.0606837 0.272282 0.411289
0.0642713 0.271804 0.414942
0.0682347 0.272028 0.416772
0.071279 0.270634 0.420937
0.0747076 0.27008 0.423684
0.0783505 0.269933 0.42614
0.0814691 0.269124 0.42892
0.0852392 0.268712 0.431579
0.0882844 0.268602 0.433271
0.0918122 0.267799 0.435876
0.0951265 0.267513 0.439365
0.0984317 0.26723 0.441201
0.102042 0.266718 0.44357
0.105068 0.266468 0.44542
0.108544 0.266216 0.447309
0.111628 0.265712 0.44977
0.115299 0.265532 0.451051
0.118721 0.265281 0.452589
0.121762 0.264905 0.453827
0.125455 0.264846 0.454421
0.128539 0.264524 0.456447
0.132357 0.264426 0.456796
0.136089 0.264285 0.456875
0.139328 0.264745 0.456689
0.143017 0.264922 0.456003
0.14652 0.264736 0.455777
0.149668 0.264302 0.456218
0.153072 0.264757 0.455291
0.156967 0.26482 0.454346
0.160842 0.265044 0.452904
0.164286 0.265623 0.450064
0.167925 0.265786 0.448319
0.17202 0.266403 0.445861
0.175594 0.267044 0.44198
0.179368 0.267279 0.439532
0.183417 0.267897 0.435751
0.187773 0.269648 0.428454
0.191657 0.269891 0.424974
0.196942 0.272263 0.413261
0.201945 0.273786 0.402744
-0.223759 0.287619 0.345808
-0.219576 0.28668 0.349313
-0.215646 0.286089 0.351786
-0.211803 0.285868 0.355036
-0.207234 0.285292 0.356377
-0.203966 0.284779 0.357571
-0.199898 0.285131 0.358283
-0.195934 0.284727 0.359905
-0.192349 0.284667 0.360153
-0.188371 0.284451 0.361462
-0.185013 0.28456 0.362166
-0.18107 0.28454 0.363264
-0.177268 0.2841 0.363614
-0.17329 0.28405 0.364896
-0.1701 0.283963 0.365224
-0.165649 0.283794 0.365749
-0.162176 0.283873 0.365849
-0.158584 0.283605 0.3674
-0.154591 0.283538 0.368108
-0.150887 0.283384 0.36857
-0.146596 0.282859 0.370831
-0.143521 0.282757 0.370453
-0.139828 0.282871 0.370889
-0.136005 0.282714 0.371977
-0.132237 0.282334 0.371962
-0.12835 0.282581 0.373413
-0.124456 0.282392 0.374021
-0.120964 0.282115 0.373891
-0.117171 0.282676 0.373798
-0.113615 0.281977 0.375091
-0.109703 0.282076 0.374365
-0.106449 0.281883 0.375223
-0.102392 0.282003 0.375664
-0.0987275 0.282163 0.375332
-0.0951677 0.281943 0.378028
-0.0914861 0.281683 0.377056
-0.0879506 0.28165 0.377207
-0.0838778 0.282115 0.378006
-0.0804985 0.281675 0.378613
-0.0763048 0.281634 0.37863
-0.0731515 0.281492 0.378653
-0.0690998 0.281492 0.379343
-0.066019 0.281494 0.380027
-0.0618875 0.281431 0.380001
-0.0584781 0.281243 0.381268
-0.054784 0.281254 0.379367
-0.0514568 0.281581 0.380371
-0.04742 0.280889 0.38093
-0.0439647 0.281184 0.381658
-0.0402478 0.281162 0.382023
-0.0365831 0.281012 0.381489
-0.0328997 0.280818 0.382702
-0.0293795 0.280909 0.382059
-0.0255136 0.280733 0.383275
-0.0215337 0.280704 0.383826
-0.0182149 0.280883 0.383163
-0.014353 0.280216 0.384975
-0.0108028 0.28036 0.385059
-0.00733662 0.280374 0.385307
-0.00394754 0.280486 0.385375
0.000127281 0.280228 0.387143
0.00388236 0.280005 0.386944
0.00712911 0.280442 0.387267
0.0107838 0.280191 0.38751
0.0141114 0.279968 0.388931
0.018274 0.280075 0.388215
0.0216952 0.280091 0.388037
0.0254706 0.279413 0.389698
0.0286792 0.279847 0.389424
0.0326623 0.279681 0.390182
0.0362785 0.279572 0.391725
0.0399178 0.278412 0.394106
0.0434796 0.278858 0.394234
0.0472605 0.278185 0.396879
0.0505276 0.277914 0.39812
0.0541715 0.277929 0.400468
0.0574357 0.277061 0.402963
0.0608706 0.277015 0.405197
0.0647295 0.276683 0.407885
0.0682623 0.275965 0.411415
0.0714323 0.275585 0.413962
0.0747593 0.275059 0.416918
0.0784926 0.273695 0.421994
0.082185 0.273641 0.423745
0.08549 0.273669 0.425383
0.0888122 0.272962 0.428355
0.0919325 0.272889 0.429635
0.0954238 0.272202 0.431755
0.098584 0.271605 0.434656
0.102401 0.271227 0.43737
0.105632 0.270775 0.439547
0.109218 0.270894 0.440428
0.112314 0.26995 0.443733
0.115785 0.269815 0.44505
0.11919 0.270058 0.444993
0.122408 0.269374 0.44795
0.126294 0.269728 0.447183
0.129168 0.269493 0.448902
0.13291 0.269262 0.448972
0.136427 0.269253 0.449322
0.139708 0.269387 0.448953
0.143504 0.269372 0.448824
0.14675 0.269269 0.448156
0.150437 0.269247 0.446979
0.154419 0.270202 0.444442
0.158211 0.270138 0.444225
0.161686 0.271132 0.440547
0.165358 0.271458 0.437615
0.168903 0.272175 0.434617
0.17313 0.272206 0.432333
0.177693 0.273537 0.425589
0.181888 0.274415 0.419641
0.185855 0.275352 0.413633
-0.231162 0.291451 0.347131
-0.227272 0.290518 0.349667
-0.222905 0.289938 0.352111
-0.218692 0.289313 0.355361
-0.215052 0.289261 0.355851
-0.211295 0.289097 0.357545
-0.207327 0.289071 0.358101
-0.203349 0.288569 0.360089
-0.199557 0.288318 0.359703
-0.19605 0.288441 0.360368
-0.192061 0.288152 0.361809
-0.188419 0.287836 0.362943
-0.184542 0.287886 0.36323
-0.18104 0.288073 0.363563
-0.176746 0.287452 0.366161
-0.173435 0.287464 0.365129
-0.16958 0.287467 0.366425
-0.165654 0.287136 0.366732
-0.161674 0.287087 0.367192
-0.158295 0.286932 0.369029
-0.154698 0.286937 0.368576
-0.150691 0.286949 0.369341
-0.146776 0.286656 0.37099
-0.142903 0.286809 0.370473
-0.139194 0.286034 0.372229
-0.135931 0.286508 0.371655
-0.132131 0.286081 0.3723
-0.128368 0.285821 0.373202
-0.124635 0.286086 0.373914
-0.121054 0.286154 0.372959
-0.117491 0.285804 0.374108
-0.113662 0.286116 0.374039
-0.10983 0.285829 0.374336
-0.106129 0.285934 0.374947
-0.102506 0.286066 0.374779
-0.0987543 0.285831 0.3757
-0.0950986 0.28542 0.376716
-0.0912778 0.28562 0.377286
-0.0874467 0.285434 0.377121
-0.0842338 0.285388 0.378243
-0.0803915 0.285188 0.378289
-0.076956 0.28506 0.378689
-0.0730936 0.285198 0.379324
-0.0695513 0.285145 0.379428
-0.065402 0.284926 0.380639
-0.0620926 0.285049 0.380045
-0.0584385 0.285331 0.380216
-0.0548598 0.284719 0.381593
-0.0510942 0.284799 0.38163
-0.0476738 0.284731 0.38104
-0.0439137 0.284787 0.381972
-0.0401393 0.284185 0.382252
-0.0364914 0.284326 0.383472
-0.0327599 0.284834 0.382178
-0.0290254 0.284281 0.383433
-0.0251634 0.28409 0.383401
-0.0217182 0.284516 0.384023
-0.0184786 0.284178 0.384157
-0.0143044 0.284302 0.384919
-0.0109817 0.284269 0.385251
-0.00756627 0.283982 0.384892
-0.00379456 0.283906 0.385685
-0.000104693 0.283841 0.385609
0.00357102 0.283916 0.386518
0.00706543 0.284213 0.385698
0.010739 0.283845 0.386499
0.0146314 0.283795 0.386462
0.0182028 0.283802 0.386912
0.0217617 0.284148 0.386711
0.025363 0.284014 0.386777
0.0290023 0.283606 0.388122
0.0323918 0.283822 0.388447
0.0360551 0.28333 0.388597
0.0399442 0.283516 0.388926
0.0435612 0.28305 0.390846
0.0472086 0.282706 0.391369
0.0508301 0.28311 0.391914
0.0542541 0.282618 0.393728
0.0579064 0.282327 0.394569
0.0610998 0.28196 0.396426
0.0650823 0.28148 0.39925
0.0685155 0.281171 0.401231
0.0718833 0.281097 0.40323
0.0752661 0.279719 0.407481
0.0788443 0.279146 0.411413
0.0825426 0.279307 0.412396
0.0855565 0.279049 0.414333
0.0890911 0.278039 0.417687
0.0924081 0.277585 0.420869
0.0958625 0.277176 0.423439
0.0994 0.277117 0.424785
0.102874 0.276646 0.426967
0.106253 0.276572 0.428499
0.109883 0.275449 0.432323
0.113231 0.275694 0.43262
0.116306 0.275487 0.434163
0.119506 0.274934 0.436622
0.123187 0.274805 0.437156
0.126915 0.275324 0.436795
0.13046 0.274502 0.438249
0.133824 0.27571 0.434882
0.137303 0.274705 0.437395
0.141072 0.275124 0.436494
0.144495 0.275126 0.43572
0.148245 0.275972 0.432525
0.152342 0.27617 0.430635
0.155864 0.276607 0.42842
0.159889 0.277033 0.425165
0.164017 0.277703 0.421116
0.16768 0.278476 0.416151
0.172477 0.280517 0.405301
-0.238683 0.294785 0.346091
-0.234709 0.294051 0.349066
-0.23041 0.293983 0.351334
-0.226554 0.293709 0.353118
-0.222548 0.292957 0.354939
-0.218576 0.292675 0.356838
-0.214795 0.292828 0.357443
-0.210845 0.29238 0.358636
-0.207124 0.292416 0.359344
-0.203214 0.291965 0.360677
-0.199274 0.292004 0.361926
-0.195674 0.291589 0.362505
-0.192292 0.291447 0.362185
-0.188242 0.291191 0.363518
-0.184606 0.291696 0.363517
-0.180739 0.291208 0.364553
-0.177134 0.291036 0.365698
-0.173356 0.291539 0.365124
-0.169625 0.291307 0.366045
-0.165877 0.290787 0.366898
-0.162166 0.29069 0.367831
-0.158098 0.29052 0.367591
-0.154716 0.290939 0.367897
-0.150604 0.290466 0.369597
-0.146959 0.290501 0.370591
-0.143413 0.29084 0.369303
-0.139572 0.290628 0.370854
-0.135563 0.289719 0.371505
-0.132216 0.290049 0.371946
-0.12853 0.289909 0.372749
-0.12494 0.290557 0.371985
-0.120956 0.289453 0.373779
-0.117046 0.289752 0.373339
-0.114031 0.289633 0.374286
-0.109937 0.289167 0.375296
-0.106062 0.289697 0.375194
-0.102346 0.289517 0.375162
-0.0989316 0.289403 0.376276
-0.0950471 0.288993 0.376757
-0.091485 0.289203 0.377077
-0.0876415 0.288754 0.377758
-0.0839228 0.289161 0.377248
-0.0804969 0.288715 0.378824
-0.0768007 0.288617 0.379149
-0.0733852 0.288572 0.379407
-0.0692284 0.289024 0.379547
-0.0656492 0.288306 0.381292
-0.0621022 0.288325 0.380772
-0.0583144 0.288367 0.381117
-0.0548219 0.288225 0.381515
-0.0511597 0.288234 0.382656
-0.0475956 0.288443 0.381495
-0.0437282 0.288182 0.382711
-0.0401108 0.288068 0.384061
-0.036754 0.287779 0.38333
-0.0326093 0.28787 0.383954
-0.0291261 0.287912 0.384719
-0.0251523 0.287889 0.384164
-0.0221034 0.287717 0.384337
-0.0180447 0.287829 0.385219
-0.0145568 0.287814 0.384512
-0.0108348 0.287926 0.384175
-0.00747096 0.287687 0.384977
-0.00374668 0.287798 0.385088
-8.0879e-05 0.288021 0.384614
0.00351716 0.28789 0.38493
0.00754549 0.287337 0.385425
0.0107797 0.287813 0.38452
0.014449 0.287476 0.385199
0.0184051 0.288079 0.383676
0.021659 0.288324 0.38339
0.0255298 0.288032 0.383688
0.0288832 0.287399 0.385216
0.0328007 0.287699 0.384205
0.0368307 0.287824 0.384353
0.040156 0.287616 0.385283
0.0439784 0.288001 0.383996
0.0475229 0.287563 0.385009
0.0511462 0.28797 0.38413
0.0546031 0.287963 0.384649
0.0584982 0.287775 0.384408
0.0618964 0.287793 0.384364
0.0653625 0.287756 0.384749
0.0690183 0.287457 0.386229
0.0725947 0.287264 0.38681
0.0764506 0.287145 0.388126
0.0798566 0.287123 0.389128
0.0834631 0.286779 0.390988
0.0868709 0.285354 0.396893
0.0904974 0.2859 0.395879
0.093868 0.285169 0.399742
0.0974628 0.285586 0.398914
0.100572 0.284377 0.403925
0.104036 0.283522 0.408072
0.107552 0.283437 0.408995
0.110959 0.282365 0.413455
0.114309 0.282581 0.413292
0.118223 0.283544 0.410076
0.121569 0.282537 0.414371
0.125287 0.282121 0.415857
0.128511 0.28153 0.418132
0.132583 0.283001 0.412455
0.136003 0.283321 0.411199
0.140276 0.284471 0.405985
0.143062 0.282299 0.413652
0.147533 0.283871 0.406121
0.151493 0.285345 0.398891
-0.247716 0.300373 0.335767
-0.242237 0.297999 0.346683
-0.238535 0.297993 0.349426
-0.233992 0.29732 0.352729
-0.230107 0.296941 0.35376
-0.226614 0.296519 0.355241
-0.222225 0.296299 0.356303
-0.218417 0.296285 0.357402
-0.214873 0.296484 0.35861
-0.210894 0.295916 0.359599
-0.207076 0.295785 0.359602
-0.203378 0.295497 0.361349
-0.19972 0.295354 0.361181
-0.195784 0.295746 0.361589
-0.19201 0.295461 0.362505
-0.188174 0.295707 0.361757
-0.184454 0.295231 0.363853
