ply
format ascii 1.0
element vertex 1678
property float x
property float y
property float z
end_header
0.0644456 -0.41816 0.41505
0.0678057 -0.419075 0.411875
0.0718079 -0.419527 0.409413
0.075089 -0.420168 0.406353
0.0791852 -0.421516 0.402834
0.0829876 -0.422996 0.398009
0.0869861 -0.42464 0.390938
0.0909002 -0.425917 0.384286
0.0954789 -0.428637 0.375217
0.0990528 -0.430282 0.369424
0.103352 -0.432511 0.361787
0.107834 -0.434816 0.353447
0.112112 -0.436846 0.345123
0.116256 -0.439167 0.335898
0.120412 -0.441013 0.328173
0.124879 -0.442673 0.322698
0.128923 -0.442936 0.320416
0.132355 -0.443831 0.318302
0.136635 -0.443671 0.318383
0.140471 -0.443929 0.316901
0.144308 -0.443574 0.317561
0.148086 -0.443994 0.317263
0.151613 -0.444492 0.317049
0.155413 -0.443819 0.31845
0.159269 -0.444198 0.317142
0.162976 -0.443888 0.31786
0.166959 -0.443819 0.317467
0.170612 -0.443425 0.318313
0.174452 -0.443613 0.318963
0.178352 -0.44382 0.318112
0.18194 -0.443698 0.318963
0.185825 -0.44362 0.318301
0.189363 -0.443831 0.317811
0.193456 -0.443648 0.317382
0.197281 -0.444126 0.317259
0.201266 -0.444099 0.315894
0.205119 -0.444329 0.314348
0.209565 -0.445615 0.31223
0.212995 -0.445468 0.311282
0.217517 -0.446469 0.308653
0.221088 -0.446115 0.307164
0.225967 -0.448175 0.301565
0.229777 -0.448496 0.299077
-0.215601 -0.455145 0.262314
-0.209898 -0.450711 0.277921
-0.204721 -0.448098 0.287344
-0.200382 -0.446611 0.29256
-0.196148 -0.445711 0.296152
-0.191868 -0.444723 0.300551
-0.187683 -0.4439 0.303591
-0.183144 -0.44293 0.307203
-0.179016 -0.442571 0.309203
-0.175157 -0.442064 0.310635
-0.171568 -0.441907 0.3111
-0.167818 -0.441831 0.311498
-0.163661 -0.441591 0.312293
-0.160142 -0.441863 0.312007
-0.156075 -0.441597 0.311922
-0.15232 -0.441333 0.311826
-0.148315 -0.441255 0.312631
-0.14438 -0.441068 0.313165
-0.14074 -0.441101 0.313643
-0.137047 -0.441069 0.314277
-0.133166 -0.440859 0.314478
-0.129596 -0.4411 0.314415
-0.125468 -0.441163 0.313817
-0.121615 -0.441251 0.314493
-0.117879 -0.440998 0.313923
-0.114199 -0.441112 0.313183
-0.110237 -0.441118 0.314587
-0.10611 -0.44129 0.313795
-0.102829 -0.441364 0.312844
-0.0990363 -0.441505 0.313017
-0.0950008 -0.441372 0.313034
-0.0916619 -0.441531 0.312211
-0.0871069 -0.441635 0.313751
-0.0836572 -0.441023 0.313128
-0.0798093 -0.440821 0.315102
-0.076051 -0.440393 0.316629
-0.0721757 -0.439415 0.320149
-0.0683512 -0.437985 0.325032
-0.0635358 -0.434011 0.339842
-0.0595312 -0.43007 0.356425
-0.0548642 -0.427148 0.367066
-0.0510581 -0.425266 0.375856
-0.0472853 -0.423722 0.379216
-0.0437774 -0.422543 0.383927
-0.0400617 -0.421338 0.389453
-0.0364367 -0.420199 0.392527
-0.0325591 -0.419447 0.396456
-0.0293264 -0.418727 0.399764
-0.0251777 -0.417688 0.403464
-0.0214704 -0.417362 0.40633
-0.017814 -0.416465 0.40846
-0.0141411 -0.415624 0.410355
-0.0109701 -0.415487 0.411877
-0.00715325 -0.414908 0.413762
-0.00334232 -0.41498 0.414172
-0.000183988 -0.41456 0.415396
0.00347538 -0.414286 0.41703
0.00692003 -0.414128 0.417755
0.010796 -0.413499 0.418682
0.0139781 -0.413422 0.420251
0.0178902 -0.413225 0.420806
0.0215073 -0.413466 0.420048
0.0248769 -0.413005 0.420506
0.028802 -0.413121 0.421374
0.0320544 -0.412951 0.420282
0.0355503 -0.413234 0.420683
0.0390571 -0.413317 0.419705
0.042815 -0.413271 0.419706
0.0464101 -0.413872 0.419353
0.0501911 -0.414023 0.418041
0.0535386 -0.413796 0.417631
0.0569891 -0.414353 0.416508
0.0609337 -0.414816 0.414276
0.064542 -0.414859 0.413071
0.0685827 -0.415898 0.410882
0.0716752 -0.416442 0.408313
0.0754621 -0.417416 0.404658
0.0792363 -0.418311 0.399895
0.0830403 -0.419796 0.395705
0.0873775 -0.421564 0.388015
0.0912193 -0.423512 0.38131
0.0954352 -0.425404 0.374325
0.0997142 -0.427724 0.36505
0.103675 -0.429403 0.358884
0.107509 -0.431036 0.353117
0.112256 -0.433208 0.343669
0.116369 -0.435438 0.335126
0.120819 -0.438134 0.32673
0.124538 -0.438838 0.323046
0.128692 -0.439212 0.320757
0.133169 -0.439904 0.318874
0.136687 -0.439659 0.319361
0.140351 -0.440499 0.317094
0.144036 -0.439999 0.318075
0.147877 -0.439857 0.318148
0.151745 -0.439887 0.318618
0.155415 -0.440023 0.317674
0.159159 -0.439994 0.318579
0.163023 -0.439614 0.318523
0.166728 -0.440052 0.319051
0.170695 -0.440016 0.318451
0.173881 -0.439802 0.318988
0.178342 -0.43954 0.319643
0.181947 -0.439611 0.319137
0.185859 -0.439817 0.319286
0.189709 -0.439209 0.319738
0.19329 -0.440023 0.319267
0.197368 -0.439984 0.318378
0.200903 -0.440002 0.317875
0.204971 -0.440239 0.317414
0.208959 -0.440793 0.316157
0.212931 -0.440972 0.31452
0.21696 -0.441046 0.313873
0.221068 -0.442331 0.310481
0.224852 -0.442191 0.309578
0.229065 -0.443192 0.305889
0.233403 -0.443881 0.302374
0.238612 -0.445907 0.295544
0.243944 -0.4487 0.284695
-0.216636 -0.45247 0.255317
-0.210605 -0.447879 0.272877
-0.205463 -0.445547 0.282729
-0.20091 -0.444047 0.288895
-0.195516 -0.442153 0.294596
-0.191926 -0.441581 0.29727
-0.187458 -0.440383 0.302376
-0.183609 -0.439356 0.304988
-0.179713 -0.439274 0.306992
-0.175433 -0.438644 0.308531
-0.171561 -0.438456 0.309317
-0.16765 -0.438341 0.310281
-0.163628 -0.438094 0.310584
-0.16005 -0.438073 0.310946
-0.156095 -0.437748 0.310419
-0.152371 -0.437969 0.310579
-0.148385 -0.438214 0.310996
-0.144655 -0.437777 0.311513
-0.141085 -0.438053 0.311508
-0.136766 -0.437797 0.3125
-0.133214 -0.437823 0.311428
-0.129352 -0.437771 0.312248
-0.125712 -0.438098 0.312022
-0.121782 -0.437829 0.312222
-0.117936 -0.43764 0.312621
-0.114499 -0.4376 0.312243
-0.110725 -0.437708 0.312412
-0.106647 -0.437759 0.311775
-0.102685 -0.437793 0.3106
-0.0988281 -0.43802 0.310984
-0.0953023 -0.438436 0.310109
-0.0915003 -0.43838 0.310269
-0.0879224 -0.438029 0.310353
-0.0835843 -0.43826 0.310222
-0.0798771 -0.437926 0.311764
-0.0761979 -0.437535 0.313293
-0.0725196 -0.437001 0.315376
-0.068103 -0.435291 0.320888
-0.0638418 -0.432955 0.331103
-0.059697 -0.428238 0.348384
-0.055385 -0.424545 0.362622
-0.0513884 -0.422749 0.37012
-0.0479112 -0.421346 0.375747
-0.0437215 -0.419719 0.381491
-0.03995 -0.418547 0.385991
-0.0362329 -0.417681 0.390462
-0.0324986 -0.41636 0.394398
-0.0289732 -0.415355 0.398185
-0.0249133 -0.414623 0.401587
-0.0216771 -0.414018 0.403046
-0.0177552 -0.413273 0.405906
-0.0143764 -0.412649 0.408369
-0.0103543 -0.412313 0.41044
-0.0074087 -0.412118 0.411737
-0.00380528 -0.411487 0.412839
0.000121105 -0.411235 0.415134
0.00348339 -0.411276 0.415873
0.00736358 -0.410384 0.416027
0.0106565 -0.410269 0.417707
0.0143392 -0.410083 0.418972
0.018035 -0.40987 0.418741
0.0214319 -0.410229 0.419051
0.0251002 -0.410182 0.418868
0.0285277 -0.40979 0.419159
0.0317979 -0.41009 0.419514
0.035814 -0.410357 0.418292
0.0393782 -0.410496 0.417832
0.0427611 -0.410095 0.418368
0.0465495 -0.410716 0.417474
0.0499025 -0.410882 0.416822
0.0534835 -0.410754 0.41639
0.0574416 -0.411245 0.413051
0.0607613 -0.41185 0.41316
0.0645513 -0.412221 0.410909
0.0684574 -0.41315 0.408369
0.0718408 -0.413915 0.405057
0.075707 -0.414687 0.400888
0.0794787 -0.415368 0.397981
0.0832402 -0.416648 0.39301
0.0871656 -0.418478 0.38588
0.0914681 -0.420763 0.378669
0.0955474 -0.422657 0.371206
0.0994083 -0.424121 0.364843
0.104012 -0.4265 0.355948
0.108162 -0.427738 0.34985
0.112385 -0.429904 0.342233
0.116541 -0.432257 0.333865
0.121089 -0.433686 0.326328
0.124633 -0.434736 0.323668
0.129078 -0.435325 0.320907
0.132737 -0.435685 0.320411
0.136634 -0.436379 0.318321
0.140462 -0.436365 0.318509
0.144586 -0.436583 0.317278
0.148199 -0.436768 0.317084
0.151792 -0.436251 0.318509
0.155577 -0.436137 0.317711
0.159359 -0.436195 0.318502
0.162551 -0.435684 0.319596
0.166713 -0.436326 0.318288
0.170379 -0.435798 0.319337
0.174654 -0.435714 0.319326
0.178297 -0.435889 0.320161
0.181583 -0.435699 0.321092
0.185487 -0.435592 0.321003
0.189519 -0.436041 0.319436
0.193366 -0.435548 0.319476
0.197298 -0.435911 0.319048
0.2011 -0.436134 0.318596
0.204829 -0.436082 0.317347
0.208841 -0.436717 0.317368
0.212421 -0.436835 0.31635
0.216816 -0.437456 0.314632
0.220257 -0.437203 0.314096
0.224802 -0.437606 0.3119
0.228831 -0.438087 0.309782
0.232854 -0.439464 0.306541
0.237268 -0.440589 0.302121
0.241976 -0.441647 0.297199
0.247648 -0.444685 0.286513
-0.217382 -0.450386 0.248524
-0.211178 -0.445697 0.267086
-0.205968 -0.442477 0.278909
-0.201128 -0.440869 0.284743
-0.196446 -0.439123 0.290243
-0.192307 -0.438473 0.2948
-0.188216 -0.437134 0.29972
-0.183794 -0.436273 0.301837
-0.179754 -0.435901 0.304854
-0.176147 -0.435485 0.30601
-0.171618 -0.435295 0.307206
-0.168159 -0.435221 0.307828
-0.164058 -0.434848 0.308429
-0.160168 -0.434676 0.309208
-0.157044 -0.434678 0.308053
-0.152673 -0.434411 0.308846
-0.148799 -0.434664 0.309206
-0.144824 -0.43452 0.309821
-0.140718 -0.434725 0.309824
-0.137091 -0.43438 0.309365
-0.133103 -0.434108 0.310491
-0.129374 -0.434396 0.31055
-0.125742 -0.434385 0.31049
-0.121705 -0.43444 0.310995
-0.117829 -0.434703 0.309104
-0.114264 -0.43453 0.310121
-0.110665 -0.43454 0.308856
-0.10645 -0.434789 0.307832
-0.102937 -0.434738 0.308676
-0.0989358 -0.435045 0.309001
-0.0955075 -0.43508 0.308094
-0.0914329 -0.434508 0.309296
-0.0875567 -0.434839 0.307357
-0.0840201 -0.435127 0.307442
-0.080048 -0.434683 0.309285
-0.0759262 -0.434416 0.310793
-0.0727275 -0.434356 0.311709
-0.0681389 -0.432603 0.316865
-0.0647399 -0.431399 0.322203
-0.059804 -0.427034 0.339225
-0.0557077 -0.422632 0.355821
-0.051381 -0.419843 0.367009
-0.0477085 -0.418255 0.372464
-0.0440463 -0.417175 0.378519
-0.0400147 -0.415587 0.383842
-0.0363052 -0.414369 0.387788
-0.0323764 -0.413219 0.392283
-0.0289468 -0.412384 0.395258
-0.0251899 -0.411406 0.399664
-0.021626 -0.410854 0.401878
-0.0182532 -0.410545 0.403384
-0.0146145 -0.410094 0.40524
-0.0107625 -0.409433 0.407711
-0.00740835 -0.408736 0.41027
-0.0035783 -0.408456 0.411213
5.65969e-05 -0.408373 0.412142
0.00323621 -0.408267 0.41346
0.00722412 -0.407411 0.414891
0.0106786 -0.407169 0.416059
0.0140873 -0.407149 0.416364
0.0179563 -0.407471 0.415921
0.0213938 -0.407291 0.416627
0.0249356 -0.406992 0.417796
0.0284249 -0.407281 0.416192
0.0323638 -0.407047 0.416911
0.0358022 -0.407212 0.416802
0.0393607 -0.406926 0.415954
0.0429179 -0.407162 0.416348
0.0464218 -0.407543 0.415928
0.0501248 -0.407103 0.414712
0.0535225 -0.407971 0.413348
0.0572342 -0.408289 0.412921
0.0608593 -0.408673 0.410898
0.0645599 -0.408962 0.40862
0.0682108 -0.409912 0.405937
0.0722306 -0.410496 0.402576
0.0756052 -0.411474 0.400278
0.0796292 -0.412997 0.394808
0.083211 -0.413943 0.389742
0.0873458 -0.415925 0.383261
0.091347 -0.417762 0.37586
0.0956601 -0.419693 0.368345
0.0997268 -0.421493 0.361359
0.103869 -0.423566 0.354694
0.107779 -0.424893 0.348111
0.112635 -0.426259 0.340165
0.11661 -0.428485 0.332011
0.120584 -0.430173 0.326278
0.124875 -0.431756 0.322227
0.129271 -0.432006 0.319335
0.132854 -0.43251 0.317922
0.136438 -0.4322 0.318469
0.140147 -0.432349 0.31802
0.144083 -0.432577 0.31742
0.14799 -0.43217 0.317939
0.151414 -0.432515 0.317957
0.155504 -0.432421 0.318605
0.159065 -0.432053 0.318501
0.163156 -0.432447 0.318837
0.166961 -0.431855 0.319131
0.170369 -0.431847 0.320091
0.174305 -0.431927 0.319812
0.178177 -0.431809 0.320206
0.181742 -0.43181 0.320181
0.185522 -0.43167 0.320963
0.189477 -0.432063 0.320469
0.193012 -0.432115 0.319606
0.197119 -0.432192 0.318845
0.200656 -0.432297 0.319172
0.204673 -0.432833 0.317446
0.209014 -0.432773 0.316954
0.212709 -0.432904 0.316882
0.216266 -0.433327 0.31452
0.220177 -0.433312 0.314704
0.224342 -0.433985 0.312594
0.228961 -0.43416 0.310375
0.233091 -0.435277 0.306749
0.237251 -0.436054 0.303361
0.241749 -0.437161 0.299044
0.246067 -0.43878 0.293745
0.251844 -0.440588 0.284936
0.259694 -0.448457 0.255686
-0.218281 -0.448716 0.239215
-0.212338 -0.443959 0.257848
-0.206257 -0.439626 0.273608
-0.201743 -0.43781 0.281354
-0.197038 -0.43662 0.286764
-0.192716 -0.43518 0.290791
-0.18851 -0.434664 0.294947
-0.184304 -0.433571 0.299491
-0.180082 -0.432585 0.301969
-0.175905 -0.43238 0.304201
-0.172278 -0.431881 0.303847
-0.168338 -0.431958 0.305587
-0.164142 -0.431602 0.306523
-0.16055 -0.431156 0.306444
-0.156808 -0.431227 0.307403
-0.152464 -0.431427 0.306916
-0.148855 -0.431534 0.306688
-0.144809 -0.43116 0.307136
-0.141457 -0.431504 0.307018
-0.13727 -0.431287 0.308025
-0.133739 -0.431324 0.307362
-0.130041 -0.431456 0.307218
-0.126198 -0.431089 0.308992
-0.121927 -0.431688 0.307507
-0.118309 -0.431333 0.307268
-0.114644 -0.431212 0.306885
-0.110604 -0.431404 0.30727
-0.106998 -0.431274 0.305729
-0.10278 -0.431729 0.306657
-0.0996539 -0.431995 0.305517
-0.095808 -0.431844 0.306269
-0.0920266 -0.43206 0.305027
-0.0879623 -0.431984 0.304952
-0.0840826 -0.43181 0.305046
-0.0807308 -0.431715 0.306029
-0.0765454 -0.431218 0.305669
-0.0725905 -0.431452 0.308381
-0.0685087 -0.430319 0.31165
-0.0643582 -0.428557 0.31794
-0.0601 -0.42628 0.327055
-0.0560316 -0.421502 0.344653
-0.0515039 -0.41763 0.359717
-0.0474873 -0.415433 0.369514
-0.0437695 -0.414189 0.37572
-0.0400907 -0.412811 0.380298
-0.0362565 -0.411688 0.385017
-0.0325318 -0.410579 0.388565
-0.0289627 -0.409414 0.393226
-0.0252262 -0.408909 0.396944
-0.021763 -0.408132 0.397753
-0.0176817 -0.407331 0.401859
-0.0144674 -0.406349 0.404192
-0.0108066 -0.406309 0.405641
-0.00663867 -0.405934 0.407197
-0.0033395 -0.405702 0.40876
0.000113461 -0.405232 0.411059
0.00362758 -0.404634 0.412608
0.00706121 -0.404192 0.413707
0.0107369 -0.404409 0.413319
0.0143951 -0.404048 0.415369
0.0179086 -0.403826 0.414959
0.0216738 -0.404218 0.414484
0.0252246 -0.403702 0.415105
0.0286287 -0.403721 0.416075
0.0323626 -0.403801 0.416062
0.0356236 -0.403879 0.41522
0.039448 -0.403893 0.414307
0.0431024 -0.404253 0.414044
0.0465636 -0.404267 0.412644
0.0504019 -0.404541 0.412094
0.0535779 -0.404834 0.411197
0.0574127 -0.405228 0.409979
0.0611181 -0.405618 0.408616
0.0646693 -0.405811 0.406171
0.068414 -0.406873 0.403323
0.0727613 -0.407835 0.398619
0.0759877 -0.4089 0.396667
0.0800056 -0.409342 0.392802
0.0836769 -0.411147 0.385422
0.0881042 -0.413468 0.378585
0.0922362 -0.415274 0.370759
0.09585 -0.416707 0.36549
0.100118 -0.418666 0.358833
0.104193 -0.420089 0.352898
0.108227 -0.421343 0.345759
0.112136 -0.423498 0.338133
0.116667 -0.425524 0.330109
0.120602 -0.42653 0.3252
0.125255 -0.428005 0.320351
0.128711 -0.428477 0.319367
0.133012 -0.42881 0.318237
0.136508 -0.4282 0.318637
0.140347 -0.428882 0.317412
0.143815 -0.428595 0.318652
0.147859 -0.428375 0.318286
0.151994 -0.428391 0.318082
0.155228 -0.429041 0.317694
0.159298 -0.428398 0.318945
0.162747 -0.428558 0.318143
0.166782 -0.428477 0.319182
0.170488 -0.428047 0.32023
0.174523 -0.428135 0.31981
0.177745 -0.428164 0.320095
0.181933 -0.427778 0.320808
0.18566 -0.427887 0.320632
0.189499 -0.427985 0.320181
0.193319 -0.428117 0.319775
0.197351 -0.428481 0.319046
0.200618 -0.428288 0.318774
0.204879 -0.428596 0.317897
0.208755 -0.428827 0.317062
0.212246 -0.42932 0.316126
0.216237 -0.429172 0.315651
0.220921 -0.429462 0.31443
0.224516 -0.429931 0.313029
0.228483 -0.430356 0.31076
0.232855 -0.431287 0.308019
0.237097 -0.43189 0.304693
0.241692 -0.433406 0.30045
0.245824 -0.434225 0.295722
0.250748 -0.436145 0.288447
0.256287 -0.438902 0.278345
0.265009 -0.447241 0.245596
-0.213233 -0.442415 0.249284
-0.207236 -0.43797 0.267546
-0.202017 -0.434762 0.277086
-0.197834 -0.433769 0.282086
-0.192932 -0.432453 0.288535
-0.188674 -0.431305 0.292503
-0.184483 -0.430435 0.296243
-0.179954 -0.42959 0.299374
-0.176429 -0.429164 0.300737
-0.172548 -0.428632 0.301727
-0.168578 -0.428933 0.302832
-0.164554 -0.428316 0.304476
-0.160682 -0.428418 0.303759
-0.157185 -0.428009 0.30473
-0.153234 -0.428228 0.304521
-0.149172 -0.428015 0.305289
-0.145398 -0.428158 0.304979
-0.141326 -0.427958 0.304899
-0.137474 -0.428223 0.305424
-0.133956 -0.428115 0.305939
-0.129628 -0.427823 0.3063
-0.126054 -0.428044 0.305656
-0.122125 -0.428292 0.304654
-0.118786 -0.427884 0.305531
-0.114954 -0.428529 0.302964
-0.111138 -0.428211 0.304306
-0.10746 -0.428522 0.303209
-0.103439 -0.428726 0.303497
-0.0997724 -0.428495 0.302873
-0.0953592 -0.42851 0.30217
-0.0919735 -0.428763 0.302529
-0.0880093 -0.428879 0.30157
-0.0841176 -0.428698 0.302445
-0.0803278 -0.428737 0.302716
-0.0766237 -0.428455 0.303286
-0.0723682 -0.428244 0.30495
-0.0688603 -0.427621 0.306655
-0.0646971 -0.427002 0.310524
-0.0606026 -0.424999 0.317564
-0.0564762 -0.421425 0.33251
-0.0521175 -0.416511 0.34958
-0.0479028 -0.413355 0.363086
-0.0443044 -0.411548 0.36941
-0.0399603 -0.41 0.375695
-0.0366666 -0.408847 0.380397
-0.0324922 -0.407751 0.385255
-0.0290871 -0.406817 0.389542
-0.0256173 -0.406058 0.392454
-0.0217073 -0.404966 0.396477
-0.0179584 -0.404247 0.399355
-0.0145951 -0.403891 0.400687
-0.0107855 -0.403217 0.402844
-0.00704044 -0.402742 0.405307
-0.00381837 -0.402293 0.407377
9.3363e-05 -0.402234 0.40816
0.00350528 -0.402112 0.408509
0.00700192 -0.401506 0.410943
0.0105767 -0.401236 0.412361
0.0140883 -0.400833 0.412349
0.0177334 -0.401205 0.412682
0.0214979 -0.400703 0.41381
0.0247628 -0.400746 0.413351
0.0285715 -0.400434 0.41428
0.0322321 -0.400888 0.413713
0.0356815 -0.400773 0.413114
0.0395884 -0.401145 0.412034
0.0429461 -0.400911 0.412281
0.046884 -0.401505 0.411309
0.0503323 -0.40184 0.409397
0.0539174 -0.401996 0.409524
0.0571306 -0.402385 0.407297
0.061046 -0.40301 0.405192
0.0646973 -0.403361 0.403679
0.0687096 -0.403943 0.40085
0.0719931 -0.404973 0.396966
0.0763864 -0.405893 0.392649
0.0798092 -0.407142 0.388458
0.083896 -0.408906 0.382122
0.0880597 -0.410157 0.375066
0.0920226 -0.412295 0.36792
0.0960791 -0.413709 0.36219
0.100129 -0.415313 0.355388
0.103866 -0.416493 0.351199
0.108235 -0.4186 0.34297
0.112625 -0.420564 0.335713
0.116456 -0.422222 0.329166
0.120931 -0.423809 0.323495
0.125117 -0.424468 0.319972
0.128615 -0.424268 0.319617
0.132771 -0.425371 0.317338
0.136627 -0.425151 0.316836
0.140629 -0.424678 0.317237
0.144324 -0.424758 0.316742
0.148113 -0.42489 0.317347
0.15162 -0.424905 0.317402
0.155348 -0.424521 0.318187
0.159767 -0.424718 0.318253
0.16306 -0.424568 0.318355
0.166886 -0.424695 0.318845
0.170384 -0.424591 0.318639
0.174494 -0.424341 0.31973
0.178054 -0.424353 0.31982
0.182212 -0.424271 0.320212
0.185799 -0.424551 0.320026
0.189617 -0.424169 0.320007
0.193521 -0.424612 0.319125
0.197213 -0.424781 0.318691
0.20065 -0.42463 0.319019
0.204927 -0.425138 0.316619
0.208676 -0.425397 0.316172
0.212515 -0.425456 0.315883
0.216832 -0.425511 0.314909
0.220356 -0.426064 0.313964
0.224587 -0.42635 0.312431
0.228646 -0.426581 0.31006
0.232544 -0.427392 0.308272
0.237265 -0.428195 0.304301
0.241648 -0.429274 0.300706
0.245654 -0.430625 0.296303
0.250917 -0.432345 0.289266
0.256097 -0.434591 0.279935
0.261952 -0.437869 0.266081
0.268717 -0.442951 0.245794
-0.208452 -0.436387 0.255973
-0.202845 -0.43279 0.270272
-0.198157 -0.431105 0.278334
-0.193801 -0.429636 0.28318
-0.18956 -0.428522 0.28737
-0.184996 -0.427403 0.29192
-0.180674 -0.426634 0.295853
-0.176564 -0.426109 0.297546
-0.17274 -0.425673 0.29934
-0.168679 -0.4255 0.300721
-0.164785 -0.425097 0.301942
-0.160668 -0.42531 0.301373
-0.157203 -0.425026 0.302344
-0.153159 -0.42487 0.302419
-0.14967 -0.42496 0.301991
-0.145446 -0.425013 0.302323
-0.141391 -0.424732 0.302744
-0.13815 -0.424871 0.302777
-0.133742 -0.42508 0.302534
-0.129901 -0.424608 0.303424
-0.126057 -0.424928 0.302675
-0.122835 -0.425022 0.302625
-0.11893 -0.425138 0.301684
-0.114984 -0.425079 0.302001
-0.110998 -0.425464 0.301665
-0.107064 -0.425293 0.300709
-0.103391 -0.425942 0.298975
-0.0999043 -0.425573 0.299979
-0.095782 -0.425562 0.299809
-0.091784 -0.425731 0.298858
-0.0881378 -0.425719 0.299594
-0.0844402 -0.425917 0.298746
-0.0803019 -0.425869 0.298163
-0.0769303 -0.425795 0.298523
-0.0727453 -0.425637 0.30036
-0.069156 -0.425438 0.301201
-0.0653267 -0.42475 0.303049
-0.0608591 -0.423323 0.309023
-0.0571263 -0.421168 0.31754
-0.0522 -0.415881 0.337798
-0.0481917 -0.412066 0.354448
-0.044462 -0.409853 0.362986
-0.0399344 -0.407257 0.37176
-0.0361834 -0.406522 0.376706
-0.032518 -0.405294 0.38189
-0.0293615 -0.404332 0.385161
-0.0257504 -0.402847 0.390123
-0.0218355 -0.402509 0.391955
-0.0179887 -0.401695 0.395228
-0.0144754 -0.400913 0.397833
-0.0110033 -0.399977 0.400701
-0.00728285 -0.399816 0.40263
-0.00354912 -0.399423 0.404834
0.000122324 -0.398992 0.406628
0.00384074 -0.398956 0.407078
0.00720086 -0.398668 0.409049
0.0111157 -0.397821 0.409354
0.0138615 -0.398301 0.409404
0.0176426 -0.397746 0.41101
0.0218189 -0.398176 0.41078
0.0252529 -0.397804 0.411366
0.0286395 -0.397682 0.411423
0.0325242 -0.39762 0.410946
0.035857 -0.397867 0.411342
0.0394592 -0.398258 0.40975
0.042984 -0.398318 0.408503
0.0467713 -0.398535 0.408443
0.0503037 -0.39873 0.407887
0.0540345 -0.399128 0.405451
0.057473 -0.399357 0.404866
0.0611275 -0.39976 0.402655
0.0651328 -0.400381 0.400213
0.0685947 -0.401229 0.39748
0.0725264 -0.402224 0.39348
0.076278 -0.403192 0.389621
0.0800435 -0.404441 0.384213
0.0845338 -0.406277 0.376264
0.0880344 -0.407434 0.37119
0.0920575 -0.409333 0.364462
0.0965366 -0.411016 0.357858
0.100173 -0.412315 0.353274
0.104492 -0.413912 0.346905
0.108768 -0.415678 0.339648
0.11317 -0.417399 0.332005
0.117081 -0.418925 0.325364
0.121263 -0.419878 0.322085
0.125055 -0.420559 0.319332
0.129084 -0.421291 0.316861
0.132752 -0.421553 0.316294
0.136611 -0.421593 0.315933
0.140652 -0.421763 0.316184
0.14446 -0.421658 0.315964
0.14794 -0.421485 0.31558
0.151915 -0.421627 0.317031
0.15565 -0.421542 0.317299
0.159423 -0.421153 0.317296
0.163158 -0.421201 0.317312
0.166864 -0.42075 0.318413
0.170812 -0.421047 0.31878
0.174525 -0.420721 0.318708
0.178564 -0.421004 0.318222
0.181608 -0.420053 0.320588
0.185419 -0.420741 0.319166
0.189683 -0.42062 0.319252
0.193168 -0.420896 0.318188
0.197347 -0.420813 0.31823
0.201328 -0.421641 0.315955
0.205005 -0.421834 0.316201
0.209035 -0.421768 0.316071
0.212708 -0.421246 0.316164
0.21686 -0.421927 0.314215
0.220555 -0.422051 0.313817
0.224437 -0.42248 0.311682
0.228762 -0.423314 0.309433
0.232817 -0.423287 0.307995
0.237186 -0.424482 0.304287
0.241714 -0.425355 0.301206
0.245738 -0.42667 0.296393
0.250696 -0.428041 0.289842
0.25594 -0.429966 0.281574
0.26159 -0.433311 0.269039
0.267971 -0.437752 0.251815
0.274701 -0.441875 0.234588
0.282392 -0.447897 0.211494
-0.21044 -0.435894 0.241676
-0.203786 -0.43084 0.261776
-0.198978 -0.428287 0.271974
-0.194296 -0.426832 0.278747
-0.189955 -0.426019 0.283275
-0.185739 -0.424897 0.286981
-0.181257 -0.423984 0.291273
-0.176891 -0.423123 0.294032
-0.172865 -0.422745 0.296679
-0.169251 -0.422498 0.297719
-0.164887 -0.422019 0.298598
-0.16076 -0.421567 0.300312
-0.157205 -0.421978 0.29971
-0.153004 -0.421296 0.300761
-0.149356 -0.421783 0.300584
-0.145964 -0.421984 0.299768
-0.14209 -0.421493 0.300313
-0.137583 -0.421742 0.300845
-0.134142 -0.421941 0.29969
-0.130493 -0.421651 0.29943
-0.126655 -0.421665 0.299788
-0.122737 -0.421659 0.299517
-0.118629 -0.422012 0.298859
-0.115243 -0.421834 0.298943
-0.111164 -0.422557 0.297215
-0.107362 -0.42233 0.297395
-0.103665 -0.422593 0.297356
-0.0998925 -0.42247 0.296723
-0.0962305 -0.422844 0.295586
-0.0921797 -0.42295 0.29567
-0.0880631 -0.422989 0.295308
-0.0842226 -0.423143 0.29511
-0.0808858 -0.423049 0.29459
-0.0763863 -0.42325 0.295618
-0.0731923 -0.422633 0.296205
-0.0688604 -0.422389 0.298408
-0.0652226 -0.421946 0.300105
-0.0612787 -0.42098 0.302277
-0.0574453 -0.419796 0.308953
-0.0532339 -0.416933 0.319637
-0.0490286 -0.412095 0.339129
-0.0445918 -0.408276 0.354183
-0.0404998 -0.406024 0.363778
-0.0368378 -0.404339 0.370581
-0.0329042 -0.402675 0.37683
-0.0294947 -0.40127 0.381675
-0.0255854 -0.400483 0.38552
-0.0220011 -0.399723 0.389289
-0.0181061 -0.399216 0.391389
-0.0145107 -0.398091 0.394373
-0.0110954 -0.397895 0.396747
-0.00715236 -0.397276 0.398848
-0.00359118 -0.396685 0.401265
0.000147898 -0.396335 0.403268
0.00377131 -0.395666 0.404397
0.00709956 -0.395644 0.404836
0.0106725 -0.395064 0.407102
0.0145428 -0.394981 0.406583
0.0178238 -0.395016 0.408206
0.0213254 -0.394444 0.409244
0.0251755 -0.394293 0.409077
0.0288322 -0.394863 0.408885
0.032512 -0.394996 0.40901
0.036092 -0.394934 0.408059
0.0390707 -0.394591 0.408662
0.0431066 -0.395456 0.4071
0.046596 -0.395344 0.406098
0.0503684 -0.395938 0.404595
0.0542307 -0.395971 0.403166
0.057998 -0.396788 0.401547
0.0614835 -0.397161 0.39946
0.0652753 -0.397807 0.396644
0.0686103 -0.398662 0.393314
0.0722939 -0.399672 0.390115
0.076373 -0.400492 0.385095
0.0806806 -0.402219 0.378441
0.0842899 -0.403799 0.373322
0.0885528 -0.405521 0.366251
0.0925209 -0.406735 0.361369
0.0963956 -0.408341 0.355527
0.100606 -0.409333 0.349196
0.104206 -0.410654 0.344077
0.108809 -0.412835 0.336597
0.112933 -0.414347 0.330073
0.117265 -0.415921 0.324547
0.120958 -0.416746 0.320513
0.125537 -0.417295 0.316882
0.129292 -0.417823 0.315804
0.133098 -0.417792 0.314872
0.136789 -0.418255 0.31497
0.140968 -0.418056 0.314958
0.144408 -0.418113 0.315351
0.14804 -0.418193 0.314709
0.151985 -0.417711 0.315393
0.155715 -0.417745 0.316071
0.159524 -0.417602 0.315999
0.163221 -0.417411 0.316732
0.166864 -0.417456 0.317556
0.170686 -0.417587 0.317682
0.175059 -0.417046 0.317966
0.178492 -0.41735 0.318792
0.181814 -0.41715 0.318615
0.18584 -0.416676 0.318299
0.189623 -0.417177 0.318775
0.193606 -0.417066 0.317716
0.197245 -0.417403 0.316568
0.201256 -0.417542 0.316963
0.205291 -0.417962 0.315638
0.2093 -0.418459 0.313746
0.212973 -0.418508 0.314149
0.216458 -0.418381 0.31279
0.221091 -0.418668 0.311619
0.224957 -0.41924 0.310325
0.228641 -0.419635 0.30867
0.23328 -0.420294 0.306144
0.236919 -0.420686 0.304612
0.241281 -0.42207 0.300522
0.246259 -0.423094 0.29497
0.250524 -0.424217 0.289785
0.255722 -0.426118 0.2816
0.261107 -0.428793 0.271229
0.26754 -0.433071 0.25447
0.273756 -0.436941 0.239479
0.280594 -0.440891 0.222805
0.287296 -0.444824 0.207198
0.295301 -0.451052 0.18241
-0.205782 -0.430981 0.247232
-0.199675 -0.426394 0.264875
-0.194761 -0.424673 0.273022
-0.189364 -0.423066 0.280452
-0.18561 -0.422026 0.283681
-0.181425 -0.420987 0.287012
-0.177438 -0.420321 0.289868
-0.172982 -0.419477 0.293681
-0.16909 -0.419061 0.294266
-0.165297 -0.418664 0.296389
-0.161312 -0.418895 0.296234
-0.15757 -0.418937 0.296556
-0.153305 -0.418749 0.297067
-0.149944 -0.418504 0.297157
-0.146096 -0.418694 0.296666
-0.142171 -0.418637 0.297243
-0.138591 -0.418896 0.29622
-0.134128 -0.418706 0.297015
-0.130594 -0.418638 0.296885
-0.126504 -0.418913 0.296579
-0.123197 -0.418696 0.295872
-0.119172 -0.418946 0.29646
-0.115529 -0.41881 0.295188
-0.11143 -0.419269 0.294927
-0.107901 -0.41925 0.294027
-0.103736 -0.419708 0.293402
-0.100277 -0.419561 0.293705
-0.0957405 -0.419774 0.293342
-0.0925984 -0.419522 0.29201
-0.0884626 -0.420092 0.291831
-0.0845181 -0.420101 0.291428
-0.0809528 -0.419991 0.291302
-0.0771715 -0.419978 0.290889
-0.0729885 -0.420005 0.292014
-0.0693145 -0.419759 0.291805
-0.0655528 -0.419321 0.293496
-0.061529 -0.418416 0.297015
-0.0574418 -0.417972 0.301227
-0.0536768 -0.416336 0.306785
-0.0487254 -0.411716 0.325558
-0.044842 -0.407628 0.342167
-0.0407365 -0.404275 0.354785
-0.0369036 -0.402284 0.364149
-0.0329337 -0.400476 0.370522
-0.0292354 -0.399525 0.374712
-0.0256452 -0.398227 0.380676
-0.0220534 -0.39706 0.384503
-0.0176491 -0.396109 0.387641
-0.014601 -0.395767 0.390701
-0.0110235 -0.395145 0.393752
-0.00718278 -0.394335 0.395549
-0.0037498 -0.393803 0.397982
-0.000468785 -0.393493 0.39884
0.00351997 -0.39307 0.400626
0.00721063 -0.392699 0.402979
0.0111134 -0.392568 0.402706
0.0141718 -0.392249 0.404744
0.0182882 -0.392288 0.405024
0.0213566 -0.392183 0.405411
0.0250769 -0.391881 0.405519
0.0287676 -0.392136 0.405645
0.0320564 -0.392009 0.406174
0.0359191 -0.392359 0.405026
0.0395257 -0.391912 0.404754
0.0430128 -0.392375 0.404006
0.0467612 -0.392555 0.403197
0.0505993 -0.393001 0.400609
0.0539128 -0.39361 0.399669
0.0576005 -0.394074 0.398417
0.0614763 -0.394481 0.395086
0.0655455 -0.395074 0.391593
0.0695074 -0.396453 0.387873
0.0729575 -0.397358 0.383542
0.0769698 -0.398607 0.379247
0.0808732 -0.399851 0.373449
0.084677 -0.401189 0.368202
0.0889404 -0.402653 0.361828
0.0924276 -0.403779 0.357235
0.0965279 -0.405142 0.351319
0.100851 -0.406657 0.345716
0.104905 -0.408307 0.339538
0.108851 -0.409864 0.333482
0.11352 -0.41153 0.326898
0.116881 -0.412716 0.322266
0.121626 -0.413571 0.31857
0.125074 -0.41381 0.316968
0.129291 -0.414221 0.315073
0.133214 -0.414311 0.31392
0.136905 -0.414452 0.314368
0.14096 -0.414384 0.313384
0.144419 -0.414557 0.314563
0.147949 -0.414339 0.314373
0.152073 -0.414032 0.314704
0.15576 -0.414641 0.314199
0.15965 -0.414483 0.31427
0.162903 -0.414255 0.316458
0.166974 -0.413844 0.31619
0.170495 -0.414038 0.316052
0.174631 -0.414117 0.316116
0.178475 -0.413501 0.317741
0.182184 -0.413797 0.317549
0.185868 -0.413781 0.317791
0.18954 -0.413626 0.317092
0.193837 -0.413742 0.316811
0.19768 -0.414242 0.315109
0.201285 -0.414008 0.316172
0.205228 -0.414514 0.314064
0.209137 -0.414622 0.313738
0.21263 -0.414976 0.312432
0.217028 -0.414796 0.312002
0.220922 -0.415492 0.310428
0.224682 -0.415728 0.308939
0.22903 -0.416254 0.306846
0.233254 -0.41701 0.304827
0.237338 -0.417413 0.302866
0.241831 -0.418306 0.298197
0.246245 -0.419403 0.294627
0.250518 -0.420475 0.289439
0.25592 -0.422547 0.281268
0.261673 -0.425468 0.268649
0.267432 -0.429001 0.255754
0.273051 -0.432081 0.242386
0.279583 -0.435815 0.227556
0.286303 -0.439618 0.212034
0.291742 -0.442386 0.201327
0.298783 -0.446419 0.18302
-0.200969 -0.425897 0.253227
-0.195962 -0.422741 0.265321
-0.191059 -0.420859 0.272048
-0.18637 -0.419672 0.277197
-0.182089 -0.418693 0.281536
-0.177911 -0.417858 0.285177
-0.173514 -0.41668 0.288358
-0.169567 -0.416269 0.290315
-0.165902 -0.415956 0.291969
-0.161714 -0.416022 0.293115
-0.157705 -0.415797 0.29327
-0.15395 -0.415362 0.294649
-0.15022 -0.415915 0.293555
-0.146209 -0.415505 0.293461
-0.14236 -0.41529 0.294873
-0.13837 -0.415773 0.294256
-0.134685 -0.415541 0.293983
-0.130774 -0.415627 0.293757
-0.127017 -0.415596 0.293481
-0.123086 -0.415806 0.293776
-0.119399 -0.415845 0.292846
-0.115475 -0.416085 0.29248
-0.11186 -0.41622 0.291706
-0.107505 -0.416655 0.290649
-0.104419 -0.416485 0.289894
-0.100148 -0.416385 0.289283
-0.0965044 -0.416975 0.289212
-0.0926899 -0.416611 0.288293
-0.0890293 -0.416693 0.287987
-0.0849089 -0.416975 0.28739
-0.0813401 -0.41721 0.287439
-0.0772118 -0.417036 0.286482
-0.0736234 -0.417123 0.287757
-0.0695331 -0.416865 0.286977
-0.0657867 -0.416572 0.288778
-0.0617374 -0.416382 0.290135
-0.0576422 -0.415605 0.293521
-0.0543315 -0.414819 0.297482
-0.049478 -0.412038 0.309377
-0.0457127 -0.408679 0.322025
-0.0411782 -0.404131 0.340844
-0.0372685 -0.401077 0.353776
-0.0335426 -0.399227 0.361237
-0.0294657 -0.397266 0.36915
-0.0258818 -0.39603 0.374385
-0.0215953 -0.394993 0.378802
-0.0184752 -0.394084 0.381348
-0.0147325 -0.39305 0.384608
-0.0110149 -0.392647 0.388199
-0.00727142 -0.391628 0.39113
-0.00383208 -0.391432 0.394794
0.000302218 -0.3906 0.396465
0.0035891 -0.389746 0.39794
0.00714224 -0.389947 0.399747
0.0107369 -0.389867 0.40084
0.0146177 -0.389401 0.400982
0.0183792 -0.389013 0.401659
0.0216854 -0.389417 0.401813
0.0253597 -0.388954 0.402618
0.0289242 -0.38913 0.403275
0.0323847 -0.38918 0.401798
0.0360261 -0.389204 0.402315
0.0395865 -0.389024 0.401422
0.0433524 -0.3898 0.39989
0.0466371 -0.389908 0.398403
0.0506158 -0.39034 0.397641
0.0543331 -0.390772 0.396018
0.0579295 -0.391404 0.393784
0.0615239 -0.391954 0.390795
0.0653789 -0.392625 0.38717
0.0690782 -0.393578 0.383599
0.073259 -0.394827 0.379127
0.0770294 -0.395966 0.37388
0.0811135 -0.397033 0.368028
0.0846227 -0.399093 0.364117
0.0889564 -0.400133 0.356972
0.0929742 -0.401028 0.35256
0.097201 -0.402717 0.347631
0.100674 -0.403509 0.342268
0.105143 -0.405415 0.336343
0.109167 -0.406622 0.330478
0.113191 -0.408083 0.324184
0.117443 -0.409139 0.318886
0.121211 -0.409831 0.316691
0.125437 -0.410808 0.314389
0.129608 -0.410769 0.313154
0.132914 -0.411204 0.311926
0.13694 -0.410997 0.312306
0.140849 -0.411261 0.312832
0.14463 -0.410997 0.313224
0.148393 -0.410611 0.312916
0.152323 -0.41142 0.313157
0.156186 -0.41149 0.313024
0.159925 -0.41064 0.314194
0.163282 -0.410322 0.31424
0.167258 -0.41099 0.314224
0.171202 -0.410308 0.314541
0.175056 -0.409924 0.31524
0.178705 -0.410304 0.315085
0.182076 -0.410166 0.316312
0.186022 -0.410391 0.315151
0.189881 -0.410194 0.315882
0.193915 -0.41012 0.315528
0.197805 -0.410565 0.314436
0.201595 -0.410749 0.31347
0.205657 -0.410979 0.312463
0.209484 -0.411357 0.311428
0.21336 -0.411341 0.310973
0.217355 -0.411784 0.309346
0.221191 -0.41236 0.308366
0.22515 -0.4125 0.306829
0.229646 -0.413128 0.304733
0.233182 -0.413276 0.30377
0.237173 -0.413569 0.301487
0.24206 -0.414863 0.297672
0.246113 -0.415341 0.293689
0.251002 -0.416618 0.288401
0.255997 -0.418992 0.280272
0.261813 -0.422075 0.268731
0.267987 -0.425306 0.253736
0.273453 -0.428187 0.241915
0.280013 -0.431442 0.227618
0.28573 -0.434855 0.215206
0.292066 -0.437928 0.202223
0.297727 -0.440557 0.191023
0.304903 -0.444742 0.173622
0.312642 -0.450097 0.151165
-0.203908 -0.427575 0.228691
-0.196986 -0.421692 0.252324
-0.191743 -0.418667 0.264997
-0.187165 -0.417186 0.270649
-0.182413 -0.415945 0.275784
-0.178142 -0.414783 0.28037
-0.17404 -0.414103 0.283464
-0.170304 -0.41375 0.285727
-0.165766 -0.413138 0.28788
-0.16183 -0.412881 0.28893
-0.158194 -0.412766 0.289013
-0.154047 -0.412315 0.291641
-0.150484 -0.412567 0.289571
-0.146484 -0.412528 0.290032
-0.142362 -0.41267 0.291284
-0.138735 -0.412708 0.290933
-0.135034 -0.412571 0.291075
-0.131058 -0.412503 0.290806
-0.127588 -0.412616 0.28931
-0.123397 -0.412714 0.289603
-0.119672 -0.412969 0.288691
-0.115779 -0.413246 0.288379
-0.11216 -0.413492 0.287598
-0.108284 -0.413347 0.286615
-0.104135 -0.413393 0.286618
-0.100677 -0.413492 0.285608
-0.0967492 -0.413712 0.286137
-0.0925385 -0.413644 0.285564
-0.0888589 -0.414067 0.284088
-0.0849834 -0.414014 0.28394
-0.0812162 -0.414525 0.282937
-0.0778787 -0.414654 0.282988
-0.0735639 -0.414349 0.28311
-0.0697245 -0.414214 0.283508
-0.06547 -0.41414 0.284348
-0.0617426 -0.413939 0.284719
-0.0578932 -0.413275 0.287655
-0.0539345 -0.412486 0.290256
-0.0498208 -0.411122 0.296157
-0.0458229 -0.408541 0.306622
-0.0414435 -0.404601 0.321756
-0.0374831 -0.400974 0.338568
-0.0335368 -0.397913 0.352202
-0.0294482 -0.395941 0.360713
-0.0255833 -0.394211 0.367079
-0.0219312 -0.393118 0.371912
-0.0180915 -0.391852 0.37644
-0.0147017 -0.391014 0.379736
-0.0112623 -0.390135 0.383168
-0.00776674 -0.389337 0.386165
-0.00402355 -0.388894 0.388848
-3.91253e-05 -0.388244 0.391142
0.00389312 -0.387494 0.393137
0.00720729 -0.387412 0.395288
0.0108489 -0.386927 0.396723
0.0144663 -0.386687 0.397569
0.0182675 -0.38619 0.399293
0.0218117 -0.386561 0.39822
0.0251071 -0.386111 0.399726
0.0288044 -0.386036 0.399205
0.032869 -0.386417 0.397973
0.0361589 -0.386556 0.398549
0.040262 -0.386582 0.396643
0.0432193 -0.38696 0.396124
0.047553 -0.387691 0.393488
0.0503864 -0.387706 0.394118
0.0545719 -0.388268 0.391326
0.0583621 -0.389047 0.388188
0.0620331 -0.389623 0.385929
0.0656004 -0.39048 0.381874
0.0694194 -0.391399 0.377096
0.0733363 -0.39248 0.373315
0.077328 -0.393838 0.367733
0.0814605 -0.395485 0.362327
0.0856962 -0.396335 0.358211
0.0890769 -0.397441 0.353548
0.0929053 -0.398775 0.348035
0.0970145 -0.399497 0.344165
0.101082 -0.400847 0.338371
0.105453 -0.402487 0.33184
0.108999 -0.403668 0.327801
0.113314 -0.404634 0.32147
0.117637 -0.405862 0.318183
0.121633 -0.407102 0.314239
0.125593 -0.407103 0.312857
0.129896 -0.407629 0.310643
0.133235 -0.407535 0.310636
0.137189 -0.407798 0.311013
0.141235 -0.407382 0.311039
0.144603 -0.40768 0.311645
0.148613 -0.4073 0.311002
0.15228 -0.407195 0.311505
0.156082 -0.407316 0.311735
0.159952 -0.407451 0.312193
0.163394 -0.407917 0.311878
0.167337 -0.406885 0.312688
0.170952 -0.406787 0.313464
0.175054 -0.406639 0.313749
0.178572 -0.407313 0.313808
0.182301 -0.406535 0.314428
0.186512 -0.406955 0.31325
0.190078 -0.406866 0.314331
0.194272 -0.407002 0.312489
0.197537 -0.40749 0.312261
0.201731 -0.407331 0.311852
0.205796 -0.407658 0.310387
0.209563 -0.407969 0.30977
0.213875 -0.407868 0.309208
0.21753 -0.408496 0.308171
0.221281 -0.40884 0.30616
0.225547 -0.409134 0.304531
0.22974 -0.409189 0.303437
0.233535 -0.409658 0.302253
0.238216 -0.410533 0.298686
0.242006 -0.411412 0.295592
0.246271 -0.412205 0.29217
0.250514 -0.412819 0.287961
0.256532 -0.415377 0.278219
0.26201 -0.418183 0.266748
0.267397 -0.420863 0.255086
0.27349 -0.42407 0.242265
0.279871 -0.427598 0.228058
0.285705 -0.430437 0.215302
0.291699 -0.433642 0.20348
0.29684 -0.43579 0.194158
0.30407 -0.43949 0.178606
0.310992 -0.44337 0.162053
0.317468 -0.447532 0.146835
0.324002 -0.450037 0.134353
-0.198938 -0.422603 0.233487
-0.193314 -0.418159 0.250986
-0.18808 -0.415302 0.262877
-0.183377 -0.413695 0.26861
-0.178927 -0.412758 0.274141
-0.17466 -0.411938 0.277596
-0.170686 -0.410651 0.280481
-0.166917 -0.410349 0.282517
-0.162455 -0.409897 0.284698
-0.158434 -0.409973 0.285741
-0.155018 -0.409692 0.284644
-0.150773 -0.409418 0.286485
-0.146908 -0.409532 0.286618
-0.142916 -0.409628 0.287048
-0.138874 -0.409693 0.285912
-0.135393 -0.409801 0.286232
-0.131524 -0.409567 0.285993
-0.127524 -0.409512 0.286036
-0.123954 -0.410075 0.28547
-0.119923 -0.409967 0.285694
-0.116026 -0.410145 0.283882
-0.112226 -0.410215 0.284065
-0.10812 -0.41072 0.283256
-0.104696 -0.410352 0.283086
-0.100668 -0.411128 0.281271
-0.0967304 -0.410823 0.281188
-0.0928601 -0.411177 0.280237
-0.0890244 -0.411081 0.279993
-0.0851583 -0.410982 0.280019
-0.0812669 -0.411516 0.279702
-0.0776832 -0.411337 0.279302
-0.0733787 -0.411886 0.278815
-0.0698033 -0.41112 0.280148
-0.0658853 -0.411143 0.280145
-0.0619611 -0.410888 0.280226
-0.0583242 -0.410722 0.282436
-0.0540842 -0.409792 0.283924
-0.0504258 -0.409215 0.288065
-0.0460563 -0.407618 0.293815
-0.0422396 -0.405185 0.304714
-0.0373926 -0.400583 0.324082
-0.0336207 -0.397532 0.337129
-0.0295843 -0.394873 0.348214
-0.0258104 -0.392915 0.356773
-0.0224382 -0.39174 0.362063
-0.0186304 -0.390129 0.368276
-0.0145976 -0.38878 0.374182
-0.0108124 -0.387871 0.37729
-0.00722286 -0.387075 0.38095
-0.00367194 -0.386495 0.384599
8.46303e-05 -0.385586 0.386522
0.00350516 -0.385365 0.387969
0.00741254 -0.384569 0.39018
0.0109299 -0.384241 0.392225
0.0145868 -0.383986 0.393488
0.0182149 -0.384031 0.393565
0.0215478 -0.383781 0.394475
0.0253059 -0.383772 0.394788
0.0290041 -0.383628 0.394954
0.0324192 -0.383848 0.394863
0.0363848 -0.383959 0.393694
0.0398378 -0.384181 0.394142
0.0436157 -0.384474 0.392197
0.0469632 -0.384855 0.39031
0.0508938 -0.385171 0.388757
0.0545619 -0.38561 0.385726
0.0581198 -0.386549 0.383249
0.0620259 -0.387668 0.379347
0.0659686 -0.388207 0.376109
0.0698455 -0.389243 0.371917
0.0733338 -0.390207 0.368664
0.0777165 -0.391958 0.362499
0.0813982 -0.392553 0.35749
0.0852975 -0.393402 0.352766
0.0894709 -0.394795 0.348698
0.0936941 -0.395927 0.343496
0.0974352 -0.396824 0.34
0.101829 -0.39826 0.334234
0.105534 -0.39914 0.329602
0.109486 -0.40039 0.324325
0.113868 -0.40206 0.319318
0.117972 -0.402822 0.314715
0.121971 -0.403701 0.311875
0.125619 -0.403751 0.31063
0.129537 -0.404136 0.308696
0.133617 -0.40404 0.308671
0.137166 -0.403987 0.309746
0.141368 -0.404417 0.308764
0.145034 -0.404205 0.309133
0.148924 -0.404301 0.308499
0.152675 -0.404501 0.308463
0.156473 -0.404017 0.309139
0.160288 -0.403686 0.310279
0.1641 -0.404299 0.310085
0.167601 -0.403857 0.310822
0.171536 -0.40326 0.311898
0.175213 -0.403524 0.311896
0.178551 -0.403627 0.312326
0.182961 -0.403466 0.312437
0.186577 -0.403153 0.31205
0.190346 -0.403896 0.312341
0.194002 -0.403625 0.311076
0.198425 -0.403838 0.310684
0.201969 -0.404568 0.30926
0.205898 -0.404074 0.309171
0.209864 -0.404524 0.307775
0.214169 -0.404991 0.306075
0.217897 -0.404941 0.305659
0.221856 -0.405294 0.304718
0.225655 -0.405638 0.303104
0.230115 -0.406161 0.301586
0.23426 -0.40655 0.300156
0.237749 -0.406808 0.298283
0.242287 -0.407841 0.293998
0.246657 -0.408304 0.290865
0.251567 -0.410215 0.283957
0.256677 -0.411778 0.276727
0.261175 -0.413906 0.268925
0.268702 -0.417805 0.251414
0.273913 -0.420354 0.24064
0.279709 -0.423589 0.228657
0.285838 -0.426584 0.214579
0.291744 -0.429402 0.203943
0.297654 -0.432161 0.192005
0.303077 -0.434884 0.181323
0.310083 -0.438497 0.16686
0.316969 -0.441236 0.152681
0.322526 -0.443882 0.14196
0.329617 -0.447516 0.128613
0.335251 -0.450469 0.116146
-0.196262 -0.420819 0.223418
-0.190036 -0.415134 0.246806
-0.18465 -0.41227 0.259407
-0.179733 -0.410595 0.267118
-0.175816 -0.409658 0.270194
-0.171392 -0.408748 0.274311
-0.167378 -0.408247 0.276792
-0.163042 -0.40764 0.27781
-0.158959 -0.407448 0.28008
-0.155198 -0.407323 0.281098
-0.151479 -0.407028 0.282086
-0.147295 -0.406829 0.281352
-0.143448 -0.406903 0.282195
-0.139341 -0.406792 0.282343
-0.135643 -0.406804 0.28244
-0.131876 -0.40673 0.28249
-0.127959 -0.406853 0.2815
-0.124014 -0.40733 0.280957
-0.120145 -0.406865 0.280359
-0.116165 -0.407244 0.2801
-0.112399 -0.407315 0.279721
-0.108719 -0.407246 0.278757
-0.104501 -0.40759 0.278662
-0.100813 -0.407668 0.278243
-0.0968465 -0.408181 0.277524
-0.0937005 -0.408277 0.276257
-0.0894304 -0.408321 0.276661
-0.0857371 -0.408316 0.275566
-0.0816634 -0.408393 0.276012
-0.0777338 -0.408494 0.274879
-0.0738559 -0.408262 0.275181
-0.0699123 -0.407866 0.275479
-0.0663046 -0.40849 0.275017
-0.062499 -0.408399 0.275447
-0.0585415 -0.408048 0.277022
-0.0543532 -0.407348 0.279078
-0.0502326 -0.406931 0.282872
-0.0463631 -0.40549 0.287396
-0.0424571 -0.403818 0.294671
-0.0379699 -0.400669 0.307738
-0.0339945 -0.397696 0.320752
-0.0303917 -0.394804 0.333829
-0.0262881 -0.392064 0.345096
-0.0222935 -0.390063 0.354657
-0.0185166 -0.388558 0.360165
-0.0148137 -0.387055 0.365606
-0.0108779 -0.386252 0.369017
-0.00752273 -0.385412 0.373242
-0.00386134 -0.384781 0.376132
-7.26128e-05 -0.383708 0.379999
0.00380837 -0.383106 0.382187
0.00701355 -0.382561 0.384481
0.0109438 -0.382167 0.387493
0.0145563 -0.381708 0.387364
0.0182113 -0.381349 0.389732
0.0218159 -0.381 0.390696
0.0255492 -0.381192 0.389344
0.028928 -0.381053 0.389916
0.032793 -0.381425 0.389636
0.0364634 -0.381225 0.38929
0.0402372 -0.381693 0.388728
0.0433875 -0.381862 0.386426
0.0471618 -0.382138 0.385059
0.0509669 -0.382726 0.383592
0.0549431 -0.383655 0.379119
0.0583533 -0.384455 0.376927
0.0618978 -0.384864 0.374908
0.0660921 -0.386042 0.369897
0.0698265 -0.387199 0.365493
0.0740877 -0.387876 0.360922
0.0772151 -0.388883 0.358027
0.0818596 -0.390117 0.35252
0.0854689 -0.391244 0.349095
0.0895004 -0.392352 0.344537
0.0936482 -0.392806 0.340408
0.0973241 -0.39412 0.335965
0.101661 -0.394954 0.331622
0.105911 -0.396326 0.326038
0.109771 -0.39749 0.321621
0.113853 -0.398864 0.316272
0.117652 -0.399547 0.31299
0.121729 -0.400303 0.31004
0.125757 -0.400596 0.30849
0.12979 -0.401131 0.307406
0.133507 -0.400558 0.307423
0.137617 -0.400791 0.306749
0.141213 -0.400567 0.307367
0.145041 -0.400952 0.307344
0.149031 -0.400485 0.307649
0.152488 -0.400529 0.307689
0.156243 -0.40072 0.307568
0.159817 -0.40053 0.309041
0.164043 -0.400804 0.307397
0.167899 -0.40046 0.307957
0.171701 -0.400458 0.309119
0.174901 -0.400615 0.309325
0.179116 -0.399754 0.310138
0.182673 -0.400128 0.310668
0.186955 -0.400154 0.309426
0.190561 -0.400304 0.309338
0.194383 -0.400415 0.309158
0.197835 -0.400525 0.308961
0.201768 -0.400553 0.30836
0.206418 -0.401235 0.306446
0.20996 -0.401116 0.305746
0.214008 -0.401853 0.304359
0.218355 -0.401882 0.302687
0.221986 -0.401845 0.301861
0.226093 -0.402213 0.301081
0.230317 -0.402804 0.299421
0.233814 -0.402941 0.297862
0.238635 -0.403903 0.295139
0.242562 -0.404417 0.292538
0.246618 -0.404995 0.289347
0.251668 -0.406457 0.282865
0.256358 -0.408038 0.27628
0.262185 -0.410822 0.264704
0.267709 -0.414023 0.252949
0.27398 -0.417096 0.23996
0.280097 -0.41987 0.226657
0.285647 -0.422671 0.215066
0.292013 -0.425453 0.20249
0.298225 -0.428398 0.190644
0.303785 -0.431059 0.180014
0.310476 -0.433743 0.166865
0.31577 -0.436495 0.156475
0.322356 -0.439203 0.144136
0.328332 -0.44203 0.133967
0.334376 -0.444287 0.124008
0.341058 -0.447024 0.111474
0.34746 -0.450078 0.0992783
-0.185703 -0.411573 0.244555
-0.180954 -0.40906 0.255013
-0.176221 -0.407505 0.26208
-0.172004 -0.406545 0.266075
-0.168094 -0.405754 0.269647
-0.163436 -0.405311 0.272014
-0.159413 -0.404775 0.273923
-0.155194 -0.404584 0.275396
-0.151407 -0.404267 0.275957
-0.147651 -0.404462 0.2767
-0.143708 -0.40415 0.277846
-0.139768 -0.403819 0.277462
-0.136037 -0.404093 0.277808
-0.131935 -0.404037 0.276657
-0.12801 -0.404488 0.276103
-0.124453 -0.404247 0.276071
-0.120413 -0.404672 0.275634
-0.116433 -0.404211 0.277108
-0.112949 -0.404355 0.275381
-0.108787 -0.404842 0.274502
-0.105094 -0.404958 0.27394
-0.101331 -0.404707 0.273667
-0.0973667 -0.405029 0.272792
-0.0933619 -0.405066 0.272987
-0.0892094 -0.404841 0.273499
-0.0859289 -0.405048 0.272366
-0.0819571 -0.405426 0.271359
-0.0784333 -0.40554 0.270802
-0.074072 -0.40584 0.270347
-0.0701784 -0.405261 0.270913
-0.0665436 -0.405721 0.271538
-0.0621367 -0.405588 0.271315
-0.0581765 -0.404905 0.27317
-0.0540958 -0.404837 0.274273
-0.0503521 -0.40414 0.2763
-0.0466107 -0.403571 0.279833
-0.0426339 -0.402152 0.286563
-0.0385586 -0.399897 0.294725
-0.0347735 -0.397169 0.306198
-0.0302557 -0.394073 0.319085
-0.0262237 -0.391244 0.331295
-0.0224365 -0.389158 0.341873
-0.0186563 -0.387403 0.348365
-0.0150267 -0.386186 0.353733
-0.0114276 -0.385072 0.358617
-0.00747327 -0.383743 0.364416
-0.0036536 -0.382714 0.368454
-0.000316545 -0.38186 0.370935
0.00348462 -0.381076 0.375508
0.00749624 -0.380527 0.378258
0.0107866 -0.37967 0.381456
0.0144075 -0.37935 0.381993
0.0181306 -0.379353 0.383671
0.0220076 -0.37895 0.383902
0.0256025 -0.3786 0.385183
0.0291051 -0.379073 0.383995
0.0330802 -0.37916 0.383329
0.0364713 -0.379 0.383562
0.0402178 -0.379764 0.380629
0.0435188 -0.379552 0.380919
0.047392 -0.380273 0.380166
0.0511803 -0.380783 0.37763
0.0545448 -0.380978 0.374815
0.0587791 -0.382328 0.370291
0.0627487 -0.38315 0.36689
0.0664193 -0.383719 0.363421
0.0705002 -0.384527 0.359227
0.0742398 -0.386036 0.354592
0.0781799 -0.386665 0.351302
0.0820641 -0.38755 0.347532
0.0861078 -0.388331 0.343444
0.0899463 -0.389268 0.340151
0.0936031 -0.390036 0.336191
0.0979224 -0.390947 0.331337
0.10187 -0.392251 0.327644
0.106185 -0.393577 0.32253
0.109815 -0.394409 0.318427
0.114302 -0.395581 0.312851
0.118136 -0.396166 0.309607
0.122395 -0.397204 0.306959
0.126374 -0.397465 0.304946
0.129934 -0.39732 0.304461
0.133606 -0.397971 0.305308
0.137393 -0.39768 0.304268
0.141962 -0.397476 0.30492
0.145155 -0.39733 0.305084
0.148881 -0.397389 0.305867
0.152978 -0.397397 0.305967
0.156582 -0.397532 0.305969
0.160333 -0.397678 0.306555
0.164367 -0.397485 0.306059
0.168097 -0.397302 0.306412
0.171785 -0.396897 0.307103
0.175666 -0.397057 0.307324
0.179528 -0.396575 0.307672
0.18316 -0.396722 0.308093
0.186854 -0.396836 0.307884
0.191298 -0.397038 0.306995
0.194818 -0.397007 0.307057
0.19883 -0.397623 0.306326
0.20286 -0.397424 0.304666
0.206692 -0.397575 0.304599
0.210459 -0.39798 0.302941
0.21442 -0.398068 0.302369
0.218822 -0.398543 0.299979
0.222709 -0.398928 0.298518
0.225983 -0.398574 0.299589
0.230577 -0.399313 0.296823
0.234338 -0.399812 0.295484
0.238536 -0.4005 0.293244
0.242563 -0.400621 0.290483
0.246892 -0.401694 0.287256
0.252183 -0.403112 0.279724
0.257281 -0.405472 0.271864
0.262559 -0.407406 0.262826
0.268603 -0.410526 0.249576
0.274305 -0.413246 0.237628
0.280726 -0.416498 0.224032
0.286052 -0.418961 0.213113
0.292334 -0.42175 0.200673
0.297714 -0.42421 0.191271
0.303744 -0.426426 0.179824
0.310065 -0.430121 0.166803
0.315935 -0.431911 0.15683
0.322066 -0.43476 0.145406
0.32842 -0.437442 0.134727
0.334224 -0.439188 0.126958
0.339764 -0.441628 0.116933
0.345579 -0.443366 0.108671
0.352051 -0.446376 0.0965523
-0.183499 -0.409938 0.234374
-0.177458 -0.406454 0.250397
-0.172701 -0.404997 0.258867
-0.168576 -0.403764 0.2621
-0.164143 -0.40306 0.266243
