ply
format ascii 1.0
element vertex 1674
property float x
property float y
property float z
end_header
-0.240264 -0.144166 0.0618154
-0.234 -0.143343 0.0777165
-0.228136 -0.142616 0.0908276
-0.222921 -0.141333 0.0997568
-0.217777 -0.141124 0.107106
-0.212387 -0.140197 0.115182
-0.207756 -0.139685 0.121756
-0.202765 -0.139447 0.1292
-0.196883 -0.138811 0.137667
-0.192177 -0.137902 0.145869
-0.187599 -0.137932 0.151154
-0.183474 -0.137437 0.15505
-0.17845 -0.136755 0.160113
-0.173595 -0.137147 0.16484
-0.169043 -0.136218 0.169041
-0.164884 -0.136044 0.172118
-0.160433 -0.13537 0.175249
-0.155643 -0.135334 0.178629
-0.151811 -0.135167 0.181205
-0.147251 -0.135113 0.18401
-0.14329 -0.134874 0.185613
-0.138435 -0.134977 0.18915
-0.134821 -0.134713 0.189908
-0.130778 -0.134305 0.192112
-0.126124 -0.134263 0.193744
-0.121807 -0.134096 0.194661
-0.117883 -0.134225 0.196479
-0.113914 -0.134237 0.196538
-0.110047 -0.134099 0.195702
-0.105815 -0.134257 0.196353
-0.101382 -0.134057 0.196634
-0.0977102 -0.134472 0.194893
-0.0936389 -0.134653 0.195154
-0.0899326 -0.134263 0.194412
-0.0857717 -0.134587 0.193455
-0.0814243 -0.134616 0.191212
-0.0775267 -0.134679 0.190919
-0.0736795 -0.134548 0.188491
-0.0695778 -0.135156 0.187427
-0.065319 -0.134856 0.185837
-0.0614101 -0.134937 0.185636
-0.0576555 -0.135296 0.184369
-0.0533234 -0.134886 0.183981
-0.0492392 -0.135307 0.184483
-0.045127 -0.135096 0.18419
-0.0406106 -0.13538 0.185977
-0.036758 -0.135292 0.18625
-0.0325667 -0.134704 0.187333
-0.0284143 -0.134552 0.190085
-0.0244469 -0.134839 0.191956
-0.0206551 -0.134629 0.193132
-0.0163422 -0.134116 0.196255
-0.0125172 -0.13385 0.197823
-0.0077804 -0.134065 0.19929
-0.00394237 -0.133651 0.201684
0.000406057 -0.133314 0.203452
0.0044935 -0.133526 0.206917
0.0080088 -0.133236 0.208367
0.0119183 -0.133071 0.212192
0.0159437 -0.133084 0.214821
0.0201482 -0.132566 0.218982
0.0241082 -0.132328 0.223257
0.0282155 -0.131983 0.226877
0.0318867 -0.13166 0.230767
0.0359813 -0.131221 0.233332
0.0397936 -0.131008 0.237533
0.0434489 -0.13094 0.242209
0.0474972 -0.130739 0.244594
0.0513214 -0.1302 0.249079
0.0548176 -0.129969 0.253519
0.0589488 -0.13002 0.25879
0.0626546 -0.129234 0.26253
0.0665621 -0.129343 0.265682
0.0703804 -0.128888 0.269619
0.0736776 -0.128784 0.272983
0.0778458 -0.128222 0.275714
0.0815142 -0.12823 0.277743
0.0855027 -0.128336 0.27981
0.08947 -0.127774 0.281682
0.0928112 -0.128005 0.282753
0.0966702 -0.127584 0.283226
0.100484 -0.127672 0.286627
0.104259 -0.127547 0.286961
0.10806 -0.127504 0.28943
0.111563 -0.127402 0.291356
0.115492 -0.126689 0.293181
0.11895 -0.127075 0.294673
0.122789 -0.126984 0.297333
0.126548 -0.1266 0.301001
0.130214 -0.126458 0.301512
0.133956 -0.126092 0.30406
0.137361 -0.126498 0.305311
0.141287 -0.125829 0.307447
0.144699 -0.125565 0.30932
0.148641 -0.125804 0.311049
0.152228 -0.125499 0.312496
0.155765 -0.12552 0.313969
0.159681 -0.12538 0.315152
0.163118 -0.125184 0.317358
0.166914 -0.125496 0.319845
0.170174 -0.12519 0.321362
0.174369 -0.124698 0.322199
0.177507 -0.124421 0.324839
0.18138 -0.124422 0.325783
0.184699 -0.124541 0.327519
0.188417 -0.124294 0.329625
0.192228 -0.124288 0.329031
0.195911 -0.124506 0.331196
0.199575 -0.124489 0.33081
0.203117 -0.123896 0.331734
0.206671 -0.124612 0.332399
0.210508 -0.124223 0.332287
0.214436 -0.124398 0.331476
0.218171 -0.124408 0.332261
0.221916 -0.124116 0.332457
0.225572 -0.124057 0.332992
0.229841 -0.123934 0.331987
0.233247 -0.12378 0.331572
0.236986 -0.124502 0.331637
0.240964 -0.124063 0.330888
0.244862 -0.124166 0.331295
0.248656 -0.123989 0.331661
0.252407 -0.124255 0.331108
0.256001 -0.124425 0.330691
0.260023 -0.12444 0.330986
0.263555 -0.12425 0.331309
0.267224 -0.123701 0.331301
0.270972 -0.123981 0.330715
0.274876 -0.124351 0.330113
0.278842 -0.124329 0.329577
0.282274 -0.124348 0.329013
0.286257 -0.124318 0.328231
0.290495 -0.124485 0.32649
0.294344 -0.124609 0.326238
0.298884 -0.124793 0.323544
0.302783 -0.124946 0.322657
0.307205 -0.12493 0.319749
0.310921 -0.12513 0.318169
0.3153 -0.125016 0.315521
0.319398 -0.125538 0.3142
0.323186 -0.125403 0.313851
0.327404 -0.125507 0.312016
0.331616 -0.125551 0.310037
0.335894 -0.12589 0.308438
0.339793 -0.125916 0.307635
0.343926 -0.126329 0.305681
0.348489 -0.12594 0.302673
0.352941 -0.126357 0.299903
0.357194 -0.126366 0.297761
0.361389 -0.126859 0.295119
0.366097 -0.12729 0.290779
0.370807 -0.127573 0.288006
0.375457 -0.127412 0.2844
0.379661 -0.127874 0.280811
0.384585 -0.128229 0.277189
0.389612 -0.128492 0.272419
0.395104 -0.129229 0.265855
0.39971 -0.12936 0.262396
0.40551 -0.12996 0.255256
0.410105 -0.13026 0.250983
0.415387 -0.130533 0.24444
0.422633 -0.131559 0.231634
0.434776 -0.133636 0.199204
-0.306402 -0.155436 -0.155822
-0.290933 -0.150527 -0.0820558
-0.280156 -0.147312 -0.0396831
-0.273106 -0.144981 -0.0140157
-0.265821 -0.144104 0.00341833
-0.258965 -0.14302 0.0211735
-0.251589 -0.141726 0.0378643
-0.246792 -0.140916 0.0466595
-0.241203 -0.140055 0.0578434
-0.234739 -0.139119 0.0726813
-0.22861 -0.137942 0.0871334
-0.223513 -0.137149 0.0959512
-0.217545 -0.136474 0.105285
-0.212824 -0.136291 0.112133
-0.208244 -0.135995 0.118179
-0.202471 -0.134884 0.126879
-0.198106 -0.134451 0.133062
-0.192783 -0.133759 0.141181
-0.187811 -0.133744 0.148601
-0.183103 -0.133194 0.153317
-0.178841 -0.132833 0.157941
-0.173867 -0.13253 0.162566
-0.169613 -0.131966 0.166803
-0.165138 -0.132164 0.169463
-0.16073 -0.131706 0.172926
-0.156295 -0.131672 0.177352
-0.151711 -0.131379 0.17954
-0.147635 -0.131127 0.1819
-0.14349 -0.130957 0.183707
-0.138865 -0.130816 0.186525
-0.135091 -0.13089 0.187642
-0.13044 -0.13056 0.190098
-0.126711 -0.130354 0.191145
-0.122034 -0.130499 0.193423
-0.117941 -0.130275 0.193027
-0.114179 -0.130242 0.194035
-0.110222 -0.130544 0.193982
-0.105816 -0.130286 0.193673
-0.101661 -0.130618 0.194118
-0.0977675 -0.130095 0.193137
-0.0936722 -0.130497 0.193142
-0.0897557 -0.130829 0.19177
-0.0857378 -0.130594 0.190067
-0.0816567 -0.130691 0.189166
-0.0774975 -0.130602 0.18834
-0.0733571 -0.130823 0.187007
-0.0695916 -0.130726 0.185452
-0.0657334 -0.131292 0.185132
-0.0618647 -0.131032 0.183953
-0.057246 -0.131104 0.181756
-0.0538499 -0.131467 0.182211
-0.0495569 -0.131423 0.182324
-0.0451664 -0.130878 0.182868
-0.0408154 -0.131002 0.183599
-0.0368749 -0.131077 0.185179
-0.0327746 -0.131262 0.186444
-0.0286899 -0.130564 0.189576
-0.0241539 -0.130193 0.192155
-0.0203559 -0.13051 0.193502
-0.0161337 -0.130284 0.195837
-0.0125349 -0.129912 0.198402
-0.00806919 -0.130166 0.199706
-0.00390367 -0.129966 0.203712
-6.61512e-05 -0.129607 0.204153
0.00386563 -0.129246 0.207448
0.00834394 -0.128974 0.210419
0.0122663 -0.128902 0.213431
0.015874 -0.128941 0.215503
0.0200805 -0.128396 0.219783
0.0240941 -0.127969 0.223546
0.0279042 -0.128349 0.225825
0.0316479 -0.127754 0.230145
0.0358466 -0.127548 0.234451
0.0395364 -0.127068 0.237525
0.0436205 -0.126671 0.241403
0.0474441 -0.126389 0.245395
0.0513878 -0.126207 0.249432
0.0550586 -0.125984 0.253482
0.0591843 -0.125681 0.259024
0.0627972 -0.124965 0.261914
0.0664601 -0.125122 0.265776
0.0700872 -0.12495 0.270552
0.0739511 -0.124828 0.272778
0.0775041 -0.124266 0.275629
0.0815274 -0.124292 0.278718
0.0849296 -0.123774 0.280195
0.0892351 -0.124013 0.280362
0.0924836 -0.124056 0.282902
0.0967607 -0.124176 0.284597
0.100525 -0.123505 0.285566
0.104347 -0.123823 0.287646
0.108298 -0.123407 0.288963
0.111907 -0.1235 0.290927
0.115478 -0.122999 0.292868
0.11942 -0.122943 0.29406
0.122634 -0.122667 0.297415
0.126721 -0.122753 0.29904
0.130226 -0.12261 0.301246
0.134009 -0.122597 0.303065
0.137484 -0.122514 0.305381
0.141535 -0.122079 0.306621
0.144882 -0.122303 0.308861
0.148605 -0.12201 0.310385
0.15209 -0.121771 0.312193
0.155784 -0.12189 0.313804
0.159519 -0.121635 0.314849
0.163252 -0.121754 0.317289
0.166644 -0.121224 0.319457
0.170729 -0.120792 0.321766
0.17401 -0.121187 0.32185
0.177451 -0.120793 0.324215
0.181371 -0.120808 0.326032
0.184846 -0.120629 0.326757
0.18832 -0.121172 0.328454
0.192165 -0.120373 0.329687
0.195514 -0.120611 0.330427
0.199326 -0.120132 0.331272
0.203577 -0.120151 0.331762
0.206827 -0.120199 0.332546
0.210292 -0.120456 0.332965
0.21456 -0.12028 0.33292
0.218053 -0.120439 0.332975
0.222166 -0.120326 0.332586
0.225983 -0.12035 0.331948
0.229173 -0.120303 0.332701
0.233482 -0.120347 0.332389
0.236575 -0.120559 0.331764
0.240872 -0.120273 0.331386
0.244545 -0.120516 0.330949
0.248419 -0.120332 0.330922
0.252153 -0.120387 0.331703
0.255899 -0.120491 0.331271
0.259518 -0.120549 0.331631
0.263256 -0.120248 0.331912
0.266992 -0.120196 0.331238
0.270874 -0.120648 0.33113
0.274923 -0.120413 0.331458
0.278659 -0.120587 0.330084
0.282812 -0.121048 0.328663
0.286948 -0.120809 0.32846
0.290719 -0.120586 0.326883
0.294488 -0.120824 0.326288
0.298474 -0.120555 0.324935
0.30251 -0.121027 0.32268
0.307086 -0.121364 0.319831
0.311043 -0.121538 0.318217
0.315207 -0.120984 0.316599
0.318993 -0.121477 0.314425
0.323333 -0.121734 0.313702
0.327513 -0.121986 0.310899
0.331583 -0.122009 0.310533
0.335489 -0.121737 0.308502
0.339737 -0.122106 0.307057
0.344266 -0.122286 0.305383
0.348252 -0.122641 0.303057
0.352749 -0.122662 0.299847
0.357042 -0.122876 0.298073
0.361384 -0.123086 0.294929
0.365893 -0.123077 0.292683
0.3702 -0.123405 0.289799
0.374818 -0.123991 0.28576
0.379744 -0.123917 0.282071
0.384534 -0.124086 0.277691
0.389277 -0.124541 0.27366
0.39445 -0.125111 0.268874
0.399499 -0.125625 0.264039
0.40397 -0.125991 0.259433
0.409722 -0.126155 0.252735
0.415057 -0.126332 0.246386
0.421451 -0.127399 0.236574
0.430865 -0.128763 0.2159
-0.306315 -0.150899 -0.157104
-0.293071 -0.146358 -0.0946519
-0.282709 -0.143792 -0.0548863
-0.272577 -0.140592 -0.0134237
-0.265574 -0.139414 0.00396359
-0.258699 -0.138407 0.0207387
-0.252753 -0.137283 0.0349642
-0.246863 -0.137085 0.0452787
-0.240816 -0.13594 0.0574139
-0.234694 -0.134752 0.0707971
-0.228952 -0.133705 0.0831791
-0.223531 -0.13351 0.0938287
-0.21874 -0.133319 0.101224
-0.213009 -0.132277 0.109352
-0.208039 -0.131824 0.117042
-0.203447 -0.131267 0.123095
-0.198203 -0.131118 0.130191
-0.193281 -0.130443 0.137585
-0.188453 -0.129858 0.144268
-0.183757 -0.12922 0.151106
-0.179051 -0.129278 0.156109
-0.174413 -0.128588 0.160394
-0.169567 -0.12824 0.164317
-0.165122 -0.128337 0.168117
-0.160649 -0.127979 0.170793
-0.15642 -0.1278 0.173297
-0.151723 -0.127116 0.178005
-0.14737 -0.126996 0.179973
-0.143433 -0.126991 0.182146
-0.139528 -0.126747 0.183857
-0.135166 -0.126774 0.185736
-0.130486 -0.126525 0.188442
-0.126426 -0.126606 0.189132
-0.122659 -0.126509 0.190031
-0.11847 -0.126311 0.190825
-0.1139 -0.126188 0.191556
-0.11019 -0.126527 0.192233
-0.105867 -0.126605 0.192306
-0.101797 -0.126662 0.19159
-0.0979634 -0.126454 0.191397
-0.0938272 -0.126468 0.190676
-0.089779 -0.126822 0.189238
-0.0859717 -0.126725 0.188551
-0.0818098 -0.126607 0.18799
-0.0780069 -0.126826 0.186347
-0.0736665 -0.126972 0.185222
-0.06956 -0.127223 0.183587
-0.0656905 -0.1273 0.182917
-0.0616937 -0.12723 0.18195
-0.0573178 -0.126978 0.180326
-0.0530786 -0.127085 0.180892
-0.0493613 -0.127306 0.179933
-0.0448913 -0.127214 0.181856
-0.0411391 -0.126843 0.183274
-0.0371435 -0.126908 0.184674
-0.0326218 -0.126854 0.18644
-0.0282715 -0.126544 0.189325
-0.0242192 -0.12629 0.192079
-0.0200187 -0.125972 0.194549
-0.0159792 -0.126229 0.196675
-0.0121477 -0.12567 0.19922
-0.00784483 -0.125862 0.200759
-0.00417846 -0.125554 0.203688
-0.000163794 -0.125572 0.206266
0.00454263 -0.12536 0.208869
0.0080381 -0.125108 0.210734
0.0120421 -0.1247 0.213934
0.016153 -0.124483 0.21737
0.0202409 -0.124234 0.219897
0.0237475 -0.124532 0.223285
0.0279437 -0.12401 0.22725
0.0323082 -0.123968 0.230877
0.0354914 -0.1235 0.234406
0.039647 -0.123392 0.238224
0.0430687 -0.122971 0.241667
0.04783 -0.123094 0.244521
0.0515147 -0.122343 0.25031
0.0547693 -0.121778 0.253819
0.0587029 -0.121515 0.258868
0.0630929 -0.121461 0.263657
0.0664913 -0.12148 0.266558
0.0701495 -0.120822 0.269702
0.0742801 -0.120661 0.272488
0.0776651 -0.120246 0.276508
0.0814659 -0.120375 0.278122
0.0853411 -0.120211 0.280112
0.0892744 -0.120201 0.281448
0.0928976 -0.119862 0.28276
0.0967052 -0.120082 0.284018
0.100387 -0.119945 0.285158
0.104671 -0.119637 0.287637
0.107995 -0.119667 0.288161
0.111958 -0.119529 0.290661
0.115804 -0.119165 0.291929
0.119274 -0.119284 0.294697
0.12271 -0.119506 0.296393
0.126707 -0.118992 0.299062
0.130308 -0.118628 0.300993
0.134257 -0.118404 0.303723
0.137681 -0.118681 0.304334
0.141039 -0.118028 0.306203
0.144886 -0.118392 0.307949
0.148675 -0.118428 0.310024
0.152166 -0.117892 0.311231
0.156025 -0.118005 0.312832
0.15978 -0.117752 0.314923
0.163032 -0.118278 0.315955
0.166619 -0.117455 0.318315
0.17047 -0.117624 0.321153
0.173795 -0.117387 0.32047
0.177358 -0.117442 0.323477
0.181147 -0.117216 0.325177
0.184481 -0.116912 0.327772
0.188698 -0.1172 0.32843
0.191866 -0.116758 0.329627
0.195497 -0.116211 0.330986
0.199704 -0.116739 0.331405
0.202977 -0.116708 0.332301
0.2068 -0.116812 0.33246
0.210601 -0.116509 0.331787
0.214516 -0.116497 0.332829
0.218209 -0.116451 0.333027
0.221913 -0.116625 0.332189
0.225424 -0.116581 0.332597
0.229547 -0.116737 0.33179
0.233595 -0.11653 0.331893
0.237023 -0.116434 0.332066
0.240929 -0.116851 0.332278
0.24452 -0.116742 0.3318
0.24835 -0.116418 0.332385
0.251954 -0.116391 0.332346
0.256066 -0.116601 0.332591
0.25942 -0.116569 0.331808
0.263543 -0.116682 0.331425
0.267352 -0.116977 0.331038
0.27085 -0.116705 0.330768
0.275015 -0.116719 0.331282
0.278774 -0.116868 0.330194
0.282583 -0.116561 0.330421
0.286343 -0.116765 0.329275
0.290341 -0.116895 0.327982
0.294161 -0.116897 0.326228
0.298463 -0.117416 0.324228
0.302811 -0.117326 0.321957
0.30635 -0.117437 0.319736
0.311253 -0.117568 0.317055
0.314937 -0.117598 0.316708
0.319269 -0.117379 0.314516
0.3229 -0.117925 0.31278
0.327085 -0.118084 0.312254
0.331735 -0.118123 0.309344
0.336076 -0.118239 0.307701
0.339777 -0.118406 0.306508
0.343753 -0.118438 0.304246
0.348609 -0.118718 0.301301
0.353096 -0.11893 0.298735
0.357378 -0.118928 0.296639
0.361013 -0.119106 0.296373
0.366153 -0.119386 0.291238
0.370754 -0.119635 0.288454
0.374894 -0.119763 0.285955
0.379555 -0.120103 0.282731
0.384275 -0.120311 0.278489
0.388681 -0.120436 0.275081
0.393614 -0.12103 0.269951
0.399146 -0.121239 0.265229
0.403697 -0.121172 0.261564
0.409449 -0.122064 0.254679
0.415134 -0.122431 0.247372
0.4212 -0.123561 0.237801
0.428651 -0.124502 0.224073
-0.306211 -0.145721 -0.158317
-0.293419 -0.142468 -0.0994093
-0.283557 -0.13945 -0.063674
-0.272385 -0.136571 -0.0147843
-0.266243 -0.135272 0.00108933
-0.258813 -0.133981 0.0192796
-0.253097 -0.133114 0.032167
-0.246757 -0.131886 0.0450824
-0.241336 -0.131658 0.0540979
-0.235289 -0.130985 0.0666708
-0.229345 -0.129858 0.0807678
-0.223992 -0.129245 0.0902742
-0.218702 -0.128362 0.0989544
-0.213319 -0.128242 0.107042
-0.208223 -0.127702 0.114051
-0.20387 -0.127397 0.119555
-0.198473 -0.126718 0.127183
-0.193297 -0.125945 0.135238
-0.188712 -0.125858 0.141892
-0.183603 -0.125376 0.148248
-0.179215 -0.125202 0.153067
-0.174342 -0.124515 0.157115
-0.169714 -0.12432 0.162791
-0.165369 -0.12383 0.164541
-0.161245 -0.12426 0.168583
-0.156342 -0.123439 0.172128
-0.152233 -0.123659 0.174646
-0.148457 -0.123319 0.176018
-0.143937 -0.123485 0.179595
-0.139234 -0.122615 0.181665
-0.135398 -0.123355 0.183338
-0.130882 -0.123003 0.185026
-0.126316 -0.123099 0.186388
-0.122385 -0.122856 0.187886
-0.11833 -0.12264 0.189494
-0.114548 -0.122483 0.188445
-0.110547 -0.122647 0.18899
-0.106368 -0.122567 0.189622
-0.10199 -0.122205 0.189096
-0.0978217 -0.12237 0.188488
-0.0940658 -0.122453 0.187987
-0.0901777 -0.122808 0.1873
-0.0862316 -0.122642 0.186311
-0.0817684 -0.123153 0.184905
-0.0780244 -0.122848 0.183661
-0.0738971 -0.122652 0.182796
-0.0700881 -0.123171 0.182437
-0.0653903 -0.123017 0.179976
-0.0617022 -0.123585 0.179615
-0.0573194 -0.123431 0.178239
-0.0533694 -0.123167 0.179081
-0.0495119 -0.123362 0.178087
-0.0451003 -0.122896 0.18008
-0.0410296 -0.123017 0.18186
-0.0367444 -0.123075 0.183403
-0.0330193 -0.122803 0.185982
-0.0289759 -0.122487 0.188146
-0.0242254 -0.122213 0.191209
-0.0202904 -0.12198 0.193391
-0.0163803 -0.121915 0.196983
-0.0121827 -0.12187 0.199821
-0.00792928 -0.121302 0.201697
-0.00424769 -0.121293 0.203842
0.000145473 -0.120907 0.20805
0.00424518 -0.121066 0.210495
0.00833413 -0.121001 0.213484
0.0122 -0.120779 0.214667
0.0161404 -0.120558 0.217895
0.0199069 -0.120243 0.220597
0.0243939 -0.120274 0.224324
0.0279765 -0.120197 0.227086
0.031976 -0.119623 0.230355
0.0358139 -0.1195 0.233437
0.0398725 -0.119325 0.238058
0.0435861 -0.119089 0.241704
0.0474596 -0.118861 0.245302
0.0512857 -0.118235 0.250403
0.0552655 -0.117827 0.255199
0.0593558 -0.118197 0.259193
0.0624969 -0.117365 0.263292
0.0664833 -0.117518 0.266659
0.0704544 -0.117181 0.269615
0.0737267 -0.117097 0.272291
0.0777052 -0.116278 0.275497
0.0816017 -0.11643 0.276815
0.085434 -0.11678 0.278988
0.089196 -0.11642 0.28153
0.0924667 -0.116449 0.282784
0.0967687 -0.11606 0.284448
0.100853 -0.116076 0.284909
0.104165 -0.115729 0.287431
0.108048 -0.115785 0.288797
0.111736 -0.115678 0.290216
0.115859 -0.115639 0.291443
0.11943 -0.115268 0.294226
0.122681 -0.114971 0.29573
0.126566 -0.115302 0.299046
0.130197 -0.114808 0.300765
0.133544 -0.114578 0.302574
0.137699 -0.114515 0.304598
0.141553 -0.114632 0.306292
0.145032 -0.114358 0.307186
0.148463 -0.114206 0.309152
0.152406 -0.114186 0.311531
0.156062 -0.114413 0.312552
0.160004 -0.114011 0.314625
0.163203 -0.113897 0.315777
0.166885 -0.113732 0.318306
0.170317 -0.113842 0.320012
0.174151 -0.113758 0.321597
0.177925 -0.113355 0.323758
0.181167 -0.11329 0.324591
0.185048 -0.113136 0.326725
0.188657 -0.113015 0.328673
0.191998 -0.11295 0.329002
0.195654 -0.113193 0.330135
0.199401 -0.113164 0.330961
0.203334 -0.113097 0.332155
0.206992 -0.112835 0.332415
0.210272 -0.11251 0.333134
0.214265 -0.113195 0.332928
0.218259 -0.112622 0.333041
0.221499 -0.112964 0.332474
0.225558 -0.112801 0.331971
0.229425 -0.112873 0.332937
0.232798 -0.112724 0.332033
0.23712 -0.113007 0.332262
0.240939 -0.112949 0.331115
0.244529 -0.112638 0.33232
0.248025 -0.112726 0.332413
0.251893 -0.113242 0.332319
0.255692 -0.112761 0.332022
0.259464 -0.112918 0.331961
0.263356 -0.113134 0.331113
0.267031 -0.112833 0.332043
0.271463 -0.112972 0.331552
0.274551 -0.113425 0.331852
0.27826 -0.113221 0.330963
0.282448 -0.113246 0.329912
0.286713 -0.112889 0.328116
0.290413 -0.112869 0.327812
0.294694 -0.113432 0.326068
0.298646 -0.113522 0.324
0.302789 -0.113616 0.321913
0.306304 -0.113714 0.320453
0.311293 -0.113726 0.318167
0.315227 -0.11386 0.315882
0.319942 -0.11447 0.312779
0.323627 -0.11416 0.312011
0.327183 -0.114487 0.311022
0.3317 -0.114758 0.309257
0.335424 -0.1141 0.308145
0.340096 -0.114908 0.305388
0.344536 -0.114786 0.303458
0.348733 -0.115049 0.301494
0.352497 -0.115126 0.300802
0.356724 -0.115101 0.298122
0.361535 -0.115505 0.294442
0.36593 -0.115839 0.291968
0.370381 -0.115767 0.288898
0.374852 -0.115784 0.285869
0.379751 -0.11611 0.282358
0.384151 -0.11647 0.279476
0.388544 -0.116546 0.275283
0.394086 -0.117156 0.270641
0.399043 -0.117211 0.266264
0.403304 -0.117436 0.26209
0.409112 -0.117977 0.255503
0.414334 -0.118092 0.250252
0.420926 -0.118749 0.240221
0.427389 -0.11966 0.229127
-0.294195 -0.137916 -0.105236
-0.284422 -0.135442 -0.0720143
-0.274557 -0.13278 -0.0277629
-0.266672 -0.130852 -0.00158286
-0.259612 -0.130047 0.0150805
-0.253345 -0.129212 0.0310742
-0.246833 -0.127764 0.043375
-0.242054 -0.127727 0.0510503
-0.23596 -0.126583 0.0635148
-0.230238 -0.125707 0.0758193
-0.224655 -0.124934 0.0866013
-0.218983 -0.124595 0.0957958
-0.213772 -0.123953 0.103788
-0.209216 -0.123633 0.110866
-0.203704 -0.122936 0.118178
-0.198816 -0.122778 0.124491
-0.194502 -0.122554 0.130561
-0.189082 -0.121805 0.137888
-0.184173 -0.121286 0.144463
-0.179902 -0.121248 0.14767
-0.174914 -0.120718 0.152738
-0.170459 -0.120322 0.158574
-0.165807 -0.1205 0.162371
-0.161677 -0.119995 0.165166
-0.156883 -0.119808 0.16985
-0.152508 -0.119337 0.17289
-0.148341 -0.119551 0.174487
-0.14403 -0.11958 0.177062
-0.140032 -0.118873 0.178744
-0.135471 -0.118879 0.180438
-0.131188 -0.119284 0.183242
-0.126828 -0.118917 0.184057
-0.122809 -0.118676 0.185001
-0.118744 -0.118574 0.18607
-0.114251 -0.118588 0.186559
-0.110391 -0.118713 0.187015
-0.106429 -0.118696 0.18731
-0.102323 -0.11851 0.18607
-0.0983081 -0.119101 0.186139
-0.0944421 -0.118412 0.185525
-0.0898994 -0.118833 0.184712
-0.0861549 -0.118894 0.183374
-0.0817113 -0.118872 0.182602
-0.0782546 -0.118996 0.181214
-0.0734742 -0.118852 0.179952
-0.0700202 -0.119424 0.17956
-0.0656987 -0.119181 0.178385
-0.0616241 -0.119135 0.175869
-0.0572448 -0.11931 0.176549
-0.0534765 -0.119359 0.175969
-0.0494414 -0.119243 0.176731
-0.0450593 -0.119076 0.178983
-0.0410366 -0.1187 0.179789
-0.0367613 -0.11899 0.182376
-0.0325189 -0.118819 0.184704
-0.0287012 -0.118654 0.188349
-0.0247077 -0.118377 0.191485
-0.0203576 -0.118259 0.193635
-0.016444 -0.118116 0.195587
-0.0125079 -0.117933 0.199037
-0.00853531 -0.117335 0.201923
-0.00400089 -0.117137 0.205629
0.000301654 -0.117447 0.207894
0.00391526 -0.116738 0.210061
0.00821459 -0.116653 0.21308
0.0121027 -0.116989 0.215167
0.015738 -0.116465 0.217869
0.0201698 -0.116632 0.221737
0.0238504 -0.116202 0.223702
0.0277662 -0.116111 0.226753
0.0316098 -0.115952 0.229973
0.0358122 -0.115343 0.233612
0.0395958 -0.115579 0.237089
0.0437644 -0.115278 0.241068
0.0472866 -0.114857 0.244822
0.0512105 -0.114443 0.249194
0.0549455 -0.114126 0.254464
0.0590224 -0.113617 0.258266
0.0628667 -0.113646 0.262461
0.0664739 -0.113651 0.266268
0.0701121 -0.112908 0.270789
0.0743492 -0.112839 0.273078
0.0777416 -0.112781 0.275271
0.0814974 -0.112734 0.277652
0.085386 -0.112581 0.279778
0.0888778 -0.112461 0.280946
0.0929674 -0.112502 0.280523
0.0971357 -0.112334 0.282931
0.100166 -0.112084 0.28491
0.104075 -0.111919 0.287416
0.108129 -0.11189 0.288165
0.11207 -0.111632 0.289658
0.115472 -0.111697 0.29238
0.118937 -0.111326 0.293503
0.123228 -0.111606 0.296571
0.126707 -0.111506 0.298663
0.13028 -0.111154 0.300325
0.134328 -0.110883 0.302498
0.137716 -0.110982 0.304357
0.14096 -0.110796 0.306076
0.145335 -0.110827 0.306675
0.148579 -0.110462 0.309093
0.152474 -0.110397 0.310402
0.156017 -0.110727 0.311707
0.159933 -0.110254 0.314564
0.163447 -0.110354 0.316515
0.167172 -0.109954 0.317747
0.170548 -0.109805 0.319918
0.174082 -0.109365 0.320752
0.177415 -0.109386 0.323399
0.181162 -0.109631 0.324195
0.185156 -0.10982 0.325379
0.18865 -0.109307 0.327342
0.192372 -0.109591 0.329306
0.195851 -0.109194 0.329787
0.199487 -0.109095 0.331222
0.20338 -0.109044 0.331492
0.207021 -0.109004 0.33209
0.210724 -0.109194 0.332223
0.214475 -0.109018 0.331647
0.218473 -0.109252 0.331565
0.221977 -0.109514 0.332291
0.22586 -0.109216 0.332666
0.229304 -0.10878 0.333074
0.233005 -0.109559 0.33297
0.236744 -0.10896 0.33256
0.240623 -0.109212 0.3324
0.244109 -0.109192 0.33268
0.248213 -0.109082 0.332633
0.251816 -0.10932 0.332342
0.255881 -0.109245 0.332811
0.259585 -0.10909 0.332429
0.263554 -0.109333 0.331408
0.267407 -0.109083 0.33193
0.270613 -0.108877 0.33116
0.274775 -0.109266 0.330475
0.279017 -0.109889 0.329833
0.282366 -0.10917 0.329231
0.286606 -0.109374 0.328666
0.29032 -0.109266 0.328356
0.29427 -0.109299 0.32684
0.298211 -0.10941 0.324558
0.302646 -0.10978 0.322884
0.306989 -0.109905 0.320089
0.311143 -0.110274 0.317193
0.314941 -0.109791 0.31634
0.319183 -0.110048 0.313686
0.323643 -0.110286 0.311982
0.327973 -0.110523 0.310658
0.332102 -0.110903 0.30803
0.33591 -0.110513 0.307199
0.340031 -0.110939 0.305184
0.344397 -0.11089 0.30269
0.348132 -0.111051 0.302112
0.352877 -0.111643 0.299434
0.357358 -0.111123 0.296878
0.362011 -0.111421 0.293846
0.366144 -0.111747 0.29128
0.370657 -0.112476 0.288193
0.374899 -0.111745 0.285712
0.379854 -0.11242 0.281659
0.384207 -0.112455 0.278848
0.389038 -0.11239 0.275909
0.39358 -0.113029 0.272022
0.398775 -0.113671 0.266265
0.403461 -0.113432 0.262828
0.408358 -0.113875 0.257531
0.414229 -0.11414 0.251018
0.420383 -0.115065 0.241822
0.42719 -0.115821 0.230215
-0.295717 -0.133807 -0.114933
-0.286032 -0.131632 -0.0806899
-0.277496 -0.129402 -0.050735
-0.266719 -0.126634 -0.00488591
-0.259921 -0.125395 0.01153
-0.254365 -0.124999 0.0258949
-0.247751 -0.12393 0.0393891
-0.242128 -0.123021 0.0487434
-0.236118 -0.122657 0.0601224
-0.230188 -0.121663 0.0734845
-0.224789 -0.121212 0.0842649
-0.219415 -0.120479 0.0924083
-0.213598 -0.120063 0.101782
-0.208977 -0.119556 0.108114
-0.203741 -0.118584 0.11628
-0.199088 -0.118743 0.122568
-0.194322 -0.118455 0.128113
-0.189309 -0.118059 0.134898
-0.184707 -0.11727 0.139799
-0.179799 -0.11701 0.146106
-0.174949 -0.116652 0.151051
-0.169711 -0.116335 0.156225
-0.166202 -0.116151 0.158298
-0.161401 -0.11573 0.162771
-0.157277 -0.115538 0.165225
-0.152726 -0.115466 0.168556
-0.148613 -0.115474 0.171104
-0.144224 -0.11547 0.173944
-0.140362 -0.115141 0.175893
-0.135476 -0.114598 0.17856
-0.131387 -0.115189 0.179975
-0.127085 -0.114768 0.180672
-0.12266 -0.114859 0.181681
-0.119057 -0.114504 0.181114
-0.114601 -0.115062 0.183041
-0.110775 -0.114426 0.181859
-0.106367 -0.114949 0.183396
-0.102184 -0.114578 0.182511
-0.0980558 -0.114364 0.182459
-0.0943377 -0.114721 0.181525
-0.0902223 -0.114875 0.1806
-0.0861798 -0.114986 0.180671
-0.0820205 -0.115158 0.178902
-0.0785303 -0.114978 0.177735
-0.0738698 -0.115452 0.176823
-0.0699426 -0.115374 0.17584
-0.0657464 -0.114927 0.175489
-0.0618296 -0.115118 0.174263
-0.0576373 -0.115611 0.174353
-0.053588 -0.115145 0.174903
-0.0486769 -0.115325 0.177182
-0.0452356 -0.114932 0.178047
-0.0410559 -0.115055 0.179321
-0.0365896 -0.115006 0.181649
-0.0322123 -0.114552 0.184334
-0.0287881 -0.114225 0.18697
-0.0247895 -0.114082 0.189904
-0.0203844 -0.113875 0.193954
-0.0167244 -0.114324 0.195545
-0.0123071 -0.113476 0.199423
-0.00791774 -0.113437 0.203004
-0.00390842 -0.113178 0.205954
-9.26897e-05 -0.112855 0.208439
0.0039087 -0.11293 0.21072
0.008361 -0.112672 0.213385
0.0122602 -0.112746 0.21664
0.0161795 -0.112882 0.219059
0.0203793 -0.112171 0.221841
0.0241411 -0.112455 0.22506
0.027895 -0.111707 0.22734
0.0320023 -0.111728 0.229609
0.0355724 -0.111497 0.234071
0.0398241 -0.111569 0.237086
0.0436843 -0.111101 0.240758
0.0476926 -0.11092 0.244656
0.0515369 -0.110801 0.249888
0.0552441 -0.11044 0.254382
0.0588855 -0.110036 0.25908
0.0624978 -0.109942 0.262236
0.0667495 -0.109358 0.265519
0.070352 -0.109204 0.269467
0.0738726 -0.108863 0.272645
0.0778769 -0.109115 0.275282
0.0816906 -0.108941 0.276822
0.0853835 -0.108781 0.278228
0.0890444 -0.108629 0.28091
0.0930347 -0.108465 0.282033
0.0969189 -0.10888 0.283728
0.100639 -0.108323 0.284281
0.104523 -0.108267 0.285644
0.10833 -0.108034 0.287561
0.111806 -0.10769 0.289785
0.115388 -0.108176 0.291276
0.119067 -0.107791 0.293566
0.12294 -0.107523 0.29629
0.126698 -0.107492 0.29749
0.129892 -0.10697 0.299919
0.133782 -0.107014 0.301768
0.137942 -0.107377 0.303465
0.141772 -0.107016 0.305706
0.144898 -0.106916 0.306887
0.14887 -0.106979 0.308681
0.152384 -0.106281 0.310152
0.155884 -0.106609 0.31224
0.159662 -0.1061 0.314057
0.163175 -0.106243 0.315451
0.16695 -0.10656 0.318327
0.170388 -0.106033 0.319768
0.173929 -0.106424 0.321008
0.177946 -0.105878 0.322904
0.181714 -0.105913 0.323538
0.184997 -0.10583 0.326639
0.188349 -0.10577 0.327551
0.192216 -0.105444 0.328458
0.195876 -0.105369 0.329621
0.19936 -0.105526 0.329924
0.203336 -0.105353 0.331482
0.206931 -0.105428 0.331757
0.210654 -0.105347 0.331378
0.214381 -0.105016 0.332482
0.218269 -0.105162 0.332269
0.221802 -0.105348 0.332396
0.225643 -0.105053 0.332485
0.229541 -0.105542 0.332488
0.233244 -0.105243 0.333141
0.236781 -0.105286 0.3324
0.240671 -0.105434 0.332952
0.24464 -0.105481 0.331991
0.248183 -0.105454 0.332801
0.252041 -0.105411 0.332084
0.255624 -0.105392 0.332596
0.259572 -0.104954 0.332522
0.263548 -0.105287 0.332016
0.266718 -0.105489 0.331563
0.271171 -0.105173 0.331846
0.274837 -0.105399 0.330892
0.278431 -0.105147 0.330523
0.282615 -0.105438 0.329821
0.286544 -0.105291 0.329421
0.290728 -0.105585 0.327191
0.294687 -0.105706 0.325548
0.2983 -0.10577 0.324848
0.302833 -0.106184 0.321828
0.307039 -0.105971 0.319301
0.31085 -0.106217 0.317962
0.315333 -0.106169 0.315495
0.319523 -0.106177 0.312813
0.323619 -0.106589 0.311158
0.327764 -0.106809 0.310287
0.331642 -0.106962 0.308661
0.33588 -0.106978 0.307559
0.340409 -0.107361 0.30477
0.344509 -0.107243 0.30343
0.348483 -0.107477 0.301633
0.352868 -0.107626 0.299201
0.357808 -0.107726 0.296255
0.361257 -0.107985 0.294891
0.366033 -0.10796 0.291656
0.370144 -0.107895 0.289364
0.374973 -0.108397 0.285316
0.379448 -0.108589 0.282526
0.384543 -0.108772 0.277713
0.388982 -0.108868 0.275549
0.393607 -0.10884 0.271383
0.398643 -0.109411 0.267151
0.404134 -0.109772 0.261694
0.408919 -0.109913 0.256826
0.414186 -0.110325 0.250555
0.419773 -0.111052 0.243934
0.425938 -0.111651 0.234069
-0.296702 -0.129322 -0.123064
-0.287527 -0.126921 -0.0899534
-0.279233 -0.126055 -0.0631199
-0.267868 -0.122399 -0.0130975
-0.260873 -0.121136 0.00609338
-0.254191 -0.120707 0.0234401
-0.248181 -0.119133 0.0361205
-0.242455 -0.119052 0.046662
-0.236819 -0.118465 0.0569432
-0.2304 -0.117647 0.0701401
-0.224756 -0.116967 0.0809098
-0.219929 -0.116516 0.088985
-0.214283 -0.116021 0.0979551
-0.209364 -0.115513 0.104681
-0.204285 -0.115315 0.112429
-0.199767 -0.114478 0.1178
-0.194808 -0.113968 0.123879
-0.189763 -0.113756 0.130749
-0.184679 -0.113401 0.13755
-0.18048 -0.113174 0.14236
-0.175533 -0.11282 0.147151
-0.171086 -0.112768 0.150301
-0.165924 -0.112339 0.155115
-0.162186 -0.112136 0.15774
-0.15738 -0.111954 0.162267
-0.153148 -0.111646 0.165449
-0.148639 -0.111672 0.167814
-0.144525 -0.111663 0.171057
-0.140122 -0.111172 0.17271
-0.135793 -0.111077 0.174538
-0.131584 -0.111258 0.176549
-0.127146 -0.1109 0.177865
-0.123339 -0.110763 0.178513
-0.118915 -0.111016 0.178729
-0.115259 -0.110765 0.180045
-0.111033 -0.110859 0.179875
-0.10676 -0.111096 0.180244
-0.102786 -0.110652 0.179895
-0.0986561 -0.110659 0.179365
-0.0944821 -0.110771 0.178525
-0.09058 -0.11099 0.178461
-0.0863929 -0.110978 0.177419
-0.0822482 -0.110939 0.175778
-0.0780733 -0.111136 0.175393
-0.0739008 -0.110857 0.173856
-0.069994 -0.111376 0.173671
-0.0659399 -0.111144 0.172682
-0.0616053 -0.111129 0.173106
-0.0578558 -0.111409 0.17203
-0.053768 -0.111418 0.172861
-0.0494635 -0.111007 0.173998
-0.0452545 -0.110829 0.176199
-0.0408346 -0.110876 0.17885
-0.0370572 -0.110671 0.181102
-0.0327675 -0.110244 0.184693
-0.0288422 -0.110833 0.186379
-0.0248493 -0.109974 0.190262
-0.0206783 -0.109884 0.193269
-0.0163046 -0.109931 0.195681
-0.012398 -0.109873 0.198784
-0.00808279 -0.109346 0.202217
-0.00417277 -0.109606 0.205487
-0.000252497 -0.10916 0.208036
0.00387484 -0.108858 0.209709
0.0076818 -0.108788 0.213038
0.0121538 -0.108755 0.216632
0.0160462 -0.108569 0.21951
0.0202097 -0.108278 0.221247
0.0242743 -0.108174 0.224
0.0277628 -0.108072 0.227129
0.0321643 -0.107859 0.230057
0.0360355 -0.107749 0.233579
0.0396699 -0.107294 0.237468
0.0437153 -0.107059 0.24194
0.0474443 -0.107078 0.244931
0.0514752 -0.106865 0.249269
0.0552059 -0.105942 0.254729
0.0588269 -0.106048 0.25843
0.0628914 -0.105858 0.262475
0.0666046 -0.105664 0.265508
0.0702786 -0.1054 0.269246
0.0740013 -0.105588 0.272952
0.0779723 -0.105181 0.274129
0.0816595 -0.104674 0.277948
0.0855664 -0.104422 0.27949
0.0892409 -0.10468 0.281261
0.093362 -0.104627 0.28196
0.0966566 -0.104054 0.282962
0.100734 -0.104804 0.283943
0.104338 -0.104651 0.285512
0.108496 -0.104574 0.287377
0.111962 -0.10386 0.290354
0.115542 -0.103871 0.29118
0.119407 -0.104033 0.293911
0.122986 -0.104109 0.295503
0.126508 -0.103705 0.297779
0.130418 -0.103717 0.299694
0.133714 -0.103087 0.302293
0.137723 -0.103332 0.303414
0.141634 -0.103191 0.304864
0.145421 -0.103443 0.306168
0.148769 -0.103149 0.308818
0.152768 -0.102814 0.309705
0.156087 -0.102867 0.310495
0.159529 -0.102702 0.313103
0.163347 -0.102365 0.315688
0.167078 -0.102426 0.31726
0.17045 -0.102181 0.319119
0.174031 -0.102181 0.320218
0.177591 -0.102247 0.323523
0.18149 -0.102131 0.323756
0.184961 -0.101788 0.325418
0.188635 -0.102018 0.326545
0.192276 -0.101928 0.327355
0.196233 -0.101844 0.328874
0.199627 -0.101833 0.329653
0.203071 -0.101502 0.33058
0.206998 -0.101742 0.330864
0.210845 -0.101354 0.330859
0.21437 -0.101821 0.331441
0.218076 -0.101593 0.33267
0.22203 -0.10146 0.33339
0.225653 -0.101772 0.3318
0.229537 -0.101567 0.333009
0.233133 -0.101466 0.333039
0.236928 -0.101359 0.33202
0.240546 -0.10127 0.332912
0.244575 -0.101602 0.332182
0.24812 -0.101446 0.333244
0.25192 -0.101335 0.332549
0.256101 -0.10194 0.330722
0.259384 -0.101463 0.332303
0.263171 -0.101693 0.331914
0.267582 -0.101601 0.330478
0.270598 -0.101598 0.330731
0.275133 -0.101819 0.329749
0.27835 -0.101626 0.330172
0.282553 -0.101617 0.328921
0.2866 -0.10175 0.327466
0.290354 -0.101717 0.327343
0.294278 -0.101999 0.32637
0.298607 -0.102138 0.323593
0.302764 -0.101992 0.322009
0.307028 -0.102344 0.319747
0.310994 -0.102442 0.318129
0.315489 -0.102061 0.315234
0.319632 -0.102489 0.313232
0.323527 -0.102895 0.312792
0.327689 -0.103036 0.310132
0.331747 -0.103131 0.308647
0.335757 -0.102946 0.306538
0.340419 -0.103115 0.304997
0.344455 -0.10317 0.302405
0.348299 -0.103429 0.301298
0.352968 -0.103417 0.298669
0.35713 -0.103708 0.296648
0.361779 -0.10404 0.293758
0.365908 -0.104139 0.291494
0.370421 -0.104658 0.288199
0.375108 -0.104598 0.284924
0.379794 -0.104522 0.28174
0.384581 -0.104569 0.278442
0.388666 -0.105243 0.275796
0.393939 -0.105206 0.271175
0.3987 -0.105484 0.266872
0.40401 -0.105721 0.261871
0.409298 -0.106074 0.255595
0.414189 -0.106577 0.251003
0.419742 -0.10702 0.244067
0.426016 -0.107775 0.234423
0.435553 -0.10865 0.211833
-0.299376 -0.125604 -0.139975
-0.28801 -0.122919 -0.0941415
-0.28041 -0.121592 -0.0733171
-0.272044 -0.119861 -0.0434906
-0.261386 -0.117397 0.000645161
-0.254613 -0.115926 0.018494
-0.248972 -0.115472 0.0321556
-0.242658 -0.11476 0.0437812
-0.237147 -0.114082 0.0531007
-0.230935 -0.113229 0.0656885
-0.225433 -0.112784 0.0767701
-0.22039 -0.112033 0.0851597
-0.214942 -0.111656 0.0945714
-0.209683 -0.111412 0.101268
-0.204724 -0.110832 0.108225
-0.200093 -0.110645 0.114245
-0.194967 -0.11015 0.119996
-0.189893 -0.109943 0.127242
-0.185183 -0.109393 0.132978
-0.180696 -0.109364 0.13806
-0.175738 -0.108869 0.143402
-0.171349 -0.109103 0.147029
-0.166433 -0.108244 0.150977
-0.162482 -0.108382 0.154669
-0.157848 -0.10814 0.158046
-0.153709 -0.107966 0.161876
-0.149337 -0.107501 0.163528
-0.14514 -0.107415 0.165502
-0.140315 -0.107634 0.168737
-0.136194 -0.107239 0.171321
-0.13175 -0.106853 0.172025
-0.127469 -0.107497 0.17324
-0.123322 -0.106892 0.174993
-0.119675 -0.106642 0.175135
-0.115415 -0.106996 0.175204
-0.110835 -0.107202 0.176461
-0.106914 -0.106979 0.175617
-0.102739 -0.106968 0.175462
-0.098914 -0.107134 0.176632
-0.0950484 -0.107327 0.174625
-0.0906486 -0.107088 0.175394
-0.0861895 -0.106971 0.173425
-0.0821227 -0.107095 0.172639
-0.0787093 -0.106927 0.172652
-0.07441 -0.107369 0.170902
-0.0701035 -0.107403 0.170302
-0.0659625 -0.107148 0.169467
-0.0619534 -0.107086 0.168823
-0.0575244 -0.107621 0.170572
-0.0537996 -0.10737 0.171844
-0.0495255 -0.107092 0.172723
-0.0451433 -0.106717 0.174253
-0.0410153 -0.106538 0.176636
-0.0370115 -0.10704 0.179758
-0.0328171 -0.106409 0.182523
-0.0286013 -0.106331 0.186564
-0.024245 -0.105892 0.189681
-0.0204077 -0.105986 0.193375
-0.0158992 -0.105769 0.195554
-0.0121137 -0.105335 0.197867
-0.00837285 -0.105761 0.20054
-0.00390119 -0.105278 0.205444
-5.79123e-05 -0.105097 0.207367
0.00420953 -0.10482 0.211141
0.00798568 -0.104557 0.213205
0.011874 -0.10501 0.216661
0.0160922 -0.104139 0.219532
0.0201278 -0.104509 0.221453
0.0239317 -0.104166 0.223903
0.0277163 -0.103976 0.227039
0.0316851 -0.1037 0.229717
0.0358962 -0.10338 0.234277
0.0399 -0.103231 0.236712
0.0436612 -0.103017 0.241712
0.0472223 -0.102318 0.24546
0.0513756 -0.102746 0.249335
0.0553966 -0.102528 0.254285
0.0590133 -0.10225 0.257798
0.0630411 -0.101824 0.26209
0.0667011 -0.101848 0.26646
0.0702259 -0.101519 0.269722
0.0739949 -0.101 0.271641
0.0779792 -0.101394 0.275274
0.0815636 -0.101313 0.277299
0.0851254 -0.100742 0.278765
0.0891129 -0.100542 0.28039
0.0930578 -0.100712 0.28122
0.0971151 -0.101075 0.28214
0.100492 -0.10073 0.284056
0.104283 -0.100607 0.284876
0.108134 -0.100256 0.287315
0.111853 -0.100491 0.288382
0.115988 -0.100164 0.290826
0.11917 -0.100342 0.29243
0.123125 -0.100214 0.294983
0.126682 -0.0999685 0.296861
0.130288 -0.0997179 0.299684
0.133636 -0.0996289 0.302044
0.138239 -0.0992874 0.302826
0.141603 -0.0995139 0.30418
0.145069 -0.0992192 0.305753
0.14876 -0.0993302 0.307492
0.152514 -0.0994412 0.308342
0.156098 -0.0990895 0.310996
0.159693 -0.0994846 0.312873
0.163653 -0.0986662 0.315254
0.166936 -0.0985676 0.317221
0.170954 -0.0988233 0.318485
0.174115 -0.098445 0.320122
0.17813 -0.0981882 0.321257
0.181131 -0.0982818 0.323155
0.185191 -0.0981747 0.324642
0.188636 -0.0982441 0.325481
0.192702 -0.0981137 0.325642
0.19586 -0.0980198 0.328761
0.199758 -0.0979035 0.32976
0.203218 -0.0978337 0.330662
0.207151 -0.0980766 0.330801
0.210659 -0.097937 0.330859
0.214152 -0.0980489 0.331963
0.218132 -0.0977714 0.332022
0.222012 -0.098025 0.330968
0.225366 -0.0980457 0.332525
0.22946 -0.0978889 0.331976
0.233158 -0.0977663 0.331687
0.236947 -0.0979216 0.331598
0.240674 -0.09795 0.330934
0.244379 -0.0980478 0.331766
0.248386 -0.097851 0.33149
0.251981 -0.0974377 0.332722
0.255962 -0.097751 0.331119
0.259467 -0.0975243 0.330961
0.26357 -0.0977243 0.33145
0.267678 -0.0981042 0.329946
0.271019 -0.0977015 0.330344
0.275021 -0.0980394 0.329445
0.278979 -0.0980767 0.329533
0.282725 -0.0980274 0.328094
0.286312 -0.0977263 0.327933
0.290915 -0.0980706 0.326499
0.294409 -0.0984887 0.325697
0.298987 -0.0982912 0.323098
0.302394 -0.0985316 0.322401
0.306909 -0.0984597 0.319683
0.310834 -0.0986801 0.318508
0.315053 -0.0986128 0.316675
0.319548 -0.0989331 0.313707
0.323507 -0.0992228 0.311783
0.327578 -0.0989642 0.310894
0.331502 -0.0993176 0.309444
0.336148 -0.0994702 0.306699
0.339729 -0.099319 0.305139
0.344714 -0.0997858 0.302459
0.348669 -0.0994025 0.300953
0.352704 -0.0996832 0.298331
0.357111 -0.100094 0.296944
0.36159 -0.100193 0.294056
0.366151 -0.0998958 0.291242
0.370904 -0.100114 0.287457
0.37529 -0.100495 0.28489
0.379811 -0.100638 0.281339
0.384252 -0.100934 0.278436
0.389179 -0.101227 0.275108
0.393856 -0.101277 0.271269
0.39896 -0.101466 0.266065
0.403939 -0.101897 0.261003
0.409557 -0.10252 0.254816
0.414104 -0.102427 0.250672
0.420209 -0.102695 0.24336
0.425759 -0.10357 0.234744
0.435784 -0.105163 0.211881
-0.3006 -0.121186 -0.151403
-0.288719 -0.118494 -0.0999527
-0.282482 -0.117752 -0.0835559
-0.274066 -0.115937 -0.0607293
-0.262287 -0.11335 -0.00740719
-0.256453 -0.112304 0.00784588
-0.24861 -0.110938 0.0293826
-0.242921 -0.110451 0.0404251
-0.237552 -0.10972 0.0490216
-0.231951 -0.109393 0.0603592
-0.226517 -0.108642 0.0703702
-0.220744 -0.108265 0.0817523
-0.215689 -0.107697 0.089514
-0.210066 -0.107404 0.0967437
-0.205173 -0.106868 0.103922
-0.200572 -0.106477 0.11014
-0.195171 -0.106089 0.116468
-0.19072 -0.106039 0.122387
-0.18573 -0.105573 0.128077
-0.181235 -0.1054 0.132641
-0.17676 -0.104711 0.138337
-0.171504 -0.104585 0.143373
-0.166817 -0.104727 0.146834
-0.162712 -0.10429 0.14931
-0.158477 -0.104217 0.153922
-0.153243 -0.104258 0.158085
-0.149624 -0.103871 0.159354
-0.14487 -0.103906 0.163276
-0.1406 -0.103365 0.164409
-0.136319 -0.103441 0.166779
-0.132101 -0.103364 0.16837
-0.128041 -0.103379 0.170088
-0.123798 -0.102639 0.169796
-0.119725 -0.103277 0.170586
-0.115508 -0.102954 0.170188
-0.111388 -0.102824 0.172163
-0.10723 -0.103095 0.171646
-0.102969 -0.102915 0.172276
-0.0990636 -0.10277 0.172229
-0.0950737 -0.103085 0.170659
-0.090992 -0.103081 0.169991
-0.0866667 -0.103219 0.168852
-0.082397 -0.102978 0.169312
-0.0781293 -0.103344 0.16752
-0.0743398 -0.103207 0.168123
-0.0705923 -0.10344 0.166465
-0.0660768 -0.103659 0.167381
-0.0617009 -0.103323 0.168277
-0.0576037 -0.103145 0.169225
-0.0541637 -0.102868 0.170044
-0.0495362 -0.103503 0.171983
-0.0451659 -0.10307 0.17411
-0.0410316 -0.10261 0.175369
-0.0369757 -0.102757 0.179298
-0.0328242 -0.102458 0.182779
-0.0284425 -0.10275 0.184762
-0.0243166 -0.102306 0.189027
-0.0207771 -0.101814 0.191124
-0.0163332 -0.101711 0.194683
-0.0122071 -0.101304 0.198511
-0.00799367 -0.101122 0.201197
-0.0043941 -0.101735 0.204996
-8.93492e-05 -0.101018 0.2069
0.00395775 -0.100709 0.209472
0.00820858 -0.100856 0.212765
0.0122104 -0.100638 0.216403
0.0162432 -0.100123 0.217453
0.0201218 -0.100383 0.22133
0.0238772 -0.100324 0.224384
0.0279704 -0.100388 0.227423
0.0318847 -0.0998676 0.230819
0.0360436 -0.099746 0.233603
0.0399355 -0.0993238 0.237605
0.0436125 -0.0992642 0.241648
0.0470062 -0.0990098 0.245214
0.0514437 -0.0987173 0.249988
0.0551602 -0.0983907 0.254502
0.058933 -0.0987787 0.257725
0.0628825 -0.098008 0.261857
0.0664453 -0.0978966 0.265277
0.0699752 -0.0976565 0.269202
0.0740255 -0.0977812 0.270551
0.0774269 -0.0974892 0.27457
0.0816524 -0.0971539 0.276686
0.0853883 -0.0967953 0.279044
0.0892922 -0.0972599 0.278712
0.0930703 -0.0971787 0.281197
0.0967325 -0.0965702 0.282774
0.100458 -0.0965441 0.283831
0.10438 -0.0965555 0.28486
0.108243 -0.0965369 0.287051
0.111642 -0.0965802 0.288133
0.115669 -0.0962657 0.289846
0.119553 -0.0964298 0.291331
0.122773 -0.0961778 0.294301
0.127155 -0.0960522 0.296153
0.130504 -0.0960211 0.298687
0.134069 -0.0957829 0.300323
0.137849 -0.0957404 0.303427
0.141572 -0.0955266 0.303295
0.144952 -0.095432 0.305646
0.148974 -0.0953223 0.306163
0.15269 -0.0953932 0.308053
0.156328 -0.0952309 0.310332
0.159836 -0.095158 0.312118
0.163573 -0.0949203 0.313639
0.167118 -0.0951314 0.315976
0.171083 -0.0950437 0.317813
0.174154 -0.0950551 0.319356
0.177887 -0.0948503 0.320198
0.181732 -0.0944613 0.322895
0.18484 -0.0942607 0.32453
0.189277 -0.0945566 0.325889
0.192369 -0.0945434 0.326996
0.195969 -0.0940818 0.327725
0.19978 -0.0941794 0.328963
0.203104 -0.0940644 0.329941
0.2067 -0.0941163 0.329953
0.210835 -0.09399 0.330319
0.214303 -0.0939983 0.331976
0.218097 -0.0938924 0.331564
0.221411 -0.0941593 0.331646
0.226051 -0.0943572 0.331147
0.229333 -0.0941574 0.331952
0.233382 -0.0941659 0.331222
0.23723 -0.0938707 0.3324
0.240974 -0.0936966 0.332176
0.244538 -0.0940489 0.331371
0.248296 -0.0936717 0.331422
0.25244 -0.0939501 0.330904
0.256082 -0.0942228 0.329978
0.259574 -0.094342 0.331133
0.263424 -0.0940093 0.33074
0.267745 -0.094012 0.32935
0.271445 -0.0939482 0.329342
0.274934 -0.0940232 0.329134
0.278923 -0.0943273 0.327687
0.282866 -0.0940021 0.328864
0.286417 -0.0942081 0.328246
0.290889 -0.0946836 0.326619
0.294609 -0.0945568 0.324894
0.298633 -0.0946622 0.323167
0.302784 -0.0946567 0.321407
0.306505 -0.0945026 0.321021
0.310823 -0.0947715 0.317665
0.315438 -0.0949846 0.315717
0.319521 -0.0949689 0.3134
0.323524 -0.0955022 0.312136
0.327288 -0.0952358 0.311191
0.331604 -0.0954243 0.309279
0.336208 -0.0952583 0.30664
0.340022 -0.0957416 0.305615
0.344417 -0.0955511 0.303043
0.348686 -0.0959041 0.30078
0.353036 -0.0956092 0.299312
0.357221 -0.0962983 0.295873
0.361704 -0.0960224 0.294373
0.366081 -0.0965354 0.291246
0.370554 -0.0962575 0.288403
0.37476 -0.0967863 0.286211
0.379519 -0.0970497 0.282066
0.38397 -0.0974272 0.278935
0.389288 -0.0973457 0.274925
0.393925 -0.0974922 0.271478
0.398808 -0.0974466 0.266002
0.403239 -0.0978659 0.2624
0.409339 -0.0982597 0.25546
0.414712 -0.0989771 0.249403
0.420383 -0.0992419 0.242244
0.426201 -0.0994128 0.23427
0.433833 -0.100311 0.218288
-0.290394 -0.114169 -0.109845
-0.282623 -0.113127 -0.0878432
-0.274893 -0.111777 -0.0683062
-0.267826 -0.110802 -0.0475867
-0.257161 -0.108411 -0.000971079
-0.250458 -0.107355 0.0176487
-0.243551 -0.106193 0.0347595
-0.238044 -0.105865 0.0449564
-0.232383 -0.105167 0.05496
-0.226651 -0.104696 0.0666349
-0.221393 -0.104432 0.0758783
-0.215838 -0.103583 0.0849235
-0.210742 -0.103474 0.0926877
-0.205926 -0.102942 0.0992832
-0.200753 -0.102336 0.105019
-0.196181 -0.102092 0.110516
-0.190882 -0.102381 0.118338
-0.186195 -0.101787 0.12293
-0.181135 -0.101307 0.128748
-0.17632 -0.100967 0.133881
-0.172376 -0.100661 0.136675
-0.167845 -0.100247 0.141372
-0.163192 -0.100169 0.144051
-0.158626 -0.100378 0.147822
-0.154199 -0.100118 0.151527
-0.150011 -0.0998036 0.15366
-0.145647 -0.0995587 0.156691
-0.14089 -0.0995323 0.159577
-0.136869 -0.0997501 0.161134
-0.13259 -0.0997528 0.163442
-0.128241 -0.0991378 0.164249
-0.123958 -0.0989808 0.165139
-0.120168 -0.0991286 0.165864
-0.115728 -0.0993986 0.166729
-0.111274 -0.0991474 0.16755
-0.107552 -0.0990192 0.165821
-0.10316 -0.099277 0.167461
-0.0990304 -0.0994818 0.167402
-0.0952288 -0.09903 0.166468
-0.0912354 -0.0993918 0.166028
-0.0868785 -0.0990021 0.16558
-0.0822865 -0.099129 0.164006
-0.0788349 -0.0991752 0.164549
-0.0745122 -0.0995755 0.164738
-0.0700478 -0.0992628 0.164864
-0.0660062 -0.0994122 0.165133
-0.0619563 -0.0993296 0.16592
-0.0581557 -0.0993823 0.165621
-0.0537207 -0.0987002 0.16897
-0.0494116 -0.0990045 0.170082
-0.0453671 -0.0985882 0.172943
-0.0406996 -0.0984608 0.175891
-0.0367244 -0.098595 0.178201
-0.0328603 -0.0986981 0.181295
-0.0288151 -0.098352 0.184463
-0.0242733 -0.0980606 0.187843
-0.020413 -0.0977769 0.190783
-0.0162622 -0.0978497 0.19478
-0.0126481 -0.0977163 0.19628
-0.00798446 -0.0975533 0.199889
-0.00396161 -0.0970793 0.203069
-0.000112215 -0.0972938 0.207003
0.00400123 -0.0971599 0.209691
0.00811603 -0.0968197 0.212596
0.0118588 -0.0966916 0.216235
0.016202 -0.0962471 0.21811
0.0203495 -0.0963322 0.220792
0.0242866 -0.0962814 0.224846
0.0280341 -0.0961693 0.226476
0.0321239 -0.0959618 0.230178
0.0359556 -0.095707 0.233813
0.0398384 -0.0956648 0.236973
0.0439003 -0.0949084 0.241906
0.0471381 -0.094561 0.245699
0.0512459 -0.0948474 0.250273
0.0552868 -0.094626 0.254626
0.0587519 -0.0943848 0.257298
0.0623871 -0.0941835 0.261032
0.0665326 -0.0940011 0.265363
0.0700641 -0.0939149 0.268348
0.0742291 -0.0941109 0.270538
0.0779322 -0.0937795 0.273997
0.0812625 -0.0932072 0.275962
0.0853086 -0.0931662 0.278058
0.0892128 -0.0931068 0.279026
0.0929798 -0.0930044 0.280354
0.0968603 -0.0928279 0.282035
0.100553 -0.0932646 0.283149
0.104525 -0.09341 0.283249
0.108055 -0.0928356 0.285528
0.112182 -0.0924772 0.287346
0.115889 -0.0927224 0.28944
0.119381 -0.0926621 0.291437
0.123321 -0.0923063 0.294135
0.126605 -0.0922691 0.295945
0.130292 -0.0921953 0.29842
0.134153 -0.0917836 0.300499
0.138003 -0.0917828 0.301935
0.141716 -0.0920229 0.303875
0.145202 -0.0917519 0.305787
0.149077 -0.0914043 0.306079
0.152529 -0.0917244 0.30796
0.156749 -0.0914021 0.310099
0.159619 -0.0912067 0.311479
0.163553 -0.0916548 0.312736
0.167034 -0.0913951 0.315654
0.17084 -0.0910649 0.316368
0.17424 -0.0911705 0.31902
0.17786 -0.0908922 0.32057
0.181396 -0.0906692 0.322615
0.185434 -0.090836 0.323884
0.188698 -0.0906778 0.324175
0.192481 -0.0910021 0.326393
0.195979 -0.0907603 0.326743
0.199664 -0.0906226 0.328196
0.203072 -0.0905859 0.329231
0.206986 -0.0901176 0.329777
0.210893 -0.0902421 0.330013
0.214813 -0.0902347 0.330345
0.218292 -0.0904976 0.330653
0.222034 -0.0901584 0.330407
0.22573 -0.0901928 0.331248
0.229493 -0.089905 0.331018
0.233047 -0.0903688 0.331652
0.237032 -0.0904096 0.330712
0.240987 -0.0901067 0.33173
0.244921 -0.0904968 0.330573
0.24879 -0.0907229 0.330825
0.252148 -0.0903162 0.330248
0.256131 -0.0905193 0.330267
0.25979 -0.0901805 0.329925
0.264027 -0.0901639 0.329974
0.267632 -0.0905092 0.329796
0.271383 -0.0901684 0.329086
0.275084 -0.0906851 0.329149
0.27899 -0.0905753 0.328889
0.283053 -0.0904694 0.327569
0.286464 -0.0908535 0.326813
0.29044 -0.0905581 0.325933
0.29477 -0.0910087 0.324541
0.298606 -0.0906494 0.323313
0.302971 -0.090782 0.320692
0.306999 -0.0911417 0.319688
0.311179 -0.0911246 0.317619
0.315276 -0.0910966 0.316023
