ply
format ascii 1.0
element vertex 1678
property float x
property float y
property float z
end_header
0.284386 -0.309414 0.422491
0.289139 -0.31046 0.418642
0.292983 -0.311041 0.415563
0.296984 -0.311702 0.411898
0.301315 -0.312287 0.408833
0.305811 -0.313166 0.403683
0.310344 -0.314312 0.398578
0.315554 -0.315298 0.392581
0.319596 -0.316516 0.387677
0.326198 -0.318865 0.37532
0.333402 -0.322125 0.357875
-0.320919 -0.383372 0.0236342
-0.314176 -0.380323 0.0390214
-0.307583 -0.377294 0.0522567
-0.3013 -0.375599 0.0644082
-0.295791 -0.373723 0.0720398
-0.290288 -0.372678 0.0782427
-0.285786 -0.372061 0.0822326
-0.280086 -0.371053 0.0874751
-0.275142 -0.370271 0.0906699
-0.270456 -0.369278 0.0944312
-0.266329 -0.368842 0.0974157
-0.261227 -0.368722 0.100355
-0.256668 -0.368325 0.101347
-0.252204 -0.367531 0.104501
-0.247821 -0.367344 0.106738
-0.242707 -0.3665 0.11041
-0.22315 -0.342858 0.232801
-0.216791 -0.338339 0.254492
-0.210083 -0.334157 0.275683
-0.204612 -0.332046 0.288549
-0.199443 -0.330185 0.297078
-0.195026 -0.32936 0.302302
-0.190791 -0.32801 0.307356
-0.186482 -0.327692 0.310855
-0.182303 -0.326815 0.314622
-0.178497 -0.326034 0.317855
-0.173641 -0.32475 0.324737
-0.169433 -0.324181 0.330117
-0.165238 -0.322618 0.336313
-0.16099 -0.321444 0.341359
-0.156697 -0.32124 0.345542
-0.152436 -0.319954 0.349514
-0.148404 -0.319523 0.352392
-0.14482 -0.318926 0.354899
-0.140692 -0.318412 0.358032
-0.136658 -0.317916 0.359941
-0.133094 -0.317808 0.361748
-0.129325 -0.317323 0.363091
-0.12533 -0.317567 0.363688
-0.121662 -0.317157 0.365406
-0.117864 -0.316709 0.367046
-0.114068 -0.316608 0.368107
-0.11024 -0.3162 0.369825
-0.106537 -0.316122 0.37025
-0.103025 -0.315729 0.370961
-0.09903 -0.315934 0.371673
-0.0953733 -0.315822 0.370797
-0.0918062 -0.315654 0.373639
-0.0881792 -0.315118 0.374305
-0.0844583 -0.315179 0.374439
-0.0805906 -0.315102 0.375728
-0.0769772 -0.315117 0.376924
-0.0732796 -0.314675 0.378865
-0.0694343 -0.314168 0.380124
-0.0660425 -0.313718 0.380596
-0.0619285 -0.313536 0.382889
-0.0582167 -0.313723 0.383015
-0.0546087 -0.313585 0.383764
-0.0509932 -0.312982 0.385774
-0.0474398 -0.312778 0.387983
-0.043546 -0.312627 0.38921
-0.0403173 -0.312648 0.39026
-0.0359888 -0.311883 0.390608
-0.0326617 -0.311467 0.393036
-0.0290033 -0.311655 0.39255
-0.0252 -0.31127 0.393954
-0.0221929 -0.311557 0.393699
-0.0182836 -0.311463 0.394347
-0.0146418 -0.311084 0.395063
-0.0107387 -0.311364 0.395225
-0.00723969 -0.311226 0.39595
-0.00371342 -0.310865 0.396292
3.89902e-05 -0.311237 0.396697
0.00392892 -0.310724 0.398221
0.00730141 -0.31034 0.398309
0.0107734 -0.310397 0.399044
0.0140985 -0.310179 0.399859
0.0181003 -0.309796 0.400827
0.021608 -0.310142 0.401285
0.0252498 -0.309953 0.400897
0.0289601 -0.31003 0.401912
0.0323287 -0.31004 0.400993
0.035771 -0.309737 0.403414
0.039944 -0.309745 0.402277
0.0427475 -0.309817 0.403326
0.0463836 -0.308884 0.405725
0.0500629 -0.30949 0.404922
0.0540866 -0.309275 0.405424
0.0574301 -0.30888 0.40721
0.0610769 -0.309205 0.406351
0.0646019 -0.30931 0.407275
0.0682764 -0.308923 0.408235
0.0718839 -0.308803 0.407838
0.0754062 -0.309211 0.407185
0.078748 -0.308888 0.407393
0.0823822 -0.308895 0.407574
0.0863267 -0.308999 0.405967
0.0899569 -0.309265 0.405553
0.0936707 -0.30899 0.405241
0.0973695 -0.309383 0.404642
0.100953 -0.309698 0.4048
0.104603 -0.31008 0.402675
0.108297 -0.309726 0.401822
0.112096 -0.310054 0.401164
0.11535 -0.310088 0.401114
0.118719 -0.310288 0.399402
0.123097 -0.310982 0.39788
0.126434 -0.310447 0.399004
0.129836 -0.310487 0.398458
0.133744 -0.310582 0.398738
0.136845 -0.310909 0.398203
0.140765 -0.310336 0.40006
0.144089 -0.310207 0.401633
0.14775 -0.309203 0.404198
0.151065 -0.309183 0.406402
0.154165 -0.30828 0.410261
0.157389 -0.30774 0.41321
0.161165 -0.307009 0.417709
0.164274 -0.306413 0.420575
0.166932 -0.306261 0.422266
0.170254 -0.305344 0.425598
0.173841 -0.304999 0.428084
0.176813 -0.304604 0.430174
0.180206 -0.303571 0.433838
0.183516 -0.303812 0.434332
0.186953 -0.303336 0.435341
0.190511 -0.303079 0.437013
0.193596 -0.302712 0.439474
0.197082 -0.302162 0.440298
0.200516 -0.302198 0.440921
0.203812 -0.302515 0.442191
0.207363 -0.301991 0.441905
0.210595 -0.301843 0.443939
0.214244 -0.302008 0.442853
0.217637 -0.301802 0.444096
0.221107 -0.301929 0.443743
0.224759 -0.302092 0.443732
0.227889 -0.302076 0.443939
0.23143 -0.301803 0.443914
0.235289 -0.301731 0.442443
0.23884 -0.301804 0.441994
0.242702 -0.302052 0.441389
0.246183 -0.30198 0.440621
0.249843 -0.302325 0.439915
0.253398 -0.302702 0.438849
0.257254 -0.302873 0.438218
0.261074 -0.303487 0.43589
0.264611 -0.303736 0.435091
0.268433 -0.303787 0.432958
0.272479 -0.304407 0.430252
0.276487 -0.305185 0.428133
0.280375 -0.305605 0.425599
0.284703 -0.305915 0.423063
0.288705 -0.306584 0.420159
0.29265 -0.307193 0.416954
0.29736 -0.307759 0.412606
0.30136 -0.308711 0.409172
0.306001 -0.309876 0.403713
0.310198 -0.310702 0.399469
0.314812 -0.311162 0.395132
0.31954 -0.312837 0.388608
0.325797 -0.314773 0.377451
0.332153 -0.317324 0.363281
-0.308046 -0.373911 0.0488915
-0.301778 -0.371689 0.0618752
-0.29587 -0.369564 0.0713385
-0.29074 -0.368419 0.0775214
-0.285402 -0.367706 0.0824677
-0.280706 -0.367106 0.086394
-0.275522 -0.366139 0.0908835
-0.270685 -0.365685 0.0940765
-0.266123 -0.365012 0.0976843
-0.261278 -0.36432 0.0994484
-0.257012 -0.363768 0.100855
-0.252509 -0.363267 0.104582
-0.247608 -0.362848 0.10689
-0.24301 -0.362438 0.10978
-0.221351 -0.336293 0.245741
-0.215368 -0.333013 0.263638
-0.209197 -0.329077 0.283239
-0.204015 -0.326937 0.29371
-0.199456 -0.326055 0.298886
-0.195233 -0.325363 0.303768
-0.190696 -0.32393 0.308988
-0.18605 -0.322631 0.313928
-0.182269 -0.322256 0.317401
-0.177973 -0.322051 0.321269
-0.173632 -0.320786 0.327117
-0.168731 -0.319397 0.334519
-0.164727 -0.318223 0.33958
-0.160331 -0.317933 0.343795
-0.156475 -0.316445 0.3477
-0.152504 -0.316068 0.351402
-0.148201 -0.315316 0.354301
-0.144698 -0.315201 0.357047
-0.140792 -0.314341 0.359737
-0.136845 -0.314235 0.361616
-0.132486 -0.314072 0.36398
-0.12928 -0.313479 0.364555
-0.125293 -0.313065 0.366659
-0.121655 -0.313071 0.36738
-0.117784 -0.312262 0.368694
-0.114074 -0.312748 0.369223
-0.109849 -0.311749 0.371933
-0.106631 -0.312404 0.371501
-0.10251 -0.312007 0.372341
-0.0992205 -0.312069 0.371994
-0.0953205 -0.312332 0.371949
-0.0915987 -0.311578 0.373575
-0.0882374 -0.311714 0.375225
-0.0839115 -0.311279 0.376174
-0.080369 -0.310614 0.377789
-0.0768685 -0.310928 0.378028
-0.0733106 -0.310693 0.379149
-0.0694774 -0.310906 0.380239
-0.0655446 -0.310026 0.381694
-0.062197 -0.310252 0.383269
-0.0582684 -0.309617 0.383819
-0.0546944 -0.309277 0.385813
-0.0510082 -0.309149 0.386832
-0.0471595 -0.309038 0.387008
-0.043812 -0.309019 0.388947
-0.0402645 -0.308583 0.390242
-0.0362913 -0.308329 0.39182
-0.0326201 -0.308475 0.392136
-0.0287948 -0.307973 0.393854
-0.0253319 -0.308225 0.392955
-0.0219401 -0.307729 0.39391
-0.0181194 -0.307489 0.394903
-0.0144115 -0.307415 0.39533
-0.0110371 -0.307594 0.395315
-0.00746514 -0.307571 0.395496
-0.00359845 -0.307458 0.397346
-0.000201401 -0.307208 0.397083
0.00344472 -0.307054 0.398206
0.00713732 -0.306775 0.39901
0.0109424 -0.306905 0.399839
0.0141877 -0.306691 0.400405
0.0184969 -0.30636 0.401183
0.0219973 -0.305975 0.401755
0.0250487 -0.306301 0.401846
0.0287665 -0.306014 0.403248
0.0323265 -0.306353 0.402603
0.0359792 -0.306557 0.40191
0.0395478 -0.305839 0.403732
0.0430577 -0.305899 0.403856
0.047074 -0.305658 0.405179
0.0502788 -0.30524 0.406325
0.0538741 -0.305258 0.406529
0.0575223 -0.305543 0.406237
0.0614896 -0.305079 0.407947
0.0644175 -0.30488 0.408466
0.0680578 -0.30517 0.40812
0.0714014 -0.304874 0.409318
0.0754326 -0.304761 0.409106
0.0790446 -0.305211 0.407633
0.0827555 -0.30525 0.407786
0.0861694 -0.305296 0.407228
0.0895115 -0.305608 0.407137
0.0934266 -0.305228 0.406654
0.0971182 -0.305478 0.405869
0.10072 -0.30579 0.405025
0.104281 -0.306111 0.40413
0.108214 -0.306175 0.403394
0.111431 -0.306484 0.402083
0.115607 -0.306643 0.400248
0.118772 -0.306564 0.4
0.122834 -0.30675 0.399313
0.126632 -0.306813 0.398453
0.13004 -0.306978 0.398819
0.134209 -0.30727 0.397492
0.137268 -0.307186 0.397323
0.140531 -0.306769 0.398815
0.144466 -0.306669 0.400367
0.147828 -0.306255 0.403045
0.150941 -0.305663 0.404893
0.154524 -0.305133 0.407973
0.157828 -0.3047 0.409703
0.161146 -0.303766 0.414251
0.16389 -0.303352 0.417313
0.167458 -0.302916 0.420885
0.170656 -0.302216 0.423899
0.174091 -0.301343 0.426711
0.177127 -0.301405 0.428755
0.180326 -0.300613 0.431195
0.183512 -0.300084 0.433073
0.187098 -0.300141 0.434647
0.190377 -0.299613 0.436733
0.193896 -0.299534 0.437911
0.197236 -0.29899 0.439476
0.200917 -0.298797 0.44069
0.203751 -0.299048 0.440596
0.207098 -0.298587 0.441973
0.210731 -0.298747 0.442175
0.214158 -0.298455 0.443183
0.217717 -0.298191 0.443794
0.220897 -0.298516 0.442732
0.224411 -0.298436 0.444156
0.22845 -0.298488 0.443551
0.231535 -0.298429 0.44381
0.235071 -0.298716 0.443007
0.239153 -0.298576 0.442109
0.242593 -0.298938 0.441698
0.245925 -0.298874 0.441194
0.24982 -0.299171 0.439966
0.253376 -0.299204 0.438841
0.257369 -0.29949 0.437427
0.261146 -0.299924 0.435719
0.264648 -0.300318 0.434033
0.26838 -0.300423 0.432337
0.272241 -0.300767 0.430865
0.276727 -0.301382 0.427813
0.280612 -0.30174 0.425933
0.284194 -0.302057 0.42377
0.288834 -0.30311 0.419892
0.292681 -0.303869 0.416565
0.296914 -0.304217 0.413305
0.301459 -0.304905 0.409266
0.305549 -0.305904 0.404664
0.310492 -0.306675 0.40002
0.315155 -0.307688 0.39431
0.319727 -0.308905 0.388822
0.325604 -0.310869 0.37891
0.331533 -0.313058 0.366416
-0.308994 -0.370861 0.0428776
-0.301405 -0.367327 0.0634172
-0.296019 -0.365582 0.0711397
-0.290269 -0.364443 0.0786251
-0.285194 -0.362962 0.0838046
-0.280058 -0.362027 0.0878836
-0.275761 -0.361404 0.0921096
-0.27058 -0.360818 0.0949554
-0.266301 -0.360593 0.0970256
-0.261479 -0.360045 0.0994954
-0.256561 -0.359344 0.102041
-0.252049 -0.359457 0.103539
-0.24803 -0.35818 0.106423
-0.242687 -0.357913 0.10908
-0.22096 -0.33142 0.251137
-0.213753 -0.326522 0.276138
-0.208343 -0.324376 0.288668
-0.203592 -0.322522 0.296899
-0.199212 -0.321658 0.302382
-0.194968 -0.321124 0.305935
-0.190506 -0.319809 0.311755
-0.185915 -0.318777 0.315383
-0.181965 -0.318592 0.319772
-0.177404 -0.317431 0.325012
-0.172899 -0.315968 0.33173
-0.168736 -0.315001 0.337023
-0.164864 -0.314463 0.341673
-0.159838 -0.312959 0.347446
-0.156426 -0.312509 0.349959
-0.152032 -0.311558 0.353732
-0.148176 -0.311082 0.356234
-0.144382 -0.311229 0.358004
-0.140725 -0.310487 0.360345
-0.136418 -0.310093 0.362902
-0.132784 -0.309929 0.364279
-0.128807 -0.309505 0.36665
-0.125239 -0.309523 0.368192
-0.121356 -0.309238 0.36909
-0.117852 -0.309138 0.369208
-0.114078 -0.308339 0.371486
-0.110323 -0.308368 0.371831
-0.106438 -0.308218 0.371794
-0.102726 -0.308432 0.372811
-0.0990466 -0.308141 0.373969
-0.0951893 -0.308054 0.373974
-0.091497 -0.307812 0.375606
-0.0880222 -0.307656 0.376294
-0.084016 -0.307405 0.37699
-0.0803449 -0.307402 0.377893
-0.0768772 -0.307008 0.378697
-0.0726617 -0.306825 0.380518
-0.0690994 -0.306836 0.381599
-0.0656563 -0.306267 0.383242
-0.06218 -0.306453 0.383487
-0.058434 -0.306211 0.384495
-0.054649 -0.305916 0.385138
-0.0509101 -0.30573 0.38765
-0.0472205 -0.305055 0.387808
-0.0437077 -0.305154 0.389407
-0.0397309 -0.304982 0.390166
-0.0361287 -0.304875 0.391208
-0.0325531 -0.304656 0.391004
-0.0291253 -0.30487 0.392001
-0.0253324 -0.304408 0.393157
-0.0214791 -0.304322 0.39353
-0.0182487 -0.304484 0.395069
-0.0145652 -0.304514 0.394313
-0.0109442 -0.304298 0.394989
-0.00721749 -0.303575 0.396082
-0.00381831 -0.303553 0.395999
0.000278189 -0.303436 0.397242
0.00380097 -0.303469 0.398472
0.00733814 -0.303104 0.400001
0.0107818 -0.303002 0.400007
0.0146631 -0.302551 0.401017
0.0179691 -0.302789 0.401426
0.0216506 -0.303029 0.401793
0.0252494 -0.302867 0.403202
0.0286545 -0.302359 0.403307
0.0323981 -0.302204 0.4031
0.035848 -0.302144 0.403477
0.0395471 -0.302566 0.403461
0.0432614 -0.301702 0.405132
0.0464317 -0.302154 0.405607
0.0500814 -0.301989 0.405496
0.0537962 -0.301711 0.406429
0.0575307 -0.301724 0.407211
0.0609166 -0.301941 0.407547
0.0644508 -0.301433 0.408597
0.0683075 -0.301323 0.408991
0.0716076 -0.301023 0.409233
0.0750084 -0.301158 0.409557
0.0787193 -0.301314 0.408806
0.0826498 -0.301517 0.409339
0.0865333 -0.30142 0.408043
0.0896589 -0.301658 0.408081
0.0932486 -0.301576 0.408137
0.0969978 -0.301928 0.406514
0.100525 -0.301842 0.405792
0.104309 -0.302109 0.404469
0.107913 -0.302205 0.404369
0.111777 -0.30196 0.402958
0.115448 -0.302869 0.402047
0.11914 -0.302919 0.401193
0.122586 -0.303016 0.400713
0.126656 -0.303029 0.399946
0.130071 -0.303259 0.398736
0.133361 -0.30353 0.398266
0.137248 -0.303261 0.398562
0.141056 -0.303334 0.398616
0.144237 -0.303211 0.398908
0.148268 -0.302861 0.40006
0.151367 -0.302582 0.401657
0.154969 -0.30195 0.404405
0.158131 -0.301605 0.407899
0.161164 -0.300919 0.411179
0.16465 -0.300303 0.414525
0.167531 -0.299891 0.417467
0.170636 -0.299227 0.42127
0.174098 -0.298335 0.424525
0.177323 -0.297927 0.427686
0.180627 -0.297488 0.429075
0.184004 -0.297184 0.431818
0.187541 -0.296372 0.43278
0.190604 -0.296172 0.435438
0.193991 -0.296075 0.43707
0.197073 -0.295813 0.438674
0.20072 -0.295582 0.439
0.204161 -0.295576 0.440445
0.20732 -0.295264 0.44156
0.210799 -0.295429 0.44202
0.214348 -0.295 0.442049
0.21747 -0.295433 0.442829
0.221671 -0.295048 0.442441
0.224701 -0.294923 0.442965
0.22822 -0.295264 0.443371
0.23169 -0.295016 0.443597
0.235446 -0.295435 0.442081
0.23898 -0.294958 0.442198
0.242458 -0.295293 0.441644
0.24644 -0.295492 0.440353
0.249837 -0.295692 0.439738
0.253304 -0.295306 0.439638
0.257297 -0.29614 0.437538
0.260764 -0.296355 0.437011
0.264949 -0.296368 0.43416
0.268514 -0.297009 0.432978
0.272779 -0.297595 0.430154
0.276702 -0.297552 0.428148
0.280478 -0.298586 0.425677
0.284842 -0.298879 0.4228
0.288462 -0.299065 0.420493
0.292758 -0.299889 0.417439
0.297018 -0.300651 0.41358
0.301626 -0.300911 0.409028
0.305859 -0.302095 0.405015
0.310179 -0.302823 0.400723
0.314764 -0.303813 0.395379
0.320046 -0.305198 0.389083
0.325186 -0.306853 0.380062
0.331316 -0.30928 0.367883
-0.301181 -0.36253 0.0635018
-0.29519 -0.360645 0.0736548
-0.289842 -0.359511 0.08003
-0.284889 -0.358588 0.0851978
-0.280018 -0.357832 0.0885324
-0.275108 -0.357097 0.0923129
-0.270826 -0.356974 0.0943531
-0.266148 -0.356078 0.097098
-0.261549 -0.355676 0.099759
-0.256595 -0.355089 0.102083
-0.25224 -0.354618 0.104722
-0.247422 -0.354249 0.106356
-0.243452 -0.354041 0.107964
-0.219692 -0.326059 0.260383
-0.213136 -0.321693 0.282133
-0.208403 -0.319513 0.292276
-0.203101 -0.318171 0.299868
-0.198842 -0.317167 0.305184
-0.194446 -0.316656 0.308784
-0.189995 -0.315218 0.314563
-0.185774 -0.314756 0.317581
-0.181522 -0.314063 0.321816
-0.177071 -0.313074 0.328107
-0.172547 -0.311789 0.33415
-0.168631 -0.311047 0.339606
-0.164261 -0.309913 0.344344
-0.160501 -0.309072 0.34793
-0.156166 -0.308745 0.351663
-0.15242 -0.308143 0.354646
-0.147998 -0.307223 0.357828
-0.144182 -0.306641 0.361104
-0.140632 -0.307243 0.361333
-0.1364 -0.306031 0.364102
-0.132484 -0.306261 0.365141
-0.129146 -0.305784 0.366816
-0.12519 -0.305748 0.368747
-0.121426 -0.305179 0.370259
-0.117357 -0.30495 0.370406
-0.113421 -0.304527 0.372235
-0.110192 -0.304825 0.372211
-0.105969 -0.304608 0.37355
-0.102737 -0.304514 0.373559
-0.0988348 -0.304107 0.375201
-0.0948585 -0.304184 0.375151
-0.0915988 -0.30402 0.375923
-0.0877534 -0.303747 0.377451
-0.083951 -0.30356 0.378288
-0.0803279 -0.303159 0.380331
-0.076856 -0.303327 0.380572
-0.0728337 -0.302765 0.382208
-0.0688621 -0.302366 0.382412
-0.0657241 -0.302533 0.382829
-0.0617784 -0.302418 0.384972
-0.0582482 -0.301986 0.385967
-0.0546238 -0.302458 0.386976
-0.0509094 -0.302198 0.387485
-0.0470262 -0.301373 0.388662
-0.0434615 -0.301876 0.389309
-0.0401627 -0.301232 0.39053
-0.036079 -0.301183 0.39108
-0.0324631 -0.301032 0.392225
-0.0290337 -0.30082 0.393452
-0.0255467 -0.300693 0.39318
-0.022001 -0.300536 0.393673
-0.0181624 -0.300453 0.394263
-0.0145175 -0.300347 0.394227
-0.0109266 -0.30025 0.395771
-0.0072551 -0.300255 0.395545
-0.00381481 -0.300052 0.396745
-0.000207977 -0.299784 0.397941
0.00369746 -0.299758 0.39865
0.00751499 -0.29953 0.399261
0.0111283 -0.299234 0.400217
0.0142185 -0.299392 0.400134
0.0180263 -0.299009 0.402036
0.0214991 -0.298844 0.402649
0.0250111 -0.299024 0.402933
0.028824 -0.298984 0.402561
0.0324804 -0.299088 0.403304
0.0360139 -0.298591 0.404423
0.0394262 -0.298798 0.404455
0.0431153 -0.298405 0.405641
0.0467944 -0.298724 0.405066
0.050164 -0.29818 0.406358
0.0537928 -0.298306 0.407077
0.0573437 -0.298259 0.407321
0.0611341 -0.298081 0.407945
0.0647734 -0.297759 0.409031
0.0680663 -0.297719 0.410177
0.071659 -0.297599 0.410495
0.0756899 -0.297569 0.410569
0.0789764 -0.297562 0.409942
0.0828371 -0.297682 0.409522
0.0860957 -0.297807 0.4087
0.0898673 -0.29787 0.408215
0.0935245 -0.297868 0.408246
0.0970256 -0.298153 0.407328
0.100518 -0.298086 0.406508
0.103981 -0.298561 0.405977
0.108259 -0.298677 0.404763
0.111465 -0.298698 0.404937
0.115575 -0.299133 0.401736
0.11944 -0.299364 0.400899
0.123096 -0.299445 0.400022
0.126488 -0.299733 0.399658
0.129811 -0.299887 0.399241
0.133527 -0.299655 0.398358
0.137358 -0.300151 0.397803
0.141127 -0.299842 0.398147
0.144837 -0.299979 0.398115
0.147977 -0.299829 0.398643
0.151306 -0.299389 0.400467
0.15473 -0.298986 0.40353
0.158301 -0.298866 0.405385
0.161336 -0.297902 0.408816
0.164507 -0.297266 0.412342
0.168007 -0.296717 0.415766
0.170893 -0.296043 0.418558
0.174367 -0.29545 0.421818
0.177258 -0.294659 0.424991
0.181141 -0.293991 0.427278
0.184204 -0.294238 0.42989
0.187617 -0.29345 0.431894
0.190991 -0.29316 0.433139
0.194206 -0.292932 0.434846
0.197375 -0.292561 0.436662
0.200796 -0.292276 0.438251
0.20454 -0.292278 0.438109
0.207424 -0.292254 0.439924
0.211185 -0.291571 0.440948
0.214602 -0.292043 0.440837
0.217862 -0.291441 0.441687
0.221287 -0.291561 0.44263
0.224949 -0.291481 0.442971
0.228382 -0.291508 0.442713
0.231786 -0.291824 0.442728
0.235578 -0.291672 0.441993
0.238696 -0.291678 0.442364
0.242718 -0.291908 0.440734
0.24643 -0.292215 0.439618
0.249906 -0.292131 0.439454
0.254011 -0.292065 0.438819
0.25723 -0.292562 0.437106
0.260796 -0.292706 0.435729
0.264556 -0.293062 0.434275
0.26873 -0.293422 0.432335
0.272641 -0.294074 0.430663
0.275985 -0.293943 0.429186
0.280317 -0.29444 0.426203
0.284553 -0.295135 0.423269
0.288396 -0.29573 0.420386
0.292587 -0.296205 0.417679
0.297039 -0.296724 0.413644
0.301582 -0.298046 0.408675
0.305245 -0.298595 0.405985
0.31081 -0.299599 0.400351
0.31449 -0.300076 0.395972
0.319334 -0.301764 0.389903
0.325033 -0.302947 0.381045
0.331622 -0.305504 0.366906
-0.301121 -0.358086 0.0630652
-0.295904 -0.356389 0.073158
-0.289508 -0.354496 0.0817934
-0.284783 -0.354201 0.0847741
-0.280179 -0.353286 0.0895973
-0.275376 -0.352638 0.0935105
-0.270681 -0.35254 0.0961072
-0.265797 -0.351199 0.0987765
-0.261559 -0.351373 0.100618
-0.256661 -0.350762 0.102683
-0.252064 -0.350101 0.104723
-0.247351 -0.35036 0.106815
-0.243022 -0.3502 0.108084
-0.217343 -0.318475 0.276562
-0.21238 -0.316864 0.287707
-0.207592 -0.315115 0.295829
-0.203177 -0.314456 0.301118
-0.19839 -0.313157 0.306903
-0.19422 -0.312385 0.310987
-0.1897 -0.311188 0.316734
-0.185792 -0.310478 0.319673
-0.181417 -0.309967 0.324431
-0.176725 -0.308253 0.331669
-0.172205 -0.307615 0.33724
-0.168371 -0.306608 0.341773
-0.16411 -0.306106 0.346121
-0.160306 -0.305234 0.34898
-0.156152 -0.304762 0.35285
-0.15219 -0.30408 0.355879
-0.148179 -0.303665 0.358249
-0.144108 -0.30316 0.360675
-0.140103 -0.302739 0.363426
-0.136234 -0.302257 0.365434
-0.132699 -0.301921 0.367139
-0.128867 -0.301743 0.368214
-0.124822 -0.301387 0.369929
-0.1211 -0.301166 0.37097
-0.117634 -0.301096 0.372303
-0.114025 -0.301021 0.372178
-0.109633 -0.300947 0.373528
-0.106122 -0.300254 0.375215
-0.102509 -0.300313 0.375983
-0.0986668 -0.300251 0.37545
-0.0952739 -0.299877 0.377251
-0.0915621 -0.299918 0.377363
-0.08775 -0.299724 0.378673
-0.0840058 -0.299499 0.379803
-0.0803053 -0.299385 0.3807
-0.076541 -0.299405 0.381666
-0.0731205 -0.298815 0.383355
-0.0694564 -0.298746 0.384156
-0.0652602 -0.2985 0.385608
-0.0622843 -0.298548 0.384849
-0.0581595 -0.298065 0.387161
-0.0539959 -0.297899 0.387761
-0.0510631 -0.298215 0.387522
-0.0472092 -0.297803 0.389339
-0.0438653 -0.29794 0.389202
-0.0396341 -0.297414 0.390701
-0.0362863 -0.297367 0.390578
-0.032303 -0.297482 0.391597
-0.0291177 -0.29722 0.392719
-0.0248426 -0.297593 0.392721
-0.0219289 -0.29712 0.393889
-0.0179964 -0.297007 0.393955
-0.0144577 -0.296964 0.395364
-0.0107148 -0.296659 0.395357
-0.00727655 -0.296868 0.39575
-0.00374449 -0.296546 0.39576
0.000295876 -0.296294 0.396651
0.00356319 -0.296013 0.398594
0.00727242 -0.29628 0.39931
0.0108404 -0.295473 0.400952
0.0145207 -0.295656 0.401048
0.0178663 -0.295871 0.40055
0.0215136 -0.295702 0.400621
0.0250533 -0.295694 0.401967
0.0286505 -0.295434 0.402881
0.032488 -0.295108 0.40376
0.0360232 -0.295239 0.404602
0.0400355 -0.294834 0.40545
0.0432212 -0.294987 0.405409
0.0468336 -0.294657 0.406102
0.0505856 -0.295097 0.405919
0.0538211 -0.294352 0.407524
0.0574917 -0.294159 0.408029
0.0608356 -0.294342 0.408413
0.0643107 -0.294335 0.408819
0.0680169 -0.293714 0.409794
0.071544 -0.29402 0.411024
0.0754279 -0.293849 0.409909
0.0791069 -0.29411 0.409275
0.0824467 -0.294033 0.41014
0.0863232 -0.293815 0.410166
0.0897729 -0.294113 0.409736
0.0933911 -0.294243 0.408589
0.0969397 -0.294188 0.408491
0.100595 -0.29443 0.407878
0.104503 -0.294509 0.407353
0.107814 -0.294797 0.405676
0.111703 -0.294844 0.404012
0.115479 -0.295378 0.403724
0.118955 -0.295316 0.403686
0.12277 -0.295878 0.401088
0.126391 -0.295749 0.400155
0.130051 -0.295802 0.399171
0.133439 -0.295902 0.399247
0.137601 -0.296401 0.39688
0.140974 -0.296358 0.398201
0.144725 -0.296356 0.39668
0.147985 -0.296307 0.39823
0.151572 -0.295841 0.399148
0.155034 -0.295806 0.400073
0.158437 -0.294956 0.403951
0.161936 -0.294902 0.406388
0.164858 -0.294082 0.409067
0.168086 -0.29335 0.413064
0.171554 -0.292535 0.416647
0.17466 -0.292237 0.420042
0.177857 -0.291724 0.422168
0.180772 -0.291498 0.425787
0.184078 -0.290843 0.427605
0.187681 -0.29016 0.429353
0.19117 -0.289869 0.432495
0.194377 -0.289831 0.434302
0.197734 -0.289099 0.436197
0.20112 -0.288991 0.437051
0.204266 -0.288998 0.438061
0.207596 -0.288706 0.438817
0.211044 -0.288478 0.439803
0.214705 -0.288522 0.440264
0.218021 -0.288099 0.440926
0.22116 -0.288028 0.442219
0.225021 -0.287971 0.442169
0.228368 -0.287897 0.441532
0.231959 -0.288369 0.441456
0.235461 -0.28805 0.441631
0.239112 -0.288372 0.441592
0.242597 -0.288616 0.441519
0.246015 -0.288633 0.439714
0.250083 -0.288658 0.43812
0.253739 -0.289004 0.438364
0.257426 -0.288957 0.436873
0.261125 -0.289329 0.436182
0.264982 -0.289964 0.433937
0.268693 -0.290125 0.431727
0.272714 -0.290027 0.43022
0.276753 -0.291246 0.427445
0.28049 -0.291116 0.425715
0.284646 -0.29186 0.42296
0.288701 -0.292321 0.420066
0.292875 -0.292789 0.416721
0.297133 -0.293031 0.412708
0.301255 -0.294299 0.409497
0.305617 -0.294934 0.405715
0.309904 -0.295478 0.401813
0.314465 -0.296734 0.395932
0.319258 -0.297847 0.389616
0.324866 -0.299212 0.380755
0.33175 -0.302022 0.367185
-0.301526 -0.354118 0.0615768
-0.295297 -0.351855 0.074455
-0.290106 -0.350519 0.0812122
-0.28513 -0.349953 0.0864085
-0.280052 -0.348623 0.0910344
-0.27531 -0.348365 0.0938698
-0.270494 -0.347849 0.0975348
-0.265556 -0.346881 0.0993683
-0.260971 -0.346766 0.102003
-0.256737 -0.346352 0.103865
-0.252127 -0.345924 0.105995
-0.247493 -0.34591 0.10746
-0.22436 -0.318696 0.255067
-0.217657 -0.314557 0.279044
-0.211931 -0.312441 0.290645
-0.20682 -0.310605 0.299155
-0.202812 -0.310238 0.303082
-0.198417 -0.308694 0.309163
-0.194162 -0.308223 0.313167
-0.189469 -0.307114 0.318817
-0.185487 -0.30658 0.322368
-0.180955 -0.305289 0.328054
-0.17685 -0.305015 0.332359
-0.172072 -0.303689 0.338766
-0.168167 -0.302963 0.342617
-0.163817 -0.301976 0.347519
-0.160079 -0.301813 0.349787
-0.155886 -0.300475 0.353422
-0.151949 -0.300205 0.356835
-0.148059 -0.299381 0.359183
-0.144187 -0.299559 0.360453
-0.140105 -0.299137 0.36317
-0.136426 -0.298598 0.364906
-0.132604 -0.29821 0.367684
-0.128585 -0.297466 0.369632
-0.125251 -0.297859 0.369789
-0.121214 -0.297455 0.372077
-0.117905 -0.297234 0.37249
-0.11383 -0.297275 0.373664
-0.109901 -0.296904 0.373871
-0.106347 -0.297006 0.37569
-0.102658 -0.296727 0.376349
-0.0987519 -0.296737 0.376458
-0.0951156 -0.296598 0.378096
-0.0913783 -0.296215 0.379689
-0.0878185 -0.295737 0.380358
-0.0837558 -0.295929 0.381254
-0.0802899 -0.295535 0.382426
-0.0767317 -0.29517 0.383857
-0.0726303 -0.295409 0.38419
-0.0693635 -0.294898 0.385327
-0.0654927 -0.294695 0.385387
-0.0620768 -0.294479 0.386341
-0.0581847 -0.294262 0.387405
-0.0545867 -0.294747 0.387415
-0.0510622 -0.294786 0.387692
-0.0472339 -0.294108 0.389362
-0.0435639 -0.294085 0.389655
-0.0398098 -0.293907 0.390641
-0.0362493 -0.293858 0.391189
-0.0324902 -0.293915 0.392591
-0.0290209 -0.293525 0.393062
-0.0251618 -0.293795 0.393258
-0.0216803 -0.293429 0.393808
-0.0183215 -0.293559 0.394526
-0.0144088 -0.293339 0.394592
-0.010856 -0.29328 0.395181
-0.00733832 -0.293177 0.39742
-0.00356095 -0.292626 0.396339
-0.000266277 -0.292922 0.39649
0.00343097 -0.292764 0.397312
0.00711324 -0.292591 0.39932
0.0105631 -0.292347 0.399592
0.0143417 -0.291921 0.4009
0.0181429 -0.291953 0.401746
0.0215716 -0.291975 0.40169
0.0253966 -0.291625 0.402601
0.0284695 -0.291979 0.402885
0.0321413 -0.291636 0.403782
0.0362896 -0.291425 0.404519
0.0393604 -0.29141 0.404825
0.0432616 -0.291185 0.406327
0.0467748 -0.291214 0.406078
0.0503016 -0.290973 0.407199
0.0537183 -0.291114 0.407151
0.0573872 -0.291054 0.407452
0.0611255 -0.290763 0.409299
0.0645213 -0.290627 0.409229
0.0681576 -0.290257 0.410484
0.0713745 -0.290419 0.410484
0.0751913 -0.290277 0.410772
0.0789431 -0.290345 0.411025
0.0825427 -0.29 0.410219
0.0859322 -0.290656 0.40991
0.089158 -0.290333 0.410225
0.0933965 -0.290558 0.40903
0.0969375 -0.290765 0.408867
0.100959 -0.29066 0.408536
0.104447 -0.291096 0.406392
0.107762 -0.290941 0.406281
0.111285 -0.291165 0.405465
0.115422 -0.291312 0.403435
0.118586 -0.291817 0.40276
0.123001 -0.291848 0.402313
0.126189 -0.292341 0.400935
0.129653 -0.292453 0.39995
0.133642 -0.292754 0.398595
0.137359 -0.292313 0.39829
0.141056 -0.292476 0.397355
0.144662 -0.292992 0.397892
0.148085 -0.292342 0.397668
0.15149 -0.292471 0.398425
0.155289 -0.29226 0.39963
0.158731 -0.292178 0.401835
0.161981 -0.291453 0.403692
0.165274 -0.291075 0.407671
0.168313 -0.290692 0.409926
0.171782 -0.289629 0.414514
0.17517 -0.289217 0.417047
0.178435 -0.28886 0.419153
0.181502 -0.288103 0.424071
0.184809 -0.287628 0.425256
0.187736 -0.287184 0.428758
0.191026 -0.286588 0.430152
0.194278 -0.286402 0.431614
0.198073 -0.286207 0.433508
0.201359 -0.285876 0.434824
0.204684 -0.285508 0.436176
0.207814 -0.285469 0.437656
0.210876 -0.285106 0.438745
0.214794 -0.285252 0.438546
0.218185 -0.284928 0.439828
0.22168 -0.285031 0.44072
0.225077 -0.285008 0.440234
0.228432 -0.284777 0.441276
0.232415 -0.285086 0.440674
0.235506 -0.284868 0.440843
0.239335 -0.28518 0.439738
0.242545 -0.285399 0.440306
0.245997 -0.284991 0.439719
0.250242 -0.285544 0.437763
0.253505 -0.285574 0.437597
0.257554 -0.285498 0.436031
0.261284 -0.286029 0.43462
0.264884 -0.286302 0.433156
0.268694 -0.286379 0.432208
0.27248 -0.286891 0.43013
0.276511 -0.287315 0.428459
0.280709 -0.287674 0.425365
0.284738 -0.288107 0.422974
0.288351 -0.288334 0.421255
0.292767 -0.289279 0.417074
0.297073 -0.289753 0.413204
0.301367 -0.290823 0.409549
0.306035 -0.291534 0.404131
0.310001 -0.292312 0.400674
0.314721 -0.29312 0.395308
0.319749 -0.294211 0.388633
0.325252 -0.295909 0.379702
0.33163 -0.298205 0.366463
-0.301027 -0.348904 0.0651983
-0.294512 -0.346868 0.0768604
-0.290029 -0.345691 0.0822228
-0.284706 -0.345163 0.08745
-0.280024 -0.344717 0.0906726
-0.274662 -0.343901 0.0946639
-0.270528 -0.343299 0.0976074
-0.265666 -0.342503 0.101529
-0.260811 -0.342585 0.103167
-0.25651 -0.341972 0.104644
-0.252101 -0.342038 0.106799
-0.247329 -0.341545 0.108277
-0.222825 -0.312556 0.267477
-0.216875 -0.310286 0.282997
-0.212091 -0.308245 0.291595
-0.207034 -0.306835 0.299302
-0.20259 -0.306122 0.305317
-0.198224 -0.304637 0.309911
-0.193813 -0.304035 0.314184
-0.189477 -0.303298 0.319734
-0.185188 -0.302231 0.324534
-0.180734 -0.301209 0.329554
-0.176625 -0.30095 0.335224
-0.172272 -0.299744 0.339849
-0.167914 -0.298717 0.344254
-0.16401 -0.298335 0.347071
-0.159852 -0.297623 0.35052
-0.155766 -0.297459 0.35327
-0.152066 -0.296411 0.357612
-0.147708 -0.295705 0.359578
-0.144009 -0.295081 0.362391
-0.140191 -0.294998 0.363981
-0.136326 -0.294951 0.366
-0.132382 -0.294091 0.36824
-0.128294 -0.293982 0.370027
-0.124615 -0.294148 0.371006
-0.121324 -0.293668 0.372187
-0.11765 -0.293878 0.373323
-0.113945 -0.293382 0.374319
-0.109929 -0.293252 0.375561
-0.106467 -0.292789 0.376672
-0.102628 -0.292561 0.376743
-0.0986093 -0.292691 0.378186
-0.0948528 -0.292258 0.379626
-0.0911449 -0.292307 0.379777
-0.0875695 -0.291902 0.381743
-0.0834085 -0.291666 0.382938
-0.0802768 -0.291612 0.383804
-0.0764184 -0.291454 0.384409
-0.0732716 -0.291222 0.384714
-0.0691544 -0.291074 0.386516
-0.0650471 -0.290845 0.386858
-0.0621438 -0.290907 0.387043
-0.058154 -0.2909 0.387688
-0.0541887 -0.290587 0.388623
-0.050826 -0.290509 0.389023
-0.0475154 -0.290596 0.390355
-0.043579 -0.290807 0.390593
-0.0398004 -0.290197 0.390785
-0.0363679 -0.290191 0.391271
-0.032809 -0.290416 0.391605
-0.0291344 -0.289935 0.393096
-0.0252409 -0.289832 0.393106
-0.0214665 -0.289817 0.393848
-0.0181315 -0.289756 0.393438
-0.0147274 -0.289799 0.394322
-0.0113071 -0.289186 0.395626
-0.00711901 -0.289351 0.396041
-0.0035651 -0.289359 0.39619
-0.000196975 -0.289217 0.397335
0.0035032 -0.288942 0.397481
0.0069874 -0.288675 0.399035
0.0108765 -0.288829 0.399007
0.0144106 -0.28876 0.400403
0.0179615 -0.288284 0.401617
0.0217573 -0.28803 0.40139
0.0253026 -0.288553 0.402544
0.0292653 -0.288176 0.402575
0.0324785 -0.287348 0.405003
0.0357085 -0.28766 0.40521
0.0396602 -0.287683 0.404872
0.0432589 -0.28758 0.406079
0.0466898 -0.287514 0.405966
0.0503919 -0.287449 0.406767
0.0538136 -0.287275 0.408073
0.0576878 -0.28729 0.408888
0.0611213 -0.286975 0.409061
0.0642566 -0.286759 0.410228
0.0680287 -0.286711 0.410763
0.0720211 -0.286779 0.410194
0.0752258 -0.286719 0.41108
0.0789881 -0.286691 0.411191
0.0824154 -0.286488 0.411226
0.0862044 -0.287002 0.410066
0.0900555 -0.286332 0.410729
0.0931079 -0.287392 0.409548
0.0969337 -0.286798 0.408437
0.100423 -0.28733 0.407855
0.103852 -0.287284 0.408477
0.107698 -0.287442 0.406176
0.111361 -0.287301 0.406467
0.114827 -0.28791 0.405193
0.119038 -0.288349 0.402777
0.122166 -0.28784 0.402985
0.126332 -0.288538 0.401255
0.129864 -0.28892 0.399518
0.133491 -0.288631 0.399264
0.137094 -0.289278 0.397404
0.140922 -0.289124 0.397169
0.144458 -0.289051 0.397395
0.147966 -0.289081 0.396674
0.15158 -0.289346 0.39724
0.154892 -0.289095 0.398407
0.158741 -0.288513 0.39925
0.162344 -0.288361 0.401321
0.165609 -0.287752 0.404936
0.168942 -0.287162 0.407208
0.171953 -0.286807 0.410337
0.175363 -0.285976 0.414832
0.178545 -0.285541 0.417688
0.181574 -0.285278 0.419746
0.185079 -0.284492 0.424213
0.188024 -0.283942 0.425056
0.191524 -0.283784 0.427862
0.194777 -0.283309 0.430608
0.197975 -0.28286 0.4315
0.201431 -0.282687 0.432709
0.204989 -0.282476 0.435476
0.207844 -0.282233 0.43589
0.211519 -0.282017 0.436997
0.214842 -0.281958 0.437728
0.21799 -0.281684 0.438615
0.221771 -0.281447 0.438672
0.225358 -0.28137 0.440485
0.228796 -0.281327 0.43969
0.232299 -0.281418 0.439361
0.235668 -0.2816 0.44025
0.239327 -0.28169 0.440421
0.242764 -0.28169 0.439543
0.24678 -0.28184 0.438081
0.250278 -0.281994 0.437275
0.253855 -0.282314 0.436274
0.257298 -0.282383 0.435722
0.261133 -0.2827 0.434029
0.264957 -0.282884 0.43341
0.269038 -0.283062 0.431487
0.273071 -0.283431 0.429061
0.276557 -0.283613 0.427396
0.280543 -0.283851 0.425068
0.284873 -0.284943 0.42248
0.288714 -0.284945 0.420288
0.293219 -0.285999 0.415363
0.29733 -0.286265 0.412715
0.301668 -0.287081 0.409141
0.306121 -0.287615 0.404491
0.310273 -0.288353 0.399805
0.314531 -0.289373 0.395089
0.319912 -0.290439 0.388281
0.325642 -0.29255 0.378261
0.331211 -0.294863 0.36716
-0.30092 -0.343846 0.0667033
-0.294682 -0.342473 0.0776287
-0.28859 -0.341174 0.0851437
-0.284772 -0.340431 0.0882615
-0.279955 -0.339294 0.0923164
-0.274699 -0.338682 0.0971987
-0.269933 -0.338573 0.100031
-0.265175 -0.337916 0.102604
-0.261148 -0.337755 0.103971
-0.256444 -0.337657 0.105306
-0.251592 -0.337348 0.108194
-0.246936 -0.336913 0.109384
-0.222533 -0.308022 0.27093
-0.216526 -0.305309 0.285443
-0.211694 -0.304115 0.2936
-0.207188 -0.302692 0.299559
-0.202474 -0.302128 0.305933
-0.197768 -0.300735 0.312356
-0.193717 -0.300001 0.315913
-0.189553 -0.29931 0.320083
-0.184995 -0.298576 0.325805
-0.180668 -0.297451 0.331356
-0.176236 -0.296759 0.336156
-0.172217 -0.295677 0.340067
-0.168426 -0.294887 0.343778
-0.16366 -0.294662 0.348418
-0.159755 -0.293879 0.351522
-0.155574 -0.293241 0.354388
-0.151966 -0.292538 0.357387
-0.148074 -0.292235 0.359551
-0.144093 -0.292118 0.361438
-0.140046 -0.2914 0.363481
-0.136784 -0.290957 0.36618
-0.132178 -0.290712 0.367692
-0.128658 -0.290699 0.36921
-0.124876 -0.290339 0.371451
-0.120793 -0.290011 0.37333
-0.117357 -0.289442 0.373876
-0.113574 -0.289483 0.375688
-0.109692 -0.289704 0.375726
-0.105929 -0.288678 0.377308
-0.102566 -0.28903 0.377867
-0.0986939 -0.28864 0.379009
-0.0951387 -0.288669 0.380734
-0.0913687 -0.288732 0.381225
-0.0877871 -0.288202 0.382206
-0.0836026 -0.287946 0.383998
-0.0801098 -0.287652 0.384502
-0.0765863 -0.287696 0.385124
-0.0726749 -0.287772 0.385407
-0.0690997 -0.286963 0.387258
-0.0650154 -0.287329 0.388469
-0.0619076 -0.287331 0.38852
-0.0579621 -0.28739 0.389181
-0.0542837 -0.28726 0.388917
-0.0508141 -0.286588 0.389979
-0.0477385 -0.28663 0.390248
-0.043317 -0.286256 0.391858
-0.0402373 -0.286728 0.391816
-0.0360729 -0.286405 0.392479
-0.0328772 -0.28669 0.391945
-0.0292759 -0.286287 0.393077
-0.0257298 -0.285945 0.394185
-0.0216664 -0.286178 0.393987
-0.0179363 -0.286063 0.394072
-0.0149658 -0.286346 0.394585
-0.0111269 -0.286174 0.394028
-0.00757017 -0.2859 0.395575
-0.00343006 -0.286042 0.395502
0.000105325 -0.284955 0.396494
0.00364181 -0.285497 0.397602
0.00693027 -0.285339 0.398519
0.0107074 -0.285256 0.399492
0.0140125 -0.284784 0.400368
0.0184813 -0.284901 0.401378
0.0214598 -0.284646 0.401618
0.0253834 -0.284721 0.402125
0.0289309 -0.284538 0.403345
0.0325135 -0.284423 0.404199
0.0360029 -0.284287 0.404287
0.039513 -0.284277 0.404929
0.0433702 -0.284012 0.40629
0.0467802 -0.283546 0.406749
0.04982 -0.283742 0.407703
0.0536514 -0.283993 0.407496
0.0571681 -0.283476 0.40883
0.060871 -0.282894 0.409017
0.0648106 -0.283684 0.409449
0.0681759 -0.28296 0.410794
0.0718014 -0.283357 0.410354
0.0755425 -0.283207 0.41109
0.0787655 -0.282856 0.411154
0.082188 -0.283117 0.41125
0.0861537 -0.282781 0.410768
0.0895131 -0.283113 0.410529
0.0934104 -0.283039 0.410566
0.096917 -0.28346 0.409402
0.100842 -0.28345 0.409049
0.104064 -0.283844 0.408053
0.108069 -0.283927 0.406711
0.111494 -0.284189 0.405744
0.115052 -0.283805 0.405162
0.118935 -0.284246 0.403555
0.122407 -0.284377 0.403137
0.126242 -0.284711 0.40172
0.129783 -0.2849 0.401275
0.133856 -0.285421 0.399424
0.137283 -0.285246 0.39721
0.140657 -0.28573 0.397214
0.144842 -0.28536 0.396571
0.148133 -0.285988 0.396324
0.151693 -0.285666 0.396529
0.15553 -0.28533 0.397217
0.159088 -0.285629 0.398437
0.162057 -0.285235 0.399847
0.165775 -0.284661 0.401521
0.169033 -0.284017 0.404713
0.172442 -0.283448 0.408478
0.175365 -0.283071 0.411657
0.178679 -0.282444 0.415299
0.182 -0.282176 0.417669
0.185213 -0.281386 0.42039
0.188452 -0.2808 0.422723
0.191669 -0.280352 0.42623
0.194784 -0.280513 0.427082
0.198184 -0.279995 0.429879
0.201305 -0.279195 0.431416
0.204818 -0.279212 0.433136
0.208156 -0.279214 0.433928
0.211866 -0.27912 0.434294
0.215248 -0.278487 0.436748
0.218775 -0.278761 0.436638
0.221883 -0.278587 0.437674
0.225582 -0.278184 0.438609
0.22885 -0.278195 0.438296
0.232642 -0.278198 0.437778
0.236205 -0.278236 0.437863
0.239485 -0.278491 0.437781
0.243328 -0.278213 0.437715
0.246793 -0.278257 0.437782
0.250311 -0.27841 0.436647
0.253999 -0.27877 0.435144
0.257594 -0.278988 0.434534
0.261644 -0.279389 0.432999
0.26542 -0.279561 0.431377
0.269239 -0.279733 0.430151
0.273087 -0.280106 0.428138
0.276268 -0.280316 0.427528
0.281073 -0.280857 0.423849
0.284557 -0.281302 0.421659
0.288508 -0.281529 0.418872
0.292478 -0.281585 0.41698
0.297515 -0.28272 0.412321
0.301562 -0.283719 0.408455
0.305946 -0.284442 0.404027
0.310216 -0.284953 0.399514
0.315564 -0.286314 0.392555
0.320076 -0.287453 0.386829
0.325846 -0.288965 0.377354
0.3323 -0.291672 0.362727
-0.301354 -0.340296 0.0668977
-0.294594 -0.337519 0.079483
-0.289307 -0.336827 0.0851671
-0.283847 -0.335519 0.0910239
-0.27926 -0.335316 0.0950873
-0.274293 -0.334697 0.0984124
-0.270235 -0.334136 0.0999634
-0.265698 -0.333617 0.102796
-0.260404 -0.332955 0.105778
-0.256156 -0.332803 0.107766
-0.251965 -0.332954 0.107877
-0.247068 -0.331999 0.110733
-0.221692 -0.303821 0.274698
-0.216687 -0.301624 0.284846
-0.21175 -0.300153 0.293653
-0.206726 -0.298669 0.301389
-0.202544 -0.297562 0.306051
-0.198093 -0.297233 0.311309
-0.193919 -0.296331 0.316205
-0.189129 -0.294951 0.321953
-0.184451 -0.294194 0.328376
-0.180514 -0.293242 0.332111
-0.176186 -0.293119 0.33611
-0.171974 -0.291921 0.339894
-0.168124 -0.291272 0.343912
-0.164001 -0.290858 0.347349
-0.159487 -0.289818 0.351268
-0.155747 -0.289801 0.353746
-0.151788 -0.289043 0.35682
-0.14765 -0.288996 0.358968
-0.144082 -0.288065 0.361949
-0.14002 -0.287331 0.364799
-0.136384 -0.287292 0.366363
-0.132508 -0.287105 0.367579
-0.128816 -0.28658 0.369502
-0.124988 -0.286508 0.370919
-0.120985 -0.285951 0.372963
-0.117153 -0.285844 0.374966
-0.113497 -0.285404 0.376241
-0.109825 -0.285682 0.376249
-0.106036 -0.285526 0.376459
-0.102184 -0.285108 0.378955
-0.0985665 -0.284838 0.380094
-0.0948113 -0.284357 0.381841
-0.0908255 -0.284403 0.382447
-0.0873962 -0.284358 0.383765
-0.0836523 -0.283815 0.385252
-0.080024 -0.283707 0.385205
-0.0763192 -0.283513 0.386322
-0.0724509 -0.283562 0.386923
-0.069036 -0.28352 0.387839
-0.0654573 -0.283301 0.389243
-0.0616837 -0.283475 0.38916
-0.0580692 -0.282986 0.390188
-0.0542813 -0.283202 0.390657
-0.0507639 -0.283196 0.391647
-0.0471673 -0.283122 0.391915
-0.0436571 -0.28305 0.39245
-0.0400218 -0.282749 0.392611
-0.0360851 -0.28258 0.393171
-0.0329485 -0.282813 0.39322
-0.0288761 -0.282726 0.393293
-0.0255652 -0.282459 0.39409
-0.021546 -0.282787 0.392902
-0.0180916 -0.281997 0.395411
-0.0145588 -0.282372 0.394532
-0.0107128 -0.282351 0.395085
-0.0071047 -0.281781 0.397371
-0.00366609 -0.282153 0.39634
-0.000303533 -0.281921 0.396589
0.00357129 -0.28222 0.397702
0.00690181 -0.28189 0.398612
0.01112 -0.281483 0.399506
0.0142785 -0.281344 0.399773
0.0181693 -0.281113 0.40149
0.0217335 -0.281538 0.400966
0.0252208 -0.281115 0.402388
0.0285913 -0.280891 0.403782
0.0325702 -0.280892 0.404227
0.0355831 -0.280869 0.405034
0.0394737 -0.280412 0.405308
0.0430381 -0.280429 0.406332
0.0469472 -0.280182 0.407276
0.0505451 -0.279947 0.408008
0.0543147 -0.280257 0.407481
0.0572803 -0.279835 0.408502
0.0616417 -0.279925 0.408877
0.0645716 -0.279447 0.410101
0.0681426 -0.279856 0.4104
0.0714977 -0.279224 0.410235
0.0754283 -0.279497 0.411554
0.0789583 -0.279614 0.411184
0.082649 -0.279726 0.410711
0.0862059 -0.279913 0.410064
0.0899495 -0.279699 0.410838
0.0935731 -0.279427 0.409812
0.0963568 -0.279938 0.409201
0.100654 -0.279759 0.408473
0.104021 -0.27995 0.408489
0.107715 -0.280154 0.407076
0.111378 -0.280752 0.405445
0.114838 -0.280491 0.40676
0.118942 -0.2808 0.404161
0.122492 -0.281306 0.40313
0.126153 -0.281246 0.401696
0.129822 -0.281374 0.399891
0.133568 -0.281671 0.398836
0.137621 -0.281675 0.398199
0.141048 -0.28204 0.397034
0.144872 -0.282251 0.39625
0.148575 -0.282268 0.396008
0.151934 -0.28214 0.39563
0.155607 -0.282282 0.396075
0.159136 -0.281906 0.396634
0.162235 -0.281845 0.397836
0.165956 -0.281378 0.400519
0.169413 -0.280671 0.401978
0.172589 -0.280497 0.404883
0.176025 -0.279913 0.40879
0.179145 -0.279088 0.413137
0.181914 -0.278945 0.414372
0.185479 -0.278156 0.418526
0.188502 -0.277831 0.420928
0.192157 -0.277341 0.423206
0.194969 -0.276989 0.426018
0.198845 -0.276378 0.427728
0.201465 -0.276218 0.429819
0.205252 -0.275765 0.431155
0.209019 -0.275942 0.431935
0.212091 -0.275543 0.432423
0.215158 -0.275383 0.434887
0.21873 -0.275042 0.435541
0.222406 -0.27509 0.436925
0.225694 -0.27473 0.436762
0.228982 -0.275196 0.437205
0.232955 -0.275136 0.438039
0.236151 -0.275005 0.437262
0.239495 -0.274554 0.437531
0.24353 -0.275114 0.435635
0.246878 -0.275196 0.436409
0.250464 -0.275193 0.435526
0.254225 -0.275169 0.435055
0.25824 -0.275511 0.433239
0.26138 -0.275686 0.432681
0.265343 -0.275914 0.43093
0.269085 -0.276132 0.430359
0.273589 -0.276443 0.427244
0.276981 -0.277025 0.42581
0.281046 -0.277267 0.423041
0.284841 -0.277455 0.421298
0.288872 -0.278288 0.41843
0.292914 -0.278639 0.415796
0.296955 -0.279553 0.412402
0.301411 -0.279883 0.408393
0.305997 -0.280755 0.404227
0.310666 -0.281913 0.39843
0.31567 -0.282907 0.392313
0.320488 -0.284062 0.385483
0.326319 -0.285876 0.374926
0.332932 -0.28869 0.359919
-0.300314 -0.335045 0.0703769
-0.294412 -0.333134 0.0808498
-0.288655 -0.332069 0.088233
-0.284311 -0.331332 0.0915321
-0.279036 -0.330376 0.0967703
-0.274435 -0.330109 0.0992481
-0.269568 -0.329933 0.102152
-0.265004 -0.328983 0.104042
-0.260307 -0.328866 0.106298
-0.255779 -0.328161 0.108451
-0.251234 -0.328082 0.110362
-0.228538 -0.303011 0.255569
-0.221568 -0.299526 0.275997
-0.216173 -0.297521 0.287197
-0.21122 -0.295808 0.29529
-0.207074 -0.295416 0.300862
-0.202678 -0.293864 0.306996
-0.197893 -0.292893 0.31206
-0.193635 -0.292438 0.317534
-0.189362 -0.291428 0.322822
-0.184984 -0.28992 0.328147
-0.18043 -0.289529 0.332005
-0.176505 -0.288945 0.336234
-0.172036 -0.288212 0.340847
-0.168147 -0.287492 0.34474
-0.163792 -0.286554 0.347832
-0.159626 -0.286338 0.350464
-0.155544 -0.285751 0.353951
-0.15165 -0.285353 0.356697
-0.147578 -0.285095 0.358917
-0.144002 -0.284724 0.361789
-0.140098 -0.283961 0.363917
-0.136114 -0.283902 0.36607
-0.132395 -0.283244 0.367195
-0.128453 -0.283111 0.370059
-0.124669 -0.283085 0.370757
-0.120975 -0.282111 0.373971
-0.117155 -0.282247 0.375059
-0.113399 -0.281905 0.376568
-0.109832 -0.281695 0.377241
-0.105774 -0.281458 0.379058
-0.10216 -0.281083 0.380535
-0.098581 -0.280911 0.381643
-0.0946931 -0.280648 0.382835
-0.0910434 -0.280976 0.38306
-0.0874797 -0.280596 0.384883
-0.0838581 -0.28031 0.385517
-0.0798877 -0.280218 0.386452
-0.0760801 -0.280123 0.387632
-0.0728053 -0.279788 0.388175
-0.0689155 -0.279854 0.388701
-0.06521 -0.279481 0.390138
-0.0614307 -0.279398 0.39036
-0.0581235 -0.279321 0.390735
-0.0545557 -0.279506 0.390715
-0.050758 -0.279189 0.391994
-0.0473848 -0.279127 0.391839
-0.043244 -0.279002 0.39309
-0.0399188 -0.278922 0.392855
-0.036353 -0.278903 0.393928
-0.0325794 -0.278839 0.394258
-0.0289436 -0.279235 0.393596
-0.0253053 -0.279201 0.394632
-0.0217496 -0.278897 0.394459
-0.0181537 -0.278594 0.394965
-0.0145967 -0.278837 0.395121
-0.0110759 -0.278526 0.395318
-0.00683914 -0.278689 0.39585
-0.00342368 -0.27862 0.395534
-9.46372e-05 -0.278486 0.396213
0.00338437 -0.27863 0.396401
0.00713026 -0.277969 0.397295
0.0105116 -0.27803 0.399506
0.0143483 -0.277784 0.400035
0.0180876 -0.278019 0.399845
0.0217181 -0.277492 0.401343
0.0249705 -0.277364 0.402927
0.0286623 -0.277565 0.402221
0.0322005 -0.277307 0.404327
0.0361548 -0.277313 0.403949
0.0397461 -0.277033 0.405753
0.043241 -0.27712 0.405939
0.0464946 -0.276821 0.406232
0.0500209 -0.276247 0.4076
0.0538668 -0.276242 0.407964
0.0575316 -0.276529 0.409201
0.0609665 -0.27611 0.410523
0.0644756 -0.275989 0.410516
0.0685495 -0.276262 0.41076
0.0715795 -0.276162 0.410993
0.0748439 -0.275837 0.410884
0.0788826 -0.275616 0.412107
0.0824152 -0.275864 0.410977
0.086248 -0.276025 0.410588
0.0896018 -0.276206 0.410638
0.0933641 -0.276014 0.410379
0.0968385 -0.276377 0.40945
0.10064 -0.276358 0.409019
0.104331 -0.276608 0.407196
0.107678 -0.276692 0.407908
0.111495 -0.276687 0.406545
0.115069 -0.276549 0.406543
0.118909 -0.277066 0.404837
0.122202 -0.277452 0.403418
0.126339 -0.27731 0.401693
0.129904 -0.277335 0.401779
0.133638 -0.277743 0.399459
0.137511 -0.278227 0.398729
0.140853 -0.278087 0.397809
0.144774 -0.278471 0.396621
0.148355 -0.278417 0.395596
0.152019 -0.279013 0.395052
0.155377 -0.27873 0.396039
0.159362 -0.278617 0.39633
0.16249 -0.2783 0.396771
0.166057 -0.278437 0.396715
0.169766 -0.277711 0.400166
0.172994 -0.277567 0.401616
0.176187 -0.277215 0.406508
0.179294 -0.276301 0.408375
0.182766 -0.275456 0.412808
0.185852 -0.275337 0.415342
0.189021 -0.27485 0.41657
0.192512 -0.274507 0.419924
0.195427 -0.273675 0.423184
0.198795 -0.273287 0.425082
0.20197 -0.273081 0.427733
0.205411 -0.272772 0.428663
0.208954 -0.27279 0.42952
0.211957 -0.272376 0.431586
0.215558 -0.271996 0.43256
0.21892 -0.271929 0.433
0.222641 -0.272067 0.434371
0.225412 -0.271645 0.435969
0.229095 -0.271539 0.436204
0.232753 -0.271713 0.435937
0.236853 -0.271696 0.435531
0.239692 -0.271708 0.435946
0.243319 -0.271674 0.434878
0.246802 -0.271464 0.435697
0.250285 -0.27177 0.434939
0.25432 -0.271714 0.43407
0.25787 -0.271879 0.432927
0.261871 -0.272418 0.430972
0.265464 -0.27264 0.429296
0.269604 -0.273105 0.42756
0.273213 -0.273278 0.426022
0.276843 -0.273609 0.425087
0.281086 -0.274225 0.42263
0.284598 -0.274099 0.420775
0.28904 -0.274685 0.417653
0.293563 -0.275258 0.413747
0.297267 -0.276117 0.411605
0.301649 -0.276942 0.407207
0.306183 -0.277547 0.402277
0.310968 -0.278466 0.397254
0.31594 -0.279637 0.391217
0.320619 -0.280511 0.38445
0.327224 -0.282841 0.371663
0.333766 -0.285357 0.355631
-0.300295 -0.330515 0.0718014
-0.294364 -0.328772 0.0821834
-0.288629 -0.327428 0.0893127
-0.283908 -0.327119 0.0937772
-0.278499 -0.325876 0.0981108
-0.27396 -0.325417 0.101143
-0.269579 -0.324968 0.10321
-0.264916 -0.324263 0.106085
-0.259918 -0.324359 0.108746
-0.255563 -0.323875 0.109229
-0.25131 -0.323676 0.111315
-0.227279 -0.29812 0.262655
-0.221727 -0.295828 0.275229
-0.216447 -0.293752 0.286095
-0.21221 -0.29246 0.292444
-0.207278 -0.291785 0.299805
-0.202326 -0.290352 0.307153
-0.197945 -0.289487 0.312063
-0.193391 -0.288612 0.317168
-0.189147 -0.287864 0.322805
-0.184704 -0.286109 0.32867
-0.18043 -0.285676 0.33287
-0.176511 -0.285141 0.3367
-0.172 -0.284485 0.340688
-0.168133 -0.283898 0.344003
-0.163907 -0.283217 0.347484
-0.160066 -0.282708 0.350515
-0.156044 -0.282192 0.35371
-0.15212 -0.281628 0.355922
-0.14812 -0.281461 0.35908
-0.144201 -0.28097 0.360185
-0.140331 -0.280427 0.363532
-0.136268 -0.280529 0.364893
-0.132504 -0.280047 0.367701
-0.128782 -0.279403 0.369282
-0.124807 -0.27933 0.371202
-0.120877 -0.278847 0.373861
-0.117463 -0.278364 0.375197
-0.113536 -0.278356 0.376555
-0.109997 -0.277904 0.377589
-0.106164 -0.277922 0.378376
-0.102121 -0.277729 0.379771
-0.0987766 -0.277491 0.381755
-0.0950268 -0.277059 0.383294
-0.0912863 -0.277028 0.383995
-0.0877362 -0.276616 0.385917
-0.0836823 -0.276883 0.385824
-0.0799173 -0.276378 0.386181
-0.0765156 -0.276438 0.387329
-0.0729411 -0.275878 0.389131
-0.0693846 -0.276079 0.389699
-0.0652497 -0.275408 0.390675
-0.0612471 -0.275804 0.391187
-0.0581529 -0.275649 0.390924
-0.0545231 -0.275301 0.392267
-0.0506637 -0.275397 0.393378
-0.0472106 -0.275285 0.393055
-0.0436459 -0.275269 0.393618
-0.0401708 -0.275271 0.39345
-0.0363091 -0.275001 0.395034
-0.0328569 -0.275008 0.394242
-0.0288131 -0.275237 0.395001
