ply
format ascii 1.0
element vertex 1682
property float x
property float y
property float z
end_header
-0.195712 -0.276915 0.111887
-0.191283 -0.276268 0.116378
-0.186774 -0.275569 0.121202
-0.181941 -0.275394 0.124532
-0.177318 -0.274252 0.129104
-0.17275 -0.273649 0.13137
-0.168008 -0.273586 0.134129
-0.164118 -0.273349 0.136067
-0.159448 -0.273308 0.137557
-0.155263 -0.272938 0.138762
-0.150979 -0.272517 0.141375
-0.146534 -0.272366 0.142104
-0.142365 -0.272199 0.143381
-0.137982 -0.271913 0.143636
-0.133774 -0.272081 0.144819
-0.129686 -0.272109 0.144977
-0.125538 -0.271723 0.145168
-0.121366 -0.271919 0.146202
-0.117131 -0.27224 0.145808
-0.113159 -0.271876 0.145682
-0.108816 -0.271621 0.146708
-0.104741 -0.271587 0.145103
-0.100018 -0.27199 0.144795
-0.0962603 -0.272234 0.14414
-0.0918864 -0.272229 0.144076
-0.087941 -0.272182 0.143869
-0.0834383 -0.271974 0.143395
-0.0796386 -0.272426 0.142083
-0.0757038 -0.272468 0.142446
-0.0713111 -0.272723 0.141402
-0.0669028 -0.272203 0.142845
-0.062821 -0.273185 0.140019
-0.0584727 -0.272416 0.140401
-0.0542308 -0.272666 0.140851
-0.0501228 -0.272659 0.14171
-0.0462404 -0.272852 0.141156
-0.0420378 -0.272605 0.141933
-0.0373732 -0.272136 0.144082
-0.0333373 -0.272071 0.146159
-0.0287955 -0.271215 0.150457
-0.0250631 -0.270424 0.15575
-0.020486 -0.269137 0.164436
-0.0165143 -0.266947 0.177858
-0.0124305 -0.265136 0.189674
-0.00809925 -0.264669 0.197122
-0.00437367 -0.263385 0.202752
-0.000122614 -0.26243 0.208077
0.00408821 -0.261918 0.212904
0.00793821 -0.261004 0.216931
0.0117654 -0.260905 0.221131
0.0161436 -0.259597 0.228177
0.0201021 -0.258884 0.233994
0.0238307 -0.257992 0.242058
0.0274019 -0.256113 0.253155
0.0309811 -0.253952 0.265562
0.035184 -0.252612 0.275753
0.0387485 -0.251744 0.282904
0.0426506 -0.251126 0.288008
0.0460026 -0.250478 0.292667
0.049885 -0.249771 0.297063
0.053579 -0.249294 0.300609
0.0573366 -0.248634 0.304147
0.0614039 -0.24845 0.307368
0.0644873 -0.248003 0.309678
0.0684418 -0.247375 0.312773
0.0722083 -0.247028 0.315085
0.0759784 -0.246698 0.317203
0.0796512 -0.246039 0.320495
0.0830434 -0.245956 0.322291
0.0868894 -0.245528 0.324727
0.0903887 -0.245455 0.325752
0.0943003 -0.244816 0.32819
0.098013 -0.244571 0.330692
0.101843 -0.244793 0.330664
0.105393 -0.244437 0.333351
0.108689 -0.243683 0.335992
0.112636 -0.243714 0.337193
0.116266 -0.243613 0.339404
0.119709 -0.243312 0.340318
0.123299 -0.242972 0.342075
0.12684 -0.243024 0.344335
0.130433 -0.242364 0.346181
0.13407 -0.24225 0.347268
0.13838 -0.242089 0.348384
0.141531 -0.241982 0.34944
0.145067 -0.242329 0.349016
0.148878 -0.242108 0.349768
0.152572 -0.241505 0.350092
0.15646 -0.242024 0.349639
0.159751 -0.241881 0.350392
0.163642 -0.242267 0.34928
0.16758 -0.241985 0.349516
0.1711 -0.242144 0.34804
0.175041 -0.241948 0.347707
0.179222 -0.242198 0.347137
0.182664 -0.242212 0.347041
0.186577 -0.242386 0.345889
0.189908 -0.2421 0.34629
0.193622 -0.242116 0.34631
0.197941 -0.242903 0.345011
0.201532 -0.242882 0.344439
0.205301 -0.242716 0.345106
0.208806 -0.24266 0.345063
0.212993 -0.242924 0.343347
0.216062 -0.242717 0.344606
0.220321 -0.24279 0.342872
0.224342 -0.243255 0.341478
0.228134 -0.243335 0.341009
0.232244 -0.243413 0.339381
0.235824 -0.243899 0.337913
0.240184 -0.24371 0.336726
0.244055 -0.243921 0.333967
0.24806 -0.244634 0.332342
0.252345 -0.244764 0.330365
0.256284 -0.244853 0.329164
0.260733 -0.24554 0.325262
0.264952 -0.245814 0.322782
0.268913 -0.246365 0.320939
0.273139 -0.246806 0.317212
0.27836 -0.247533 0.310712
0.282512 -0.248378 0.306292
0.286979 -0.249152 0.30148
0.29237 -0.250046 0.294562
0.296988 -0.250734 0.288049
0.302056 -0.251846 0.281339
0.307823 -0.253128 0.273085
0.312727 -0.254459 0.265199
0.319352 -0.255981 0.252807
-0.231107 -0.290506 -0.0103815
-0.22192 -0.284625 0.0299655
-0.211064 -0.275833 0.0880383
-0.205762 -0.274413 0.10042
-0.200338 -0.27327 0.108913
-0.195557 -0.272069 0.114833
-0.191225 -0.271527 0.119877
-0.185997 -0.270403 0.124594
-0.181783 -0.270145 0.127331
-0.177098 -0.269963 0.131156
-0.173145 -0.269303 0.133318
-0.16813 -0.269043 0.13552
-0.16388 -0.268496 0.138066
-0.159476 -0.268719 0.139974
-0.155014 -0.26819 0.141142
-0.150656 -0.267845 0.142692
-0.146986 -0.268071 0.14344
-0.142361 -0.267888 0.144204
-0.138263 -0.267606 0.146004
-0.133788 -0.267504 0.146432
-0.129452 -0.267703 0.146017
-0.125373 -0.267284 0.14701
-0.121197 -0.267618 0.146361
-0.117195 -0.267397 0.147365
-0.113101 -0.26733 0.14785
-0.108285 -0.267895 0.146329
-0.104632 -0.26731 0.147079
-0.100338 -0.267365 0.14711
-0.0960601 -0.267189 0.146066
-0.0919825 -0.267809 0.145537
-0.0876038 -0.267897 0.144708
-0.0838785 -0.2677 0.144693
-0.0795556 -0.267887 0.14315
-0.0756337 -0.267892 0.143166
-0.0709745 -0.267578 0.143403
-0.0672217 -0.268064 0.141586
-0.062889 -0.268234 0.141966
-0.0585579 -0.268022 0.14227
-0.0545044 -0.267779 0.142167
-0.0503771 -0.267801 0.143276
-0.0458786 -0.267982 0.143539
-0.0416391 -0.267475 0.145937
-0.0375505 -0.267406 0.14696
-0.0328578 -0.266877 0.149902
-0.0289315 -0.266363 0.153106
-0.0250493 -0.265867 0.159202
-0.0206511 -0.264114 0.170785
-0.0163147 -0.262235 0.185203
-0.0121859 -0.26037 0.196047
-0.00820565 -0.259631 0.201219
-0.00433129 -0.258738 0.205664
4.77902e-05 -0.258183 0.210297
0.00390525 -0.257606 0.215802
0.00798687 -0.256947 0.219162
0.011893 -0.256697 0.225257
0.0163456 -0.255482 0.232917
0.0195204 -0.253714 0.241166
0.0236309 -0.252411 0.251879
0.0273637 -0.250188 0.265907
0.0313812 -0.24898 0.275738
0.0348176 -0.247365 0.284589
0.0383862 -0.246864 0.289564
0.0425168 -0.246002 0.294471
0.046012 -0.245124 0.299924
0.0498007 -0.245139 0.302345
0.05338 -0.244441 0.306343
0.0570515 -0.243855 0.31009
0.0613304 -0.243738 0.312943
0.0647641 -0.243313 0.314645
0.0685477 -0.242835 0.317016
0.0718027 -0.241891 0.321103
0.0754235 -0.241934 0.323002
0.0796556 -0.241737 0.325016
0.0831557 -0.241633 0.326691
0.086832 -0.241941 0.327403
0.090263 -0.240918 0.330678
0.0939329 -0.240426 0.333169
0.0978607 -0.240531 0.334685
0.101388 -0.240133 0.336265
0.104562 -0.239531 0.338884
0.108556 -0.23933 0.340462
0.11229 -0.239729 0.341725
0.115943 -0.239009 0.34441
0.119229 -0.239154 0.345048
0.123267 -0.238937 0.346465
0.126534 -0.238426 0.3487
0.130297 -0.237919 0.350689
0.133916 -0.238199 0.351287
0.13755 -0.237946 0.352486
0.140712 -0.237877 0.354036
0.144819 -0.23743 0.355018
0.148243 -0.237416 0.354819
0.151959 -0.237214 0.355862
0.155958 -0.236963 0.355914
0.159283 -0.236918 0.35606
0.163356 -0.237424 0.354428
0.167123 -0.237866 0.353127
0.171006 -0.237652 0.352673
0.174256 -0.238079 0.352431
0.178569 -0.237817 0.351613
0.182605 -0.237976 0.351239
0.18624 -0.238126 0.350882
0.189843 -0.237933 0.350575
0.19358 -0.238053 0.350127
0.197326 -0.238489 0.349867
0.201 -0.238222 0.349723
0.204671 -0.238039 0.350577
0.208553 -0.238356 0.350214
0.212326 -0.238395 0.34922
0.216076 -0.238327 0.348705
0.219907 -0.238728 0.34691
0.223948 -0.238662 0.346487
0.227784 -0.238699 0.345078
0.231438 -0.239127 0.343643
0.235458 -0.239278 0.34275
0.239645 -0.239637 0.340398
0.243591 -0.24014 0.338917
0.247442 -0.240305 0.336436
0.251376 -0.240407 0.334995
0.25574 -0.241158 0.331353
0.259678 -0.240938 0.33039
0.264206 -0.24143 0.326913
0.267682 -0.241544 0.325245
0.272437 -0.242327 0.321705
0.277291 -0.243253 0.316438
0.2814 -0.244106 0.312212
0.286049 -0.244039 0.308678
0.291027 -0.24534 0.302211
0.295818 -0.245792 0.29677
0.300449 -0.246773 0.291123
0.305463 -0.247702 0.284009
0.311023 -0.248893 0.276699
0.315692 -0.249299 0.270735
0.322163 -0.252009 0.256778
0.330842 -0.255037 0.233595
-0.231186 -0.285468 -0.0100837
-0.221291 -0.279389 0.0349047
-0.2108 -0.271435 0.0914198
-0.205322 -0.269486 0.103363
-0.200428 -0.268341 0.11094
-0.195037 -0.267226 0.1185
-0.190546 -0.266722 0.122081
-0.185608 -0.266076 0.127338
-0.181427 -0.265857 0.130169
-0.177357 -0.265746 0.13262
-0.172408 -0.264915 0.136213
-0.168082 -0.264768 0.138195
-0.163809 -0.264242 0.140031
-0.159415 -0.263699 0.141584
-0.15482 -0.264441 0.142353
-0.150663 -0.263551 0.144522
-0.146401 -0.263548 0.145995
-0.142058 -0.263598 0.146501
-0.13801 -0.263082 0.147614
-0.13354 -0.262854 0.148143
-0.129528 -0.263534 0.147664
-0.125263 -0.262955 0.148123
-0.121 -0.26311 0.148339
-0.116805 -0.263321 0.148153
-0.112838 -0.262909 0.149542
-0.108662 -0.262989 0.148471
-0.104141 -0.262799 0.147722
-0.0999866 -0.262818 0.147718
-0.0961798 -0.263434 0.147073
-0.0922328 -0.263373 0.147103
-0.0879299 -0.263338 0.146496
-0.0839691 -0.263901 0.14522
-0.079582 -0.263331 0.145148
-0.0753441 -0.263373 0.145184
-0.0709234 -0.263738 0.144449
-0.0668008 -0.26383 0.14414
-0.0624888 -0.263651 0.144229
-0.0585484 -0.263658 0.14422
-0.054357 -0.263172 0.144381
-0.0503058 -0.263468 0.144814
-0.0464505 -0.263406 0.145914
-0.0414857 -0.262946 0.1475
-0.0378135 -0.262767 0.149452
-0.0333944 -0.262658 0.152028
-0.0292732 -0.261763 0.158039
-0.0245941 -0.260822 0.165608
-0.0202051 -0.259101 0.178929
-0.0164145 -0.257242 0.190872
-0.0121636 -0.25626 0.198428
-0.00823357 -0.255743 0.20336
-0.00426175 -0.255118 0.207654
-2.36365e-05 -0.25343 0.213718
0.003932 -0.25329 0.217947
0.00818384 -0.252406 0.223823
0.011886 -0.251456 0.229098
0.0158799 -0.250376 0.238468
0.0195436 -0.248811 0.249342
0.0236355 -0.24676 0.263966
0.0270837 -0.245083 0.274986
0.0308377 -0.243669 0.283816
0.0347943 -0.243128 0.28893
0.0385853 -0.24222 0.294535
0.042246 -0.241669 0.299685
0.0461244 -0.240939 0.30384
0.0497236 -0.240356 0.307933
0.0537117 -0.240549 0.310132
0.0572364 -0.239638 0.314476
0.0605763 -0.239298 0.316635
0.0646909 -0.238694 0.320297
0.0681861 -0.238631 0.322213
0.071875 -0.238178 0.324432
0.075325 -0.238008 0.326096
0.0788526 -0.237492 0.328579
0.0825857 -0.236911 0.33155
0.0866463 -0.236961 0.333727
0.0903129 -0.236307 0.335762
0.0937777 -0.236458 0.336298
0.0974078 -0.236589 0.338648
0.101196 -0.235723 0.34087
0.104915 -0.235553 0.341471
0.108079 -0.235205 0.344105
0.111564 -0.235076 0.345878
0.115622 -0.234711 0.347983
0.118964 -0.233961 0.350489
0.122385 -0.23414 0.351882
0.12622 -0.234528 0.352558
0.129826 -0.233744 0.354389
0.133713 -0.233897 0.35439
0.137201 -0.233606 0.357191
0.140773 -0.233317 0.357936
0.144576 -0.233173 0.358477
0.147836 -0.233016 0.359598
0.15179 -0.232866 0.360028
0.15506 -0.232965 0.360092
0.159021 -0.232713 0.360096
0.163172 -0.233463 0.358871
0.166804 -0.23351 0.357859
0.170387 -0.233586 0.356063
0.173893 -0.233506 0.357357
0.177892 -0.233272 0.356275
0.181829 -0.23361 0.355382
0.185304 -0.233539 0.35518
0.189436 -0.23373 0.354771
0.192766 -0.233802 0.354282
0.196538 -0.233697 0.354731
0.200314 -0.233549 0.354276
0.203998 -0.234277 0.353972
0.207895 -0.234417 0.352011
0.211949 -0.234102 0.353142
0.215803 -0.234197 0.351983
0.219452 -0.234073 0.35174
0.223251 -0.234714 0.350549
0.227336 -0.234591 0.34936
0.230904 -0.23473 0.346862
0.235081 -0.234822 0.346271
0.238989 -0.235088 0.344386
0.242985 -0.235709 0.342104
0.246672 -0.236177 0.340154
0.251209 -0.236126 0.337716
0.255205 -0.23658 0.335971
0.259031 -0.236429 0.33325
0.263764 -0.23686 0.33112
0.267803 -0.237132 0.32917
0.272213 -0.23793 0.324936
0.276053 -0.238361 0.322821
0.280564 -0.238638 0.318948
0.285159 -0.239723 0.313927
0.2899 -0.240431 0.308885
0.294406 -0.240971 0.304598
0.299797 -0.242024 0.297433
0.304328 -0.242768 0.292169
0.309395 -0.243774 0.285262
0.314817 -0.244949 0.277946
0.320036 -0.245876 0.270714
0.326073 -0.247377 0.259465
0.333241 -0.249964 0.24152
-0.231386 -0.28079 -0.0100079
-0.221333 -0.273753 0.0392594
-0.2107 -0.266057 0.0950264
-0.204487 -0.264915 0.106996
-0.199848 -0.263646 0.114522
-0.195267 -0.262983 0.119678
-0.19018 -0.261616 0.12569
-0.185864 -0.261404 0.12899
-0.181067 -0.261161 0.132758
-0.176599 -0.260807 0.133955
-0.172229 -0.260518 0.137759
-0.167698 -0.260229 0.140138
-0.163455 -0.259525 0.142296
-0.159115 -0.259677 0.14469
-0.155025 -0.259405 0.145516
-0.150194 -0.258783 0.146647
-0.146198 -0.259024 0.147448
-0.14238 -0.259082 0.147301
-0.137766 -0.258656 0.149654
-0.133662 -0.258578 0.149711
-0.130012 -0.258366 0.148749
-0.12475 -0.258647 0.150265
-0.121028 -0.258582 0.150488
-0.116356 -0.259153 0.150027
-0.112571 -0.258552 0.149342
-0.108494 -0.258356 0.15046
-0.104424 -0.258846 0.149563
-0.100448 -0.258985 0.149169
-0.0956643 -0.258851 0.149375
-0.0923281 -0.258643 0.148351
-0.0875358 -0.259431 0.146354
-0.0838868 -0.259229 0.146834
-0.079578 -0.259117 0.147165
-0.0751978 -0.259085 0.147366
-0.0710828 -0.25962 0.145329
-0.0669382 -0.259292 0.145409
-0.0626207 -0.259154 0.145263
-0.0582946 -0.259354 0.145185
-0.0545007 -0.259421 0.145363
-0.050343 -0.25952 0.146832
-0.0456842 -0.259051 0.147525
-0.0421375 -0.258658 0.148599
-0.0375458 -0.258149 0.152768
-0.0333882 -0.257991 0.155107
-0.0290005 -0.257341 0.161154
-0.0250637 -0.255844 0.170615
-0.0204444 -0.253667 0.185776
-0.0165738 -0.252345 0.194874
-0.0120025 -0.251688 0.201138
-0.00820437 -0.250695 0.206373
-0.00378191 -0.250317 0.211065
-0.000141064 -0.24934 0.21519
0.00419663 -0.249122 0.220047
0.00789963 -0.247993 0.22607
0.012082 -0.246619 0.234338
0.0156413 -0.245373 0.245446
0.0195883 -0.243249 0.261437
0.0233372 -0.241879 0.272583
0.0271653 -0.240057 0.282739
0.0310728 -0.23895 0.289412
0.0344858 -0.238433 0.295367
0.0385119 -0.237746 0.300153
0.0421587 -0.237368 0.303654
0.0460349 -0.236766 0.308036
0.0493955 -0.236244 0.312346
0.0530701 -0.235392 0.31593
0.0570302 -0.234671 0.318911
0.0605744 -0.235107 0.320737
0.064224 -0.234234 0.324631
0.0676105 -0.233932 0.326627
0.0718634 -0.233778 0.32842
0.0752232 -0.23295 0.332087
0.0786037 -0.233082 0.333568
0.0826681 -0.232773 0.335888
0.0866649 -0.232872 0.337001
0.0899279 -0.232016 0.339648
0.093546 -0.231779 0.34148
0.0971729 -0.231537 0.342627
0.100612 -0.231709 0.344179
0.104527 -0.231386 0.346255
0.10784 -0.23077 0.348167
0.111417 -0.230823 0.349355
0.115196 -0.230789 0.350414
0.118718 -0.230108 0.353833
0.122481 -0.230068 0.355465
0.125744 -0.230098 0.356237
0.129774 -0.229661 0.358493
0.133228 -0.229417 0.358879
0.136654 -0.228752 0.361639
0.140247 -0.228616 0.362063
0.143966 -0.228986 0.362934
0.147892 -0.228971 0.362821
0.15154 -0.228727 0.36342
0.155101 -0.229119 0.363718
0.158658 -0.228473 0.363536
0.162225 -0.22868 0.363017
0.166283 -0.229242 0.36195
0.170149 -0.228944 0.361921
0.173747 -0.228994 0.3613
0.177366 -0.229169 0.361307
0.181099 -0.229289 0.359854
0.184953 -0.229306 0.3596
0.1887 -0.229547 0.358543
0.192311 -0.229442 0.358416
0.196044 -0.229396 0.35968
0.199823 -0.229558 0.358686
0.203822 -0.229914 0.357615
0.207729 -0.229667 0.356968
0.21094 -0.22964 0.357602
0.215067 -0.229693 0.356389
0.21854 -0.229641 0.356059
0.222759 -0.230038 0.354694
0.226416 -0.230329 0.353049
0.23017 -0.230617 0.351959
0.234524 -0.230999 0.348668
0.238623 -0.231078 0.346857
0.242817 -0.231425 0.345612
0.246755 -0.231572 0.342833
0.250813 -0.232137 0.340698
0.254766 -0.232303 0.338839
0.259051 -0.232905 0.33651
0.262786 -0.232824 0.334438
0.267058 -0.233216 0.332026
0.271665 -0.23376 0.328753
0.275496 -0.233684 0.326096
0.279694 -0.23463 0.32281
0.284485 -0.235334 0.318818
0.288714 -0.235217 0.315111
0.293761 -0.236253 0.309782
0.298587 -0.237492 0.303745
0.302908 -0.23774 0.29926
0.308093 -0.238996 0.292523
0.313139 -0.239346 0.287365
0.318051 -0.240348 0.280609
0.323417 -0.241937 0.271876
0.329032 -0.243197 0.26281
0.336982 -0.245826 0.243585
-0.231054 -0.276416 -0.00803328
-0.217017 -0.264034 0.0768919
-0.210396 -0.261835 0.0978564
-0.204932 -0.260107 0.108115
-0.199827 -0.259515 0.115772
-0.194873 -0.258287 0.122381
-0.189723 -0.257448 0.12704
-0.185673 -0.256588 0.131428
-0.181249 -0.256708 0.132931
-0.176408 -0.256462 0.137072
-0.171919 -0.256182 0.140025
-0.16739 -0.255604 0.141451
-0.163426 -0.254897 0.144673
-0.159161 -0.255123 0.145944
-0.154581 -0.255026 0.146919
-0.150469 -0.254875 0.147993
-0.146279 -0.254395 0.149629
-0.141529 -0.254959 0.149959
-0.137501 -0.254648 0.149999
-0.133656 -0.254293 0.151238
-0.129307 -0.254025 0.152033
-0.124931 -0.254345 0.151586
-0.120782 -0.254391 0.151644
-0.116965 -0.254199 0.151095
-0.112794 -0.254074 0.151969
-0.108514 -0.254807 0.150263
-0.10418 -0.25445 0.15076
-0.0997512 -0.254315 0.150943
-0.095961 -0.254174 0.150889
-0.0921533 -0.254556 0.149521
-0.0881793 -0.254321 0.150302
-0.0837294 -0.254831 0.148691
-0.0795691 -0.25492 0.147896
-0.0751185 -0.254981 0.147215
-0.0710611 -0.255033 0.146755
-0.066825 -0.254961 0.146714
-0.0628965 -0.255231 0.146935
-0.0581718 -0.254845 0.147717
-0.0541234 -0.255387 0.14653
-0.050169 -0.254816 0.149035
-0.0459 -0.25442 0.149733
-0.0414035 -0.254265 0.151326
-0.0376142 -0.253943 0.154501
-0.0332192 -0.25329 0.160035
-0.0291828 -0.252205 0.166503
-0.0247193 -0.251176 0.177613
-0.0202594 -0.248986 0.191274
-0.0162778 -0.247687 0.199735
-0.0122022 -0.24725 0.202742
-0.00806771 -0.24576 0.208897
-0.00399759 -0.245387 0.21446
8.9436e-05 -0.245184 0.217949
0.00401876 -0.244495 0.223452
0.00800933 -0.243367 0.231638
0.0116007 -0.241704 0.24125
0.0158224 -0.239589 0.258489
0.0194596 -0.237483 0.273193
0.0231708 -0.235905 0.281379
0.0270589 -0.235057 0.287732
0.0308142 -0.234636 0.293571
0.0344718 -0.233597 0.300058
0.0383697 -0.233147 0.305063
0.0418759 -0.232913 0.30776
0.0456721 -0.232176 0.311734
0.0494782 -0.231201 0.316841
0.053454 -0.230933 0.319983
0.0565401 -0.230514 0.324083
0.0603812 -0.230332 0.326363
0.0643618 -0.229915 0.328373
0.06732 -0.229918 0.330219
0.071343 -0.229013 0.333413
0.0748501 -0.229307 0.334515
0.0785732 -0.228732 0.336918
0.082405 -0.228511 0.339794
0.0861568 -0.228436 0.340394
0.0895557 -0.228355 0.342165
0.0932553 -0.227535 0.344768
0.0972367 -0.22733 0.346508
0.100328 -0.227289 0.34796
0.104649 -0.227319 0.349156
0.107695 -0.226728 0.35135
0.11158 -0.226564 0.353585
0.115 -0.226049 0.355274
0.118599 -0.225989 0.356872
0.122259 -0.225798 0.359004
0.125949 -0.225625 0.360536
0.129468 -0.225518 0.361417
0.133071 -0.225565 0.362222
0.136194 -0.224977 0.363687
0.13996 -0.225296 0.365829
0.143709 -0.225291 0.36514
0.147661 -0.224542 0.366445
0.150824 -0.224391 0.366981
0.154931 -0.224911 0.366776
0.158515 -0.224612 0.366644
0.162434 -0.224748 0.366776
0.165726 -0.224953 0.364851
0.169596 -0.224425 0.36568
0.173116 -0.224747 0.364834
0.176992 -0.225141 0.36376
0.181211 -0.225183 0.362877
0.184577 -0.225026 0.362346
0.188393 -0.22539 0.362487
0.191725 -0.224871 0.363706
0.195595 -0.225457 0.362066
0.199484 -0.225706 0.361561
0.203424 -0.225205 0.362246
0.20707 -0.22529 0.36121
0.210808 -0.225576 0.361144
0.214456 -0.225794 0.359836
0.218639 -0.225837 0.358298
0.222534 -0.225967 0.358015
0.226036 -0.226126 0.357144
0.229979 -0.226749 0.354484
0.234036 -0.226575 0.352726
0.238392 -0.227221 0.350523
0.24182 -0.227238 0.349046
0.246059 -0.227211 0.347247
0.249956 -0.227623 0.344284
0.254068 -0.227975 0.342215
0.25811 -0.228449 0.340311
0.26226 -0.22867 0.33742
0.266918 -0.229107 0.334562
0.270906 -0.229467 0.331817
0.275116 -0.23028 0.328792
0.279442 -0.229877 0.326594
0.283976 -0.230854 0.321923
0.288266 -0.231153 0.318303
0.292528 -0.231828 0.314393
0.297884 -0.232624 0.308892
0.302187 -0.23319 0.304621
0.307041 -0.233848 0.299191
0.311607 -0.234514 0.294356
0.316317 -0.235457 0.28831
0.322253 -0.237002 0.279785
0.326901 -0.237769 0.273583
0.332916 -0.239026 0.263409
0.340049 -0.240691 0.24792
-0.231327 -0.271967 -0.00769949
-0.21593 -0.258988 0.0851464
-0.209976 -0.256657 0.101311
-0.204092 -0.254921 0.113433
-0.199557 -0.254036 0.119967
-0.194916 -0.253959 0.124349
-0.190283 -0.253141 0.129193
-0.185253 -0.252647 0.132991
-0.180566 -0.252289 0.136339
-0.176051 -0.251969 0.138906
-0.171607 -0.251295 0.142409
-0.167187 -0.251165 0.143475
-0.163122 -0.250815 0.144884
-0.158919 -0.250512 0.148089
-0.154081 -0.250136 0.14951
-0.150124 -0.249816 0.150181
-0.14593 -0.250157 0.150121
-0.1414 -0.249634 0.152375
-0.137766 -0.250016 0.151465
-0.133116 -0.250382 0.153255
-0.129335 -0.249673 0.152982
-0.125191 -0.249947 0.153331
-0.120899 -0.25027 0.153117
-0.116701 -0.249767 0.152913
-0.112547 -0.250014 0.152401
-0.108578 -0.250099 0.1529
-0.10415 -0.250099 0.151449
-0.0999933 -0.249835 0.151692
-0.096152 -0.249983 0.152546
-0.0915669 -0.250509 0.150332
-0.0874518 -0.249864 0.151507
-0.0833593 -0.250379 0.14947
-0.0793271 -0.250617 0.149119
-0.0751182 -0.250205 0.149268
-0.0709838 -0.250703 0.148478
-0.0669115 -0.250628 0.14764
-0.0625872 -0.250658 0.148666
-0.0584937 -0.250385 0.148732
-0.053688 -0.250559 0.148776
-0.0503513 -0.250526 0.149301
-0.0458916 -0.249976 0.151695
-0.0414232 -0.249707 0.153777
-0.0368092 -0.249559 0.158804
-0.0329655 -0.248566 0.162928
-0.028872 -0.247294 0.171805
-0.024656 -0.246001 0.183841
-0.0200623 -0.244253 0.194864
-0.0160895 -0.243173 0.202094
-0.0119514 -0.242682 0.205937
-0.0082618 -0.24214 0.211346
-0.00383481 -0.241506 0.215625
-0.00035143 -0.241016 0.219801
0.00378107 -0.239912 0.22706
0.0078247 -0.238355 0.237281
0.0122946 -0.236145 0.25603
0.0155028 -0.234154 0.268605
0.0194928 -0.23286 0.279358
0.023343 -0.231753 0.286694
0.0267765 -0.230908 0.292011
0.0309913 -0.230479 0.297745
0.0345038 -0.229543 0.303505
0.0385601 -0.229251 0.308687
0.0418219 -0.228449 0.312922
0.0452645 -0.227905 0.316665
0.0495274 -0.227345 0.320657
0.053047 -0.227021 0.323744
0.0562117 -0.226878 0.326693
0.060675 -0.226323 0.329405
0.0636884 -0.225461 0.332532
0.0676844 -0.224964 0.33438
0.0716331 -0.224953 0.336844
0.0749544 -0.224871 0.339
0.078572 -0.224307 0.341154
0.0820147 -0.224295 0.342886
0.0855355 -0.223956 0.34538
0.0895406 -0.223294 0.346852
0.0931928 -0.223706 0.347769
0.0967659 -0.223376 0.348914
0.100659 -0.223344 0.350972
0.103826 -0.222615 0.354015
0.107688 -0.222671 0.353416
0.111294 -0.222444 0.355497
0.114628 -0.222049 0.358025
0.118469 -0.222431 0.358967
0.122159 -0.221414 0.361353
0.12536 -0.221576 0.362778
0.129562 -0.221655 0.364055
0.132648 -0.220984 0.366266
0.136529 -0.220995 0.366888
0.139751 -0.22091 0.368104
0.143649 -0.220701 0.368995
0.147122 -0.220721 0.368796
0.150504 -0.220781 0.368883
0.154487 -0.221063 0.369016
0.158029 -0.220428 0.370624
0.161603 -0.220648 0.369983
0.165448 -0.220772 0.369294
0.169493 -0.220877 0.369028
0.172764 -0.220842 0.368993
0.177153 -0.221276 0.366439
0.180264 -0.220975 0.367004
0.184326 -0.221385 0.36623
0.18801 -0.221345 0.366001
0.191478 -0.221188 0.365908
0.19518 -0.221074 0.366227
0.198812 -0.220927 0.36631
0.203001 -0.220842 0.36483
0.206478 -0.221364 0.36427
0.210002 -0.221166 0.364618
0.213931 -0.22148 0.363171
0.218179 -0.221384 0.361912
0.221921 -0.221753 0.360639
0.225368 -0.222011 0.360129
0.229768 -0.222077 0.357036
0.23366 -0.222211 0.355131
0.237537 -0.222545 0.354491
0.241939 -0.222704 0.351865
0.245963 -0.223531 0.348935
0.249726 -0.22367 0.346794
0.254015 -0.223842 0.344666
0.257593 -0.224193 0.342297
0.262107 -0.224696 0.339097
0.266042 -0.224885 0.33735
0.270424 -0.225101 0.335164
0.274504 -0.225919 0.332305
0.279227 -0.226108 0.328206
0.283178 -0.226341 0.326294
0.287682 -0.226742 0.32216
0.292111 -0.227739 0.318169
0.296439 -0.228006 0.314356
0.301039 -0.228734 0.309774
0.30604 -0.229226 0.304865
0.310973 -0.230142 0.299012
0.31562 -0.231073 0.293607
0.320309 -0.231696 0.288158
0.325486 -0.232625 0.281544
0.330819 -0.233338 0.274018
0.336938 -0.235203 0.262822
0.344546 -0.23717 0.246051
-0.2287 -0.264478 0.0134673
-0.215388 -0.254396 0.0900942
-0.209372 -0.252149 0.104874
-0.203712 -0.250653 0.114872
-0.199062 -0.250511 0.121471
-0.194099 -0.248832 0.126774
-0.189667 -0.248479 0.13133
-0.184575 -0.248279 0.135109
-0.180681 -0.247967 0.138719
-0.176209 -0.246972 0.141407
-0.171547 -0.246736 0.144026
-0.167307 -0.246945 0.146453
-0.163054 -0.246847 0.147526
-0.158572 -0.246365 0.149081
-0.154307 -0.24593 0.151287
-0.149709 -0.245473 0.152612
-0.146006 -0.245983 0.152501
-0.141557 -0.245653 0.153126
-0.137497 -0.245797 0.153971
-0.133369 -0.245481 0.154633
-0.128652 -0.245766 0.154449
-0.124939 -0.245801 0.154497
-0.121102 -0.245434 0.153834
-0.116484 -0.245457 0.15475
-0.112223 -0.245524 0.155126
-0.107865 -0.245656 0.153972
-0.10416 -0.245557 0.153861
-0.0997141 -0.245606 0.153978
-0.0960139 -0.246157 0.153183
-0.0918687 -0.246223 0.151939
-0.0872459 -0.245827 0.151653
-0.0834192 -0.246239 0.151995
-0.0791478 -0.245561 0.151959
-0.0750356 -0.246005 0.150928
-0.0709947 -0.246027 0.150613
-0.0667252 -0.246201 0.149935
-0.062571 -0.245849 0.149915
-0.0588159 -0.245996 0.150584
-0.0539953 -0.246158 0.149969
-0.050257 -0.246008 0.151796
-0.0459967 -0.245685 0.153668
-0.0415545 -0.245078 0.156722
-0.037284 -0.244634 0.161671
-0.0454182 -0.332708 -0.502861
-0.0287622 -0.242299 0.177791
-0.0242599 -0.240878 0.190536
-0.0205953 -0.239936 0.198176
-0.0160987 -0.239165 0.204374
-0.0116913 -0.238194 0.208992
-0.00795076 -0.238074 0.213011
-0.0040863 -0.237059 0.218935
2.62339e-05 -0.236532 0.225278
0.0041842 -0.235103 0.235047
0.00799944 -0.232286 0.251039
0.0118989 -0.230789 0.265316
0.0156747 -0.229708 0.276119
0.0196578 -0.22776 0.285169
0.0229461 -0.227254 0.290866
0.0265494 -0.226911 0.296486
0.0307964 -0.225789 0.302123
0.0344915 -0.225336 0.307603
0.0377968 -0.224793 0.311567
0.0419265 -0.224058 0.31659
0.0453247 -0.223528 0.320405
0.0492339 -0.222729 0.323835
0.0526828 -0.222787 0.327214
0.0564907 -0.222195 0.330367
0.0601172 -0.222207 0.331979
0.0639355 -0.221369 0.33528
0.0676662 -0.221393 0.338206
0.0708818 -0.220729 0.3397
0.074952 -0.220541 0.341599
0.0786949 -0.220221 0.34383
0.0818013 -0.219858 0.347348
0.0859258 -0.219917 0.348256
0.0894821 -0.220046 0.34839
0.0929705 -0.219424 0.350553
0.0966527 -0.219512 0.351437
0.100122 -0.218984 0.353519
0.103429 -0.218825 0.354373
0.107492 -0.218836 0.356251
0.111123 -0.218674 0.357844
0.114732 -0.218071 0.360861
0.118424 -0.217847 0.361982
0.121871 -0.218032 0.362381
0.125257 -0.217508 0.365499
0.128768 -0.21726 0.366114
0.132373 -0.216907 0.368106
0.136312 -0.217208 0.368716
0.139565 -0.216866 0.369939
0.143164 -0.216804 0.370827
0.147022 -0.216874 0.371521
0.150896 -0.216251 0.372394
0.154102 -0.216602 0.37226
0.15761 -0.216468 0.372301
0.161616 -0.216631 0.372302
0.165305 -0.216842 0.372316
0.16915 -0.216822 0.371554
0.172555 -0.216506 0.371866
0.176254 -0.217244 0.369711
0.180137 -0.216854 0.369474
0.183721 -0.216992 0.369231
0.187598 -0.216881 0.369159
0.191409 -0.216679 0.368514
0.19509 -0.217295 0.367835
0.198745 -0.216632 0.369192
0.20223 -0.216742 0.369678
0.206243 -0.216863 0.367679
0.210092 -0.217832 0.365852
0.213695 -0.217377 0.366823
0.217791 -0.217485 0.364754
0.221832 -0.217712 0.364181
0.225198 -0.217795 0.363045
0.229299 -0.217831 0.360845
0.233361 -0.218202 0.358063
0.237299 -0.21857 0.357323
0.241392 -0.219319 0.353788
0.245228 -0.219091 0.35192
0.248842 -0.219425 0.350154
0.253538 -0.219666 0.347532
0.257583 -0.220063 0.344586
0.261432 -0.220784 0.342307
0.265942 -0.221179 0.339439
0.269456 -0.221106 0.338503
0.274157 -0.22097 0.335422
0.278055 -0.222196 0.332372
0.282612 -0.222464 0.328949
0.287166 -0.223071 0.325356
0.291285 -0.22317 0.322806
0.295362 -0.223423 0.318838
0.300564 -0.224814 0.313934
0.305115 -0.225081 0.30885
0.310036 -0.225695 0.304429
0.314565 -0.226392 0.299269
0.31934 -0.227203 0.293762
0.324039 -0.22722 0.288723
0.329213 -0.228707 0.281344
0.334937 -0.229248 0.273304
0.341031 -0.231501 0.261776
0.348569 -0.234043 0.243466
-0.239522 -0.267614 -0.0441406
-0.226355 -0.2576 0.0319853
-0.215018 -0.249576 0.0926603
-0.209323 -0.247917 0.106778
-0.204035 -0.246234 0.116569
-0.198825 -0.245208 0.124553
-0.193648 -0.244352 0.129418
-0.189745 -0.244351 0.132666
-0.184753 -0.243498 0.136942
-0.180423 -0.243193 0.140352
-0.175756 -0.242684 0.142365
-0.171592 -0.242361 0.145309
-0.16704 -0.242094 0.148325
-0.16269 -0.242057 0.149218
-0.158647 -0.241983 0.15029
-0.154619 -0.241789 0.151477
-0.150008 -0.241616 0.153825
-0.14563 -0.241754 0.154551
-0.141593 -0.241467 0.155193
-0.137486 -0.241214 0.155678
-0.133039 -0.240863 0.15654
-0.12883 -0.241082 0.15694
-0.124548 -0.241436 0.156015
-0.120502 -0.24158 0.155831
-0.116394 -0.241056 0.155953
-0.112353 -0.241334 0.155811
-0.108442 -0.241084 0.155811
-0.104105 -0.241171 0.155405
-0.0997146 -0.241442 0.154628
-0.0960696 -0.241499 0.154199
-0.0913195 -0.241079 0.154748
-0.0872735 -0.24138 0.153524
-0.0832156 -0.241526 0.153237
-0.0793195 -0.242071 0.151552
-0.0751873 -0.241896 0.151719
-0.0706655 -0.241506 0.151654
-0.0667524 -0.241571 0.151721
-0.0625337 -0.241627 0.151605
-0.0584901 -0.241743 0.152053
-0.054273 -0.241559 0.152902
-0.050148 -0.241534 0.153967
-0.0456351 -0.241515 0.156725
-0.0416787 -0.240768 0.159544
-0.0371807 -0.240403 0.163706
-0.0334399 -0.238954 0.170307
-0.0286264 -0.237802 0.182389
-0.0246048 -0.2363 0.193261
-0.0204082 -0.235138 0.200885
-0.0161567 -0.23479 0.205393
-0.0118656 -0.2342 0.210817
-0.00828287 -0.233038 0.216449
-0.00367414 -0.232306 0.223477
-0.000156311 -0.231491 0.230452
0.00401485 -0.230047 0.242959
0.00806409 -0.227346 0.261283
0.0113702 -0.22583 0.272624
0.0158088 -0.224571 0.282872
0.0194563 -0.223985 0.289132
0.0228186 -0.223048 0.294473
0.0268685 -0.221888 0.300796
0.030505 -0.221611 0.305693
0.0343568 -0.22083 0.310563
0.0383165 -0.2203 0.316571
0.0414083 -0.219414 0.320507
0.0452166 -0.219557 0.323533
0.0491438 -0.218795 0.326805
0.0527222 -0.218536 0.329642
0.0565364 -0.217846 0.334025
0.0599644 -0.217738 0.335491
0.0637915 -0.217558 0.339022
0.0674741 -0.217434 0.340798
0.0712466 -0.216717 0.343009
0.0749008 -0.216831 0.345068
0.0784693 -0.216123 0.346713
0.0819089 -0.216112 0.348341
0.0857431 -0.21547 0.35034
0.0892686 -0.215244 0.35187
0.0929404 -0.215291 0.352836
0.0966857 -0.215236 0.355021
0.0997965 -0.214896 0.356121
0.103424 -0.214458 0.357697
0.107222 -0.214824 0.358912
0.110898 -0.214683 0.360571
0.114355 -0.214459 0.362015
0.117935 -0.214156 0.364241
0.121273 -0.213778 0.365154
0.125104 -0.21366 0.36691
0.12918 -0.213127 0.368987
0.132251 -0.213103 0.36944
0.136091 -0.212921 0.371185
0.139621 -0.212929 0.371358
0.143163 -0.213031 0.372373
0.146882 -0.212451 0.37413
0.150498 -0.213171 0.37351
0.153806 -0.212461 0.374831
0.157476 -0.212569 0.374244
0.161428 -0.212959 0.373873
0.164985 -0.212986 0.373961
0.168673 -0.212877 0.373542
0.172469 -0.213013 0.373895
0.175961 -0.213004 0.372462
0.179768 -0.21273 0.372332
0.183312 -0.21294 0.372075
0.187313 -0.212892 0.372299
0.191006 -0.21289 0.371223
0.194672 -0.212888 0.371746
0.198224 -0.213057 0.371219
0.202118 -0.212777 0.371458
0.205902 -0.213274 0.370072
0.209531 -0.213318 0.36937
0.213478 -0.213277 0.368923
0.217064 -0.213148 0.367972
0.220981 -0.21372 0.366523
0.224607 -0.213912 0.365851
0.228286 -0.213956 0.36438
0.232686 -0.214304 0.362296
0.236617 -0.214912 0.359409
0.241008 -0.215221 0.357442
0.245178 -0.215432 0.354378
0.248691 -0.215694 0.352822
0.253153 -0.215858 0.349124
0.25705 -0.216358 0.347044
0.261089 -0.21645 0.345228
0.265152 -0.216631 0.342705
0.269113 -0.217029 0.340968
0.27361 -0.217562 0.337669
0.277737 -0.217883 0.335067
0.282238 -0.218441 0.331819
0.286531 -0.218743 0.329403
0.290907 -0.218352 0.32661
0.29522 -0.219695 0.321703
0.29941 -0.220145 0.318143
0.304499 -0.220809 0.313603
0.308729 -0.220902 0.309273
0.313461 -0.221956 0.304314
0.31805 -0.222272 0.300278
0.323368 -0.222882 0.293976
0.32785 -0.22362 0.288696
0.333519 -0.224366 0.28127
0.338998 -0.22618 0.271625
0.345293 -0.227615 0.26013
0.353226 -0.230385 0.239931
-0.238202 -0.260876 -0.0317831
-0.221474 -0.24761 0.0732052
-0.21439 -0.244852 0.0970345
-0.208791 -0.243001 0.109964
-0.20368 -0.24145 0.118969
-0.198967 -0.241118 0.125178
-0.193962 -0.24052 0.130459
-0.189345 -0.239955 0.134564
-0.184586 -0.239596 0.138435
-0.180312 -0.238911 0.140462
-0.175535 -0.238433 0.144263
-0.170931 -0.238168 0.147181
-0.166621 -0.23768 0.149479
-0.162988 -0.237801 0.151077
-0.158305 -0.237451 0.153053
-0.153539 -0.237314 0.153756
-0.149973 -0.237171 0.154922
-0.145524 -0.23697 0.156425
-0.141675 -0.237037 0.156132
-0.137476 -0.236695 0.156722
-0.133013 -0.236737 0.157936
-0.128821 -0.236969 0.157619
-0.124734 -0.236719 0.157821
-0.120333 -0.237079 0.158062
-0.116365 -0.237185 0.157233
-0.112432 -0.236872 0.157124
-0.108186 -0.236809 0.157877
-0.103598 -0.237218 0.156689
-0.099775 -0.236692 0.156962
-0.0958777 -0.23708 0.156466
-0.0914984 -0.237329 0.156084
-0.0874207 -0.237024 0.15531
-0.083576 -0.236864 0.154901
-0.0791355 -0.237395 0.154846
-0.0749774 -0.237492 0.15388
-0.0712746 -0.237201 0.153455
-0.0664839 -0.237554 0.152958
-0.0623909 -0.237375 0.152898
-0.058184 -0.237346 0.152826
-0.0545369 -0.237173 0.154289
-0.0497581 -0.236626 0.156803
-0.0456136 -0.236934 0.157584
-0.0417877 -0.236377 0.161427
-0.0376776 -0.235962 0.165848
-0.0327738 -0.234834 0.173729
-0.0287728 -0.233679 0.184923
-0.0241896 -0.231585 0.196727
-0.0202895 -0.230882 0.203422
-0.0163785 -0.229812 0.208937
-0.0121601 -0.229444 0.214297
-0.0075703 -0.229061 0.220719
-0.00421762 -0.228 0.227192
-0.000579755 -0.2269 0.236643
0.00394016 -0.223869 0.256727
0.00792652 -0.222648 0.269822
0.0117229 -0.22097 0.280964
0.01557 -0.220022 0.287504
0.0195423 -0.219324 0.292832
0.0230163 -0.218692 0.297974
0.0268935 -0.218357 0.303407
0.0302926 -0.217343 0.309093
0.0345506 -0.216558 0.314503
0.0379816 -0.215947 0.319418
0.0413178 -0.21602 0.322296
0.0452868 -0.215354 0.326729
0.0491012 -0.214567 0.329871
0.0524611 -0.214494 0.332896
0.0562562 -0.213995 0.33629
0.0600509 -0.213976 0.338017
0.0636815 -0.213426 0.340981
0.0672872 -0.212916 0.343903
0.0707228 -0.212684 0.344919
0.0746681 -0.212106 0.348165
0.078354 -0.212259 0.349051
0.0818762 -0.211953 0.351132
0.0854714 -0.212227 0.35193
0.0892809 -0.21142 0.354214
0.0924743 -0.21127 0.35651
0.0966078 -0.211253 0.356643
0.10025 -0.210852 0.35896
0.103877 -0.211019 0.359094
0.106866 -0.210962 0.360518
0.110714 -0.210661 0.361585
0.114566 -0.209976 0.365098
0.117831 -0.209875 0.365398
0.121443 -0.209834 0.367344
0.12499 -0.209471 0.36956
0.128661 -0.209526 0.370571
0.132308 -0.209549 0.370996
0.135621 -0.209297 0.37246
0.13945 -0.209313 0.373364
0.142914 -0.208926 0.374387
0.146687 -0.208893 0.375279
0.15009 -0.208815 0.376064
0.153879 -0.20889 0.375108
0.157275 -0.208599 0.375286
0.160992 -0.208665 0.376276
0.164722 -0.20862 0.375733
0.168349 -0.208819 0.376417
0.172305 -0.2089 0.37562
0.176191 -0.208848 0.374791
0.179544 -0.209065 0.374454
0.183302 -0.208665 0.374658
0.186813 -0.209124 0.373674
0.190786 -0.20904 0.374235
0.194042 -0.208865 0.374383
0.198338 -0.209029 0.373414
0.201641 -0.20896 0.373564
0.205189 -0.208917 0.373157
0.209111 -0.209451 0.372615
0.212882 -0.209556 0.372369
0.216563 -0.209534 0.371353
0.220994 -0.209757 0.369145
0.224007 -0.209718 0.368768
0.228251 -0.209894 0.368089
0.232462 -0.209859 0.365485
0.236191 -0.210318 0.364286
0.240219 -0.210639 0.361117
0.243972 -0.211236 0.358446
0.248633 -0.211131 0.356253
0.252424 -0.211428 0.354274
0.256379 -0.211988 0.350841
0.261034 -0.212471 0.348009
0.26512 -0.212976 0.345504
0.26912 -0.212736 0.344083
0.273281 -0.213425 0.34075
0.27728 -0.213904 0.338904
0.281452 -0.213819 0.336578
0.285665 -0.214054 0.333082
0.289782 -0.214478 0.331372
0.294462 -0.215149 0.326544
0.298456 -0.215639 0.323011
0.303649 -0.216531 0.317711
0.308223 -0.216847 0.313444
0.312776 -0.217744 0.308772
0.317211 -0.218226 0.303926
0.321991 -0.218437 0.299745
0.327103 -0.219014 0.293782
0.331783 -0.220113 0.287967
0.337664 -0.221257 0.278911
0.34335 -0.222442 0.270149
0.349761 -0.224098 0.256814
-0.23515 -0.253592 -0.00831509
-0.220878 -0.242649 0.0788972
-0.215143 -0.240652 0.0965687
-0.209174 -0.238584 0.110276
-0.203296 -0.237234 0.121004
-0.198574 -0.236605 0.127354
-0.193357 -0.235543 0.132935
-0.18921 -0.235311 0.136318
-0.184634 -0.234636 0.139597
-0.179844 -0.234304 0.142516
-0.175695 -0.234063 0.14614
-0.171379 -0.233748 0.148294
-0.166872 -0.233525 0.150231
-0.162087 -0.233195 0.152799
-0.158298 -0.233254 0.154257
-0.15381 -0.232799 0.155054
-0.150073 -0.232472 0.155999
-0.144948 -0.232477 0.158481
-0.141039 -0.232957 0.157851
-0.137038 -0.232772 0.159006
-0.133024 -0.2326 0.159288
-0.128706 -0.232151 0.159262
-0.124786 -0.23234 0.158321
-0.120141 -0.232219 0.159142
-0.116624 -0.232776 0.158917
-0.111952 -0.232427 0.159581
-0.107835 -0.232243 0.158709
-0.103615 -0.232724 0.158439
-0.099041 -0.232748 0.158175
-0.0953714 -0.23261 0.157802
-0.09164 -0.232503 0.156725
-0.0874774 -0.232833 0.156767
-0.0830346 -0.232616 0.155924
-0.078992 -0.232963 0.155274
-0.0750336 -0.233189 0.153835
-0.0705606 -0.232818 0.154494
-0.0664596 -0.233057 0.154244
-0.0626469 -0.233033 0.153951
-0.0580631 -0.232898 0.154699
-0.0540852 -0.232969 0.156279
-0.0498293 -0.232693 0.157792
-0.0455154 -0.23211 0.160303
-0.0417113 -0.232016 0.162949
-0.0372206 -0.231634 0.168326
-0.0325189 -0.229524 0.17942
-0.0285767 -0.228807 0.188316
-0.0242251 -0.227892 0.197971
-0.0201947 -0.226791 0.205886
-0.0161998 -0.225974 0.210658
-0.0123469 -0.225341 0.216375
-0.0079501 -0.224049 0.225756
-0.00392444 -0.223276 0.234631
0.000165055 -0.220823 0.251791
0.00388683 -0.218749 0.266055
0.00777085 -0.217721 0.276216
0.0114306 -0.216708 0.282987
0.0153815 -0.215799 0.290773
0.0186991 -0.215509 0.29478
0.0232735 -0.214816 0.301234
0.0266276 -0.213599 0.307364
0.030347 -0.213251 0.31125
0.033834 -0.213076 0.315837
0.0377682 -0.212091 0.321699
0.0415092 -0.211537 0.325149
0.0450046 -0.211245 0.328363
0.0488676 -0.210797 0.331884
0.0528058 -0.210128 0.335553
0.0562666 -0.209466 0.33901
0.0598855 -0.209842 0.340948
0.0636238 -0.209662 0.343231
0.067272 -0.208722 0.345331
0.0703826 -0.208715 0.347739
0.074396 -0.20821 0.350873
0.0781022 -0.208254 0.352199
0.0816173 -0.208039 0.35241
0.084967 -0.207453 0.355317
0.0889684 -0.207835 0.35652
0.0925656 -0.207096 0.357984
0.0961163 -0.207386 0.358233
0.0996746 -0.20721 0.360559
0.103376 -0.206852 0.362741
0.107199 -0.206921 0.363418
0.110198 -0.206408 0.364146
0.114291 -0.206892 0.365529
0.117869 -0.20617 0.366743
0.121631 -0.206112 0.369461
0.125159 -0.20597 0.369828
0.12856 -0.205631 0.371902
0.132021 -0.205426 0.373006
0.135681 -0.204971 0.374487
0.13917 -0.205166 0.375448
0.143097 -0.205045 0.375345
0.146745 -0.205131 0.376677
0.149776 -0.205334 0.377117
0.153641 -0.204962 0.377721
0.157355 -0.205249 0.376646
0.16078 -0.204592 0.377883
0.164924 -0.205247 0.377062
0.168253 -0.204777 0.376765
0.172246 -0.205073 0.376393
0.175785 -0.204855 0.377533
0.179359 -0.205227 0.376242
0.183173 -0.204703 0.376952
0.186962 -0.205374 0.37618
0.190295 -0.205334 0.375869
0.193931 -0.20481 0.376137
0.198078 -0.204969 0.376171
0.201822 -0.205115 0.374977
0.205427 -0.205181 0.375204
0.20912 -0.205282 0.374681
0.212729 -0.205475 0.374088
0.216446 -0.205196 0.373344
0.220378 -0.205457 0.372491
0.223891 -0.205393 0.37151
0.228161 -0.206156 0.36962
0.231833 -0.206005 0.369462
0.235932 -0.206168 0.366813
0.239929 -0.206532 0.364141
0.244064 -0.206833 0.361974
0.247654 -0.207222 0.35913
0.252018 -0.207621 0.356651
0.25619 -0.208031 0.354044
0.259992 -0.207863 0.352252
0.2642 -0.20833 0.349636
0.267924 -0.208772 0.347561
0.272342 -0.209132 0.345366
0.276644 -0.20944 0.342416
0.28081 -0.209245 0.34051
0.284968 -0.209927 0.33756
0.289431 -0.210559 0.334497
0.293498 -0.210668 0.331995
0.297906 -0.211227 0.327618
0.302362 -0.211838 0.323782
0.307414 -0.212291 0.318887
0.311755 -0.213123 0.314157
0.31631 -0.213598 0.309471
0.321532 -0.214617 0.303064
0.326098 -0.215238 0.298597
0.331289 -0.21574 0.292372
0.336639 -0.216404 0.285267
0.341931 -0.217527 0.277362
0.348292 -0.219373 0.265566
0.355496 -0.220935 0.250115
-0.234079 -0.247578 0.00435317
-0.221041 -0.238183 0.0799743
-0.213932 -0.235134 0.101498
-0.20836 -0.234388 0.113309
-0.203372 -0.232639 0.122238
-0.198222 -0.23242 0.129209
-0.194074 -0.23149 0.133479
-0.188791 -0.230664 0.137763
-0.184704 -0.230468 0.140507
-0.179849 -0.230481 0.143398
-0.175272 -0.230266 0.147267
-0.170976 -0.229545 0.149469
-0.166614 -0.229371 0.151771
-0.162648 -0.228914 0.152875
-0.158106 -0.228984 0.154718
-0.15361 -0.228598 0.156705
-0.149993 -0.228854 0.157943
-0.145246 -0.227971 0.158788
-0.141436 -0.228316 0.15977
-0.137171 -0.228297 0.160269
-0.133084 -0.228404 0.159748
-0.128647 -0.228199 0.160488
-0.124377 -0.227934 0.160613
-0.120536 -0.228399 0.160686
-0.115947 -0.22851 0.159419
-0.112107 -0.228177 0.160662
-0.107891 -0.228383 0.159688
-0.104 -0.228053 0.15924
-0.0999028 -0.228192 0.1591
-0.0952818 -0.228267 0.15882
-0.0919173 -0.228519 0.157976
-0.0873293 -0.228756 0.157736
-0.0827276 -0.228053 0.157609
-0.0791395 -0.22873 0.15587
-0.0750452 -0.228936 0.155645
-0.0707306 -0.228378 0.1562
-0.0663115 -0.228963 0.155161
-0.0621258 -0.22887 0.155258
-0.0582164 -0.228775 0.155797
-0.054059 -0.228889 0.156421
-0.0500687 -0.22866 0.157994
-0.0454702 -0.228132 0.162184
-0.0414288 -0.22729 0.165411
-0.0369745 -0.226744 0.172374
-0.0326129 -0.225821 0.182189
-0.0282761 -0.224115 0.193416
-0.0241477 -0.223344 0.200809
-0.0199373 -0.222187 0.207882
-0.0161747 -0.221599 0.213349
-0.0118557 -0.220755 0.221357
-0.00809215 -0.21964 0.230169
-0.00406716 -0.21797 0.243523
4.56314e-06 -0.215926 0.260075
0.00387631 -0.214132 0.272221
0.00750346 -0.213563 0.279337
0.0117948 -0.212423 0.287912
0.0153728 -0.211578 0.293749
0.0189811 -0.21059 0.299513
0.0231305 -0.210298 0.30443
0.0265212 -0.209898 0.308462
0.030361 -0.208689 0.315523
0.0345902 -0.208496 0.319889
0.0378108 -0.208069 0.323166
0.0412022 -0.207478 0.32778
0.044912 -0.207039 0.330295
0.0486988 -0.206772 0.333951
0.0525425 -0.206144 0.337224
0.0561856 -0.205785 0.340765
0.0599148 -0.205771 0.343162
0.0632852 -0.205046 0.346205
0.0669057 -0.205031 0.347557
0.0709406 -0.204476 0.350571
0.0741991 -0.20458 0.352248
0.0776978 -0.203986 0.354506
0.0815073 -0.20372 0.356507
0.0850877 -0.204102 0.356764
0.0891865 -0.203518 0.357849
0.0921197 -0.203212 0.359942
0.095736 -0.203465 0.35994
0.0999477 -0.203149 0.362841
0.103514 -0.202979 0.363256
0.106878 -0.202791 0.365352
0.110542 -0.202527 0.365667
0.114133 -0.202346 0.36648
0.117707 -0.20262 0.36837
0.121519 -0.202354 0.369756
0.125021 -0.201953 0.371475
0.128105 -0.201677 0.373631
0.132037 -0.201609 0.374719
0.135436 -0.201614 0.375195
0.139082 -0.201071 0.377408
0.142637 -0.201795 0.377064
0.146236 -0.201346 0.377858
0.150009 -0.201326 0.378603
0.153781 -0.20133 0.37856
0.157083 -0.201368 0.378869
0.160944 -0.200796 0.379765
0.16441 -0.200974 0.379498
0.16803 -0.20109 0.378546
0.171644 -0.200822 0.379359
0.175619 -0.201327 0.378621
0.179055 -0.200859 0.378771
0.18268 -0.200477 0.379038
0.186637 -0.20154 0.377682
0.190347 -0.201036 0.377824
0.194055 -0.201334 0.376631
0.197653 -0.201342 0.376934
0.20138 -0.201109 0.377228
0.205363 -0.20158 0.376361
0.208951 -0.201062 0.37719
0.212434 -0.201266 0.376416
0.216381 -0.201768 0.374131
0.21961 -0.201767 0.375055
0.223293 -0.201967 0.374282
0.227595 -0.201614 0.372336
0.230938 -0.201908 0.3715
0.235135 -0.20233 0.369702
0.239262 -0.202306 0.36761
0.243087 -0.202885 0.365389
0.247279 -0.20328 0.363311
0.251018 -0.203317 0.360945
0.255388 -0.203871 0.358281
0.259454 -0.203447 0.356657
0.263584 -0.204276 0.353519
0.267511 -0.204275 0.351792
0.271715 -0.204386 0.349287
0.275891 -0.205122 0.346906
0.279787 -0.20543 0.344689
0.284444 -0.205931 0.341439
0.288297 -0.206021 0.3399
0.293014 -0.206795 0.33601
0.296983 -0.206675 0.33294
0.301531 -0.20729 0.328729
0.306226 -0.208108 0.323323
0.310797 -0.208544 0.319722
0.315557 -0.209276 0.31436
0.320326 -0.209507 0.309466
0.324714 -0.210264 0.304596
0.330259 -0.211132 0.297765
0.335275 -0.212228 0.291012
0.340676 -0.213083 0.283434
0.34579 -0.213525 0.276585
0.352518 -0.215569 0.263012
0.360991 -0.217844 0.242784
-0.244328 -0.249064 -0.0428998
-0.232868 -0.241312 0.0164047
-0.220235 -0.232998 0.0844327
-0.214301 -0.231681 0.101348
-0.20827 -0.22932 0.115529
-0.202998 -0.228438 0.123814
-0.198038 -0.227771 0.130195
-0.193514 -0.227442 0.134604
-0.188947 -0.226879 0.137457
-0.184544 -0.225988 0.142344
-0.179664 -0.225669 0.145018
-0.175497 -0.225518 0.148017
-0.171367 -0.225489 0.149489
-0.166418 -0.224926 0.152453
-0.16245 -0.224753 0.15437
-0.157789 -0.224467 0.156868
-0.15373 -0.22451 0.158055
-0.149424 -0.224269 0.158832
-0.145498 -0.224018 0.16018
-0.141036 -0.223952 0.160136
-0.136459 -0.224096 0.161563
-0.132448 -0.223912 0.162932
-0.128331 -0.223868 0.162313
-0.124304 -0.22371 0.16112
-0.119865 -0.223822 0.162101
-0.11601 -0.223901 0.161492
-0.111856 -0.224063 0.161098
-0.107618 -0.224175 0.160747
-0.103701 -0.22381 0.161837
-0.0995733 -0.224063 0.161355
-0.0955007 -0.224004 0.159826
-0.0912677 -0.22389 0.159961
-0.0876048 -0.224203 0.158481
-0.0833196 -0.224317 0.157138
-0.0790375 -0.224571 0.157202
-0.0750465 -0.224515 0.155764
-0.0708924 -0.224156 0.156609
-0.0662282 -0.224604 0.156372
-0.0622029 -0.224549 0.156381
-0.0581393 -0.224232 0.157598
-0.0537564 -0.223951 0.159046
-0.0499454 -0.224318 0.160247
-0.0460446 -0.223857 0.162568
-0.0412244 -0.222769 0.168962
-0.0372621 -0.222168 0.174795
-0.0324216 -0.221035 0.185621
-0.0283198 -0.219574 0.196069
-0.0240019 -0.218748 0.203745
-0.0200226 -0.217918 0.210776
-0.0161341 -0.217217 0.216617
-0.0119045 -0.216118 0.225838
-0.0083408 -0.215157 0.236212
-0.00426633 -0.212524 0.252766
-0.000202834 -0.210995 0.267317
0.00403923 -0.209376 0.278714
0.00745231 -0.209376 0.283607
0.0114719 -0.20826 0.289919
0.0148261 -0.208183 0.29508
0.0191641 -0.206784 0.301078
0.0228706 -0.206241 0.306027
0.0262441 -0.205536 0.312019
0.0303185 -0.205156 0.316644
0.034095 -0.204643 0.320871
0.0380868 -0.204038 0.326847
0.0412971 -0.203482 0.329135
0.0450925 -0.203399 0.332399
0.0487417 -0.202842 0.336119
0.0523752 -0.202352 0.339627
0.0563127 -0.202252 0.34248
0.0600645 -0.201497 0.344654
0.0634601 -0.20101 0.347743
0.0668487 -0.201018 0.349071
0.0705544 -0.201042 0.350675
0.0741655 -0.200456 0.354183
0.0779589 -0.200171 0.355789
0.0815439 -0.200313 0.356681
0.0851683 -0.199737 0.359031
0.08876 -0.199726 0.360167
0.0923698 -0.199694 0.361137
0.0959195 -0.199363 0.362624
0.0994605 -0.199318 0.36373
0.103229 -0.199327 0.364586
0.106724 -0.198957 0.366705
0.110572 -0.198588 0.368522
0.114108 -0.19893 0.369108
0.117815 -0.198686 0.369764
0.121117 -0.198253 0.371627
0.124762 -0.197587 0.374334
0.128454 -0.197554 0.375265
0.13204 -0.197667 0.376854
0.135521 -0.197282 0.376928
0.138743 -0.197509 0.379136
0.142749 -0.197453 0.378973
0.146019 -0.197296 0.379196
0.149919 -0.197582 0.380238
0.153186 -0.197333 0.379734
0.157025 -0.197265 0.380585
0.160581 -0.19725 0.381164
0.164172 -0.197328 0.380888
0.167857 -0.197426 0.380551
0.172074 -0.197094 0.380449
0.174942 -0.197303 0.380148
0.179384 -0.197019 0.380693
0.182652 -0.197088 0.379216
0.186462 -0.19732 0.379456
0.190124 -0.197392 0.379338
0.193898 -0.197697 0.379073
0.197401 -0.197319 0.379303
0.201176 -0.198006 0.378241
0.204999 -0.19751 0.377716
0.208609 -0.197821 0.377493
0.212008 -0.197386 0.377805
0.216318 -0.198182 0.376937
0.219806 -0.197857 0.375914
0.223238 -0.197865 0.375765
0.227247 -0.197799 0.374996
0.231301 -0.198097 0.373065
0.234799 -0.198031 0.373082
0.238814 -0.198448 0.371414
0.242556 -0.198784 0.368828
0.246818 -0.198684 0.366392
0.250432 -0.198998 0.365372
0.254785 -0.199288 0.362511
0.2592 -0.199919 0.359338
0.263004 -0.200648 0.357216
0.267139 -0.200461 0.355263
0.27143 -0.200605 0.353376
0.275379 -0.200599 0.351346
0.279452 -0.20168 0.348278
0.283433 -0.201375 0.34654
0.287467 -0.201669 0.344237
0.292088 -0.202088 0.341173
0.295909 -0.202024 0.338264
0.300405 -0.202792 0.334836
0.305123 -0.203466 0.329784
0.309738 -0.203811 0.324981
0.314647 -0.204875 0.319214
0.319599 -0.205284 0.314491
0.323882 -0.205825 0.30932
0.328797 -0.206661 0.303335
0.334192 -0.207499 0.297612
0.339209 -0.208024 0.290911
0.344464 -0.208672 0.283364
0.35047 -0.210316 0.272898
0.357916 -0.212548 0.256408
-0.24278 -0.242657 -0.0280592
-0.230663 -0.235235 0.0337241
-0.220267 -0.228509 0.0856676
-0.213799 -0.226744 0.103104
-0.208419 -0.224958 0.115135
-0.203261 -0.224235 0.124102
-0.198218 -0.223447 0.130659
-0.193317 -0.22261 0.135699
-0.188738 -0.222006 0.138724
-0.184514 -0.221727 0.14291
-0.179617 -0.221911 0.145815
-0.175739 -0.22133 0.148546
-0.171113 -0.221065 0.150861
