ply
format ascii 1.0
element vertex 1666
property float x
property float y
property float z
end_header
0.21773 -0.38727 0.0698848
0.224524 -0.391532 0.04816
-0.244476 -0.377439 0.0977018
-0.237975 -0.374273 0.115156
-0.232461 -0.372198 0.123598
-0.227542 -0.371256 0.128079
-0.223283 -0.370269 0.13225
-0.218432 -0.370114 0.135534
-0.213958 -0.369349 0.138434
-0.209397 -0.368528 0.143042
-0.204486 -0.36742 0.14762
-0.199568 -0.365484 0.154886
-0.194524 -0.364312 0.163936
-0.189774 -0.36347 0.170635
-0.185375 -0.362423 0.174665
-0.181086 -0.361913 0.176643
-0.176309 -0.361527 0.178861
-0.172421 -0.361028 0.179943
-0.167989 -0.361188 0.182339
-0.163457 -0.360506 0.183261
-0.159929 -0.360372 0.18532
-0.155025 -0.359734 0.186778
-0.151103 -0.359633 0.187336
-0.147164 -0.359514 0.188346
-0.142745 -0.35913 0.190403
-0.138581 -0.358889 0.192058
-0.134122 -0.358646 0.192832
-0.130378 -0.358294 0.193977
-0.126276 -0.358026 0.194995
-0.122247 -0.358125 0.19632
-0.118084 -0.35763 0.197468
-0.113794 -0.357208 0.198613
-0.109728 -0.357325 0.199105
-0.105687 -0.357422 0.199961
-0.101746 -0.356836 0.201825
-0.0975527 -0.357311 0.201197
-0.0930415 -0.356611 0.203609
-0.0887787 -0.356437 0.204263
-0.0851584 -0.356202 0.20479
-0.0809212 -0.356056 0.205618
-0.0769848 -0.355604 0.206756
-0.0728866 -0.356138 0.207372
-0.0685317 -0.355523 0.207835
-0.0646078 -0.355583 0.207814
-0.0607825 -0.355271 0.208475
-0.0567227 -0.355048 0.20961
-0.052738 -0.355442 0.210094
-0.0487405 -0.355182 0.209849
-0.0441143 -0.355082 0.21013
-0.040447 -0.355356 0.20987
-0.0366685 -0.354579 0.21111
-0.0322516 -0.355151 0.211372
-0.0281824 -0.354841 0.212755
-0.0242 -0.354754 0.211732
-0.0203251 -0.355128 0.211713
-0.0162178 -0.355125 0.211981
-0.0120368 -0.35482 0.211557
-0.0078418 -0.354963 0.210897
-0.00395638 -0.355293 0.21115
0.00011328 -0.355215 0.210436
0.00396714 -0.355076 0.210243
0.00787949 -0.355212 0.210328
0.0119738 -0.355278 0.209725
0.0164255 -0.355406 0.20988
0.0203635 -0.355031 0.210192
0.0241685 -0.355458 0.209371
0.0279807 -0.355568 0.209782
0.0326177 -0.355479 0.208607
0.0365575 -0.355659 0.207571
0.0401396 -0.355793 0.207589
0.04443 -0.355475 0.207721
0.0481025 -0.355801 0.206378
0.0528867 -0.355584 0.206442
0.0568971 -0.355809 0.206427
0.0606996 -0.356016 0.205235
0.0647705 -0.356283 0.204513
0.0690387 -0.356586 0.20357
0.072798 -0.356728 0.204676
0.0769806 -0.356394 0.202788
0.0813004 -0.357223 0.201161
0.0853069 -0.357215 0.200358
0.0895036 -0.357265 0.199813
0.0935333 -0.357619 0.197515
0.0976828 -0.358042 0.195812
0.102008 -0.358393 0.193897
0.10602 -0.358501 0.192981
0.110533 -0.359124 0.190604
0.114468 -0.359419 0.189307
0.11882 -0.359887 0.187058
0.122638 -0.360491 0.18537
0.127268 -0.360567 0.183452
0.131099 -0.360849 0.181774
0.135285 -0.361255 0.1796
0.140108 -0.361827 0.175721
0.14413 -0.362527 0.172821
0.148162 -0.363213 0.171187
0.153003 -0.363564 0.166634
0.15771 -0.364667 0.162581
0.162117 -0.365382 0.158676
0.166653 -0.366639 0.153706
0.170956 -0.367217 0.149295
0.175844 -0.367967 0.14438
0.180342 -0.369543 0.137801
0.186526 -0.373435 0.121464
0.191289 -0.374256 0.113564
0.196668 -0.375646 0.107099
0.201161 -0.376724 0.101386
0.206321 -0.378631 0.0930191
0.211356 -0.380445 0.0842954
0.217135 -0.382781 0.0717267
0.224455 -0.387016 0.049614
-0.245928 -0.375674 0.0860374
-0.23907 -0.370834 0.108927
-0.233217 -0.368761 0.120577
-0.228226 -0.368236 0.125714
-0.222973 -0.366678 0.130908
-0.218859 -0.366129 0.133527
-0.213711 -0.365471 0.1384
-0.209656 -0.36475 0.140802
-0.204219 -0.363071 0.148841
-0.199763 -0.36174 0.15652
-0.194483 -0.359488 0.166669
-0.189118 -0.35864 0.17312
-0.185387 -0.358196 0.174358
-0.18059 -0.357691 0.177099
-0.176499 -0.357012 0.179209
-0.172481 -0.356499 0.180981
-0.167658 -0.356524 0.181701
-0.163454 -0.35645 0.183241
-0.159726 -0.35572 0.184294
-0.155639 -0.356136 0.185718
-0.151396 -0.355716 0.187051
-0.146858 -0.355729 0.188472
-0.142964 -0.354625 0.189956
-0.138579 -0.354674 0.191654
-0.134688 -0.354779 0.192783
-0.130281 -0.354403 0.193526
-0.126144 -0.353974 0.195682
-0.122264 -0.353483 0.196284
-0.117991 -0.353434 0.198726
-0.113707 -0.353827 0.19795
-0.109515 -0.353504 0.200174
-0.105546 -0.353031 0.200761
-0.101531 -0.3528 0.201552
-0.0973401 -0.352851 0.202078
-0.0928674 -0.352525 0.203444
-0.0890493 -0.352179 0.203735
-0.0850645 -0.352306 0.204938
-0.0812843 -0.352299 0.204534
-0.0767593 -0.351807 0.206641
-0.0728109 -0.351421 0.206778
-0.0688362 -0.351667 0.207927
-0.0645786 -0.351854 0.207859
-0.060076 -0.350987 0.209195
-0.0564889 -0.351122 0.209127
-0.0527126 -0.351314 0.208951
-0.0483446 -0.351322 0.210587
-0.0443405 -0.351445 0.210395
-0.0403243 -0.351304 0.210561
-0.036313 -0.351144 0.210272
-0.0322626 -0.350954 0.211447
-0.028532 -0.350923 0.211398
-0.0244402 -0.350768 0.211329
-0.0201551 -0.350768 0.211092
-0.0161128 -0.350741 0.211909
-0.0120643 -0.351176 0.211148
-0.00853951 -0.351151 0.211237
-0.00415399 -0.351147 0.210906
3.13372e-05 -0.351008 0.21173
0.00398333 -0.350951 0.211496
0.00848495 -0.350926 0.210152
0.0123024 -0.350684 0.211371
0.0162568 -0.351025 0.209965
0.0201213 -0.350986 0.210213
0.0238293 -0.351793 0.209025
0.0280743 -0.351569 0.209433
0.0323473 -0.351861 0.207935
0.0366135 -0.351528 0.207885
0.0405596 -0.351872 0.206844
0.0446202 -0.351851 0.206886
0.0488735 -0.352198 0.206197
0.0527591 -0.351674 0.206607
0.0560343 -0.351704 0.20641
0.0607456 -0.352269 0.204737
0.0646074 -0.352684 0.204499
0.0689159 -0.351887 0.205123
0.0727349 -0.352324 0.20372
0.0766922 -0.35247 0.202427
0.0809387 -0.352648 0.202551
0.085318 -0.352668 0.200023
0.0891353 -0.353561 0.199469
0.0934379 -0.35388 0.196964
0.0978654 -0.353832 0.19603
0.10197 -0.354634 0.193503
0.105948 -0.354606 0.192379
0.110029 -0.355244 0.191031
0.113989 -0.355242 0.189097
0.118295 -0.355199 0.188023
0.122484 -0.35607 0.185862
0.126512 -0.355976 0.184319
0.131294 -0.357028 0.181594
0.135729 -0.356924 0.179133
0.139696 -0.357266 0.17707
0.14436 -0.35847 0.173647
0.148351 -0.358756 0.171036
0.152901 -0.35974 0.167204
0.157387 -0.360172 0.163029
0.161703 -0.360985 0.15931
0.166631 -0.36225 0.154488
0.171091 -0.362998 0.149092
0.175721 -0.364004 0.144932
0.180267 -0.364979 0.139424
0.186433 -0.36849 0.122365
0.191049 -0.369958 0.114181
0.196538 -0.371117 0.107703
0.201158 -0.372544 0.10211
0.206158 -0.374404 0.0944355
0.211717 -0.376074 0.0837432
0.217168 -0.3788 0.0720779
0.224619 -0.382986 0.0492339
-0.239468 -0.368033 0.103522
-0.232821 -0.365478 0.118368
-0.228593 -0.363898 0.123679
-0.223936 -0.36331 0.128963
-0.219076 -0.362199 0.13271
-0.21479 -0.361401 0.135807
-0.209379 -0.360374 0.14225
-0.204502 -0.358554 0.149967
-0.198744 -0.356706 0.161392
-0.193921 -0.354878 0.169687
-0.189457 -0.354257 0.172453
-0.184901 -0.353835 0.175451
-0.180684 -0.353858 0.176677
-0.17657 -0.353107 0.178224
-0.172331 -0.353136 0.179732
-0.168488 -0.352729 0.181725
-0.164185 -0.35245 0.181602
-0.159554 -0.352451 0.184243
-0.15521 -0.351922 0.185034
-0.151404 -0.351684 0.187447
-0.147046 -0.35147 0.188362
-0.14269 -0.351183 0.190082
-0.138921 -0.350975 0.190045
-0.134773 -0.35039 0.192207
-0.130312 -0.349908 0.194285
-0.125797 -0.349838 0.196127
-0.122082 -0.349813 0.196361
-0.118247 -0.349652 0.19702
-0.113691 -0.349192 0.197705
-0.109528 -0.34909 0.199619
-0.105199 -0.348843 0.201049
-0.101432 -0.348941 0.200746
-0.0974909 -0.348796 0.202115
-0.093326 -0.348604 0.20244
-0.0892064 -0.34854 0.203944
-0.0852354 -0.348225 0.204405
-0.0806729 -0.348395 0.204951
-0.0767356 -0.347845 0.20662
-0.0727565 -0.347806 0.206823
-0.0686216 -0.348031 0.207016
-0.0647911 -0.347125 0.208767
-0.0604819 -0.347768 0.207977
-0.0563464 -0.346941 0.209843
-0.0528643 -0.3471 0.210226
-0.048494 -0.347171 0.208943
-0.0444134 -0.346964 0.21033
-0.04009 -0.347116 0.210326
-0.0359501 -0.347281 0.21077
-0.0324502 -0.346812 0.211906
-0.0280275 -0.346534 0.212293
-0.0242221 -0.346744 0.211988
-0.0202701 -0.347138 0.211258
-0.0162064 -0.346995 0.211427
-0.0122973 -0.346658 0.212179
-0.00832848 -0.347095 0.21113
-0.0041836 -0.346748 0.211743
-0.000298911 -0.346658 0.211519
0.00396192 -0.347056 0.21038
0.00825065 -0.346949 0.210757
0.011977 -0.347054 0.210995
0.0160971 -0.34687 0.21062
0.0202347 -0.347078 0.208974
0.024374 -0.347392 0.209693
0.0286313 -0.347265 0.208881
0.0320963 -0.347548 0.20845
0.0361877 -0.34771 0.208257
0.040442 -0.34727 0.207898
0.0442235 -0.347751 0.207797
0.0480994 -0.347835 0.207018
0.0528215 -0.348025 0.205409
0.0566498 -0.348073 0.205688
0.0606229 -0.347937 0.206328
0.0646145 -0.348155 0.20495
0.069046 -0.348477 0.20416
0.0733171 -0.348359 0.20352
0.0771765 -0.348727 0.202077
0.081257 -0.349116 0.200893
0.0854025 -0.34907 0.201454
0.089671 -0.348876 0.198806
0.0937858 -0.349491 0.198271
0.0977012 -0.349895 0.196282
0.101852 -0.350443 0.193689
0.106034 -0.350259 0.193663
0.11041 -0.351172 0.191379
0.114334 -0.351302 0.190139
0.118698 -0.351888 0.18664
0.122447 -0.351566 0.18707
0.126995 -0.352155 0.184766
0.130992 -0.352016 0.181982
0.135187 -0.353083 0.180406
0.139864 -0.35375 0.175996
0.144333 -0.353907 0.173918
0.14862 -0.354445 0.171427
0.153115 -0.355783 0.166666
0.157351 -0.356543 0.163488
0.161639 -0.356853 0.159783
0.166637 -0.357965 0.154565
0.171253 -0.358423 0.150799
0.175735 -0.359172 0.146432
0.180709 -0.36092 0.138355
0.185885 -0.363914 0.124578
0.191341 -0.365877 0.113669
0.196388 -0.366895 0.108387
0.201389 -0.36819 0.101786
0.206583 -0.369461 0.0942402
0.211822 -0.371734 0.084483
0.216816 -0.373958 0.0733361
0.224267 -0.377927 0.0524175
-0.239931 -0.364787 0.0976486
-0.234128 -0.361788 0.11257
-0.228933 -0.360066 0.121369
-0.223884 -0.35877 0.12754
-0.219233 -0.357974 0.131408
-0.214581 -0.357278 0.135869
-0.209708 -0.356224 0.142026
-0.203875 -0.353768 0.153683
-0.199029 -0.352282 0.1639
-0.194064 -0.350809 0.170026
-0.189697 -0.350136 0.173333
-0.18528 -0.349687 0.175309
-0.180635 -0.349417 0.177126
-0.17651 -0.349222 0.178698
-0.172539 -0.349197 0.179469
-0.16844 -0.349007 0.180844
-0.163873 -0.348495 0.182613
-0.159995 -0.347995 0.184776
-0.155381 -0.34807 0.186031
-0.151291 -0.347386 0.187511
-0.146824 -0.347433 0.188083
-0.143023 -0.347205 0.189261
-0.138723 -0.346321 0.191543
-0.134608 -0.34647 0.19331
-0.130439 -0.346447 0.193863
-0.125808 -0.346032 0.195605
-0.121878 -0.345875 0.195806
-0.117661 -0.34547 0.197238
-0.113796 -0.345151 0.197597
-0.109637 -0.345223 0.199661
-0.105195 -0.344889 0.20028
-0.101413 -0.345086 0.201224
-0.0973589 -0.344783 0.201077
-0.0931474 -0.344317 0.202562
-0.0890812 -0.344191 0.203646
-0.0853071 -0.344009 0.204693
-0.0808825 -0.344022 0.205652
-0.0770432 -0.343801 0.205811
-0.0730143 -0.343301 0.207536
-0.0686833 -0.343349 0.20644
-0.064549 -0.343767 0.208154
-0.0607857 -0.343444 0.208181
-0.0568026 -0.343299 0.209352
-0.0525979 -0.343283 0.209198
-0.0484241 -0.343256 0.210179
-0.0447161 -0.342941 0.210892
-0.0401363 -0.34287 0.210946
-0.0365652 -0.343039 0.211083
-0.0325183 -0.34281 0.211236
-0.0282253 -0.342643 0.212238
-0.0240369 -0.342628 0.211142
-0.0206996 -0.34266 0.211784
-0.0160784 -0.342901 0.211412
-0.0124396 -0.34257 0.212279
-0.00772354 -0.342778 0.212204
-0.0041423 -0.34283 0.21144
-7.86617e-05 -0.342761 0.211757
0.00404879 -0.342937 0.211401
0.00787265 -0.342721 0.211931
0.0122528 -0.343301 0.211831
0.0156926 -0.342558 0.211007
0.0202227 -0.34331 0.21075
0.0245206 -0.343377 0.209135
0.028031 -0.342997 0.210291
0.03242 -0.343391 0.208502
0.0366908 -0.343351 0.207791
0.0402755 -0.343498 0.207722
0.0441769 -0.343378 0.20779
0.0484887 -0.343858 0.206257
0.0527192 -0.343765 0.206472
0.0568125 -0.343761 0.20621
0.0604204 -0.344188 0.205078
0.0650614 -0.344224 0.204463
0.0686482 -0.344296 0.204149
0.0730363 -0.344444 0.203337
0.0772145 -0.344594 0.202638
0.0810961 -0.344491 0.201435
0.0853223 -0.344546 0.200029
0.0892046 -0.345799 0.198772
0.0933996 -0.345402 0.198351
0.0976525 -0.345444 0.196823
0.101563 -0.345949 0.19489
0.105713 -0.346319 0.193708
0.11023 -0.346826 0.190973
0.114636 -0.347341 0.189465
0.11854 -0.347064 0.188869
0.122687 -0.347779 0.186159
0.127001 -0.348257 0.183421
0.131199 -0.348507 0.181952
0.135726 -0.34905 0.179341
0.139894 -0.34914 0.17711
0.143789 -0.349915 0.175183
0.148476 -0.350666 0.170834
0.152978 -0.351121 0.167834
0.157487 -0.352333 0.162931
0.162053 -0.352823 0.159648
0.166097 -0.353284 0.156661
0.170592 -0.354069 0.152289
0.1755 -0.355545 0.146845
0.180257 -0.356207 0.14035
0.186009 -0.359397 0.125517
0.191053 -0.361235 0.115885
0.196705 -0.362434 0.107506
0.201482 -0.364215 0.10181
0.206189 -0.364878 0.0953112
0.211002 -0.366804 0.0868443
0.217164 -0.369138 0.0740662
0.223764 -0.372732 0.0556077
-0.242169 -0.363213 0.0833727
-0.23449 -0.358498 0.107337
-0.229021 -0.356756 0.118814
-0.224391 -0.355155 0.125523
-0.219162 -0.353938 0.131156
-0.214671 -0.353214 0.135606
-0.209592 -0.351479 0.143782
-0.203132 -0.348798 0.157979
-0.198514 -0.347466 0.166069
-0.193493 -0.346639 0.170417
-0.189632 -0.34612 0.173386
-0.185082 -0.34561 0.175319
-0.180973 -0.345354 0.176367
-0.176171 -0.3453 0.178163
-0.172626 -0.344851 0.180045
-0.168071 -0.344734 0.180983
-0.163648 -0.34423 0.182849
-0.159714 -0.344483 0.183759
-0.155444 -0.343516 0.186179
-0.151361 -0.343438 0.186467
-0.147426 -0.343628 0.187721
-0.14276 -0.343247 0.189584
-0.138472 -0.342873 0.190972
-0.134266 -0.342664 0.19161
-0.130287 -0.342348 0.193423
-0.12616 -0.341757 0.195202
-0.121999 -0.341989 0.196622
-0.117667 -0.34175 0.196651
-0.113595 -0.341396 0.198419
-0.109745 -0.341084 0.199819
-0.105082 -0.341077 0.200176
-0.101262 -0.340488 0.201185
-0.0971578 -0.340384 0.202936
-0.0934991 -0.34064 0.202839
-0.088767 -0.340578 0.203743
-0.0850136 -0.340172 0.204075
-0.0807178 -0.34023 0.205342
-0.07688 -0.339853 0.205466
-0.0728732 -0.339823 0.205576
-0.0688381 -0.339433 0.20696
-0.0644525 -0.339702 0.207861
-0.0605333 -0.33916 0.207961
-0.0561267 -0.339208 0.209477
-0.0523956 -0.339024 0.208882
-0.0485309 -0.339085 0.209615
-0.0443351 -0.339262 0.210322
-0.0402372 -0.33893 0.210555
-0.0364223 -0.339107 0.210479
-0.0319073 -0.339311 0.210638
-0.0284925 -0.338987 0.211013
-0.0242236 -0.338355 0.213024
-0.0201227 -0.338867 0.211394
-0.0160644 -0.338442 0.213112
-0.0123714 -0.338566 0.211857
-0.00829888 -0.338487 0.21236
-0.00450417 -0.338671 0.212013
-5.18121e-05 -0.338401 0.211393
0.00412073 -0.33847 0.21238
0.00792296 -0.338966 0.21164
0.0121801 -0.338169 0.211553
0.0160479 -0.338756 0.210894
0.020289 -0.338955 0.210869
0.0244232 -0.339319 0.210355
0.028392 -0.339058 0.209484
0.0324585 -0.338895 0.209473
0.0363957 -0.339774 0.207892
0.0406688 -0.339807 0.207486
0.0447594 -0.339653 0.2071
0.0482423 -0.339733 0.206283
0.0527852 -0.33991 0.20681
0.0567372 -0.340226 0.205252
0.0606112 -0.339546 0.205352
0.0644218 -0.340401 0.204806
0.0691366 -0.340196 0.203607
0.0731072 -0.340591 0.202937
0.0769761 -0.340587 0.202217
0.0811517 -0.340585 0.201533
0.0849111 -0.341095 0.199143
0.0897967 -0.341382 0.198221
0.0933048 -0.341563 0.197396
0.0976114 -0.342047 0.19626
0.101619 -0.341988 0.19544
0.105874 -0.342073 0.19297
0.110299 -0.342586 0.190605
0.114497 -0.342422 0.190223
0.118516 -0.3433 0.188327
0.122949 -0.343726 0.18476
0.127155 -0.343921 0.183821
0.131607 -0.34473 0.181394
0.135763 -0.34443 0.178705
0.13947 -0.345569 0.176403
0.14422 -0.346141 0.17378
0.148733 -0.346836 0.170828
0.152795 -0.347222 0.167956
0.15761 -0.34797 0.163244
0.161692 -0.348359 0.160419
0.166315 -0.349032 0.156771
0.170528 -0.349995 0.152236
0.175342 -0.3511 0.147675
0.180092 -0.351988 0.141338
0.185328 -0.354264 0.131516
0.191343 -0.357481 0.115079
0.195915 -0.357901 0.109298
0.201088 -0.359648 0.102775
0.206238 -0.360372 0.0958788
0.211544 -0.362626 0.0860891
0.217295 -0.364374 0.0749869
0.223387 -0.368055 0.0583413
-0.236003 -0.356093 0.0987614
-0.229694 -0.353376 0.113718
-0.224175 -0.351273 0.123313
-0.219489 -0.350398 0.128807
-0.214282 -0.348889 0.137114
-0.208745 -0.346508 0.148112
-0.203508 -0.344853 0.159689
-0.19858 -0.343009 0.16753
-0.194085 -0.34252 0.170826
-0.189435 -0.342198 0.172383
-0.185274 -0.341617 0.174817
-0.180852 -0.341275 0.176066
-0.176576 -0.341333 0.177607
-0.172814 -0.340886 0.178977
-0.167935 -0.340288 0.181684
-0.163853 -0.340013 0.182838
-0.159638 -0.34007 0.183963
-0.155293 -0.33952 0.185618
-0.150855 -0.339184 0.187296
-0.1469 -0.339297 0.188278
-0.142851 -0.339045 0.189865
-0.13844 -0.338921 0.191371
-0.13463 -0.338293 0.192174
-0.130333 -0.338 0.192778
-0.126518 -0.338016 0.193934
-0.12194 -0.337783 0.196095
-0.117894 -0.337146 0.196984
-0.113976 -0.337462 0.198156
-0.10942 -0.336948 0.199913
-0.105387 -0.336972 0.200713
-0.100974 -0.336459 0.200971
-0.097093 -0.33647 0.201827
-0.0927784 -0.336322 0.202894
-0.0890391 -0.335719 0.204007
-0.085326 -0.335736 0.204557
-0.0812155 -0.336088 0.204831
-0.0768374 -0.335976 0.20614
-0.0730215 -0.335608 0.205842
-0.068642 -0.335577 0.20742
-0.0644987 -0.335444 0.207189
-0.0605034 -0.335467 0.208403
-0.0561877 -0.335126 0.210057
-0.0522188 -0.335071 0.21023
-0.0485034 -0.33471 0.20996
-0.0439471 -0.334741 0.210585
-0.0404806 -0.334919 0.210903
-0.0367064 -0.33507 0.210657
-0.032271 -0.334676 0.211749
-0.0280887 -0.334786 0.211274
-0.0240275 -0.334554 0.211811
-0.0201646 -0.334674 0.211308
-0.0163354 -0.334719 0.21232
-0.0120219 -0.334473 0.212695
-0.00805237 -0.334635 0.212303
-0.0045495 -0.334834 0.212376
-2.7707e-05 -0.334842 0.212128
0.00366467 -0.334221 0.212496
0.00772897 -0.335094 0.211095
0.011819 -0.335319 0.210611
0.016406 -0.334944 0.210594
0.0199144 -0.334706 0.210955
0.0244284 -0.33481 0.20944
0.0284223 -0.334873 0.209632
0.0319825 -0.335155 0.210049
0.0363173 -0.335388 0.208467
0.0402753 -0.335678 0.206977
0.0443436 -0.335947 0.207623
0.0486894 -0.335653 0.206993
0.0523914 -0.335594 0.206356
0.0566181 -0.335991 0.204203
0.0607756 -0.33619 0.204338
0.064971 -0.336607 0.203473
0.0687353 -0.336371 0.203406
0.0730111 -0.335975 0.203203
0.0770596 -0.336728 0.201559
0.0812975 -0.337119 0.200618
0.0850301 -0.337048 0.199064
0.089335 -0.337602 0.198394
0.0935992 -0.337445 0.196917
0.0974873 -0.337512 0.196022
0.101752 -0.337885 0.193254
0.106082 -0.338669 0.191612
0.110574 -0.338508 0.190043
0.114398 -0.33869 0.188409
0.118457 -0.339273 0.186893
0.123013 -0.339803 0.184977
0.12756 -0.340323 0.181829
0.131328 -0.340242 0.180953
0.135424 -0.340661 0.178208
0.139967 -0.340838 0.175788
0.144273 -0.34178 0.172748
0.148903 -0.342297 0.170039
0.152911 -0.343128 0.167031
0.157648 -0.343576 0.163893
0.162154 -0.34446 0.159584
0.166459 -0.344706 0.157059
0.171196 -0.345668 0.151573
0.175417 -0.346802 0.147304
0.180024 -0.347703 0.143732
0.184674 -0.349112 0.13598
0.191491 -0.352957 0.115242
0.196145 -0.353915 0.109106
0.200267 -0.354958 0.104703
0.205903 -0.355969 0.096718
0.211098 -0.357777 0.0873079
0.216748 -0.359992 0.0770183
0.22335 -0.363243 0.0597302
0.231925 -0.369895 0.0216662
-0.236832 -0.353113 0.0911983
-0.230183 -0.349668 0.109954
-0.224999 -0.347775 0.120769
-0.219497 -0.345904 0.129029
-0.214223 -0.343813 0.138859
-0.208279 -0.341488 0.152123
-0.203269 -0.339982 0.161721
-0.198039 -0.338993 0.168631
-0.194069 -0.33824 0.169341
-0.189453 -0.337756 0.172595
-0.185041 -0.337214 0.175027
-0.180891 -0.337161 0.177236
-0.176652 -0.336742 0.178305
-0.172606 -0.336618 0.179394
-0.168092 -0.336123 0.180911
-0.164393 -0.336152 0.18189
-0.159371 -0.335604 0.185021
-0.155482 -0.335606 0.18566
-0.151271 -0.335534 0.186464
-0.147198 -0.335314 0.187967
-0.142661 -0.334605 0.188726
-0.139003 -0.334357 0.190796
-0.134541 -0.33416 0.192134
-0.130691 -0.334248 0.193283
-0.1261 -0.333871 0.194604
-0.122009 -0.333641 0.196236
-0.118237 -0.333387 0.196619
-0.113945 -0.333178 0.197898
-0.109762 -0.333294 0.198739
-0.105911 -0.333012 0.19978
-0.101699 -0.332696 0.200494
-0.0975646 -0.332532 0.20219
-0.0934842 -0.332439 0.20262
-0.0888708 -0.332327 0.203413
-0.0853511 -0.332297 0.203486
-0.0811346 -0.332105 0.204631
-0.0771684 -0.332192 0.205122
-0.0724806 -0.331519 0.206778
-0.0688709 -0.331664 0.207648
-0.0649343 -0.331596 0.207842
-0.0608338 -0.331686 0.207768
-0.056317 -0.331226 0.208974
-0.0523795 -0.330643 0.210241
-0.0484743 -0.330759 0.209546
-0.0442704 -0.330977 0.210537
-0.0402451 -0.331188 0.211001
-0.0361233 -0.330839 0.211116
-0.0319321 -0.330704 0.211342
-0.0280301 -0.330583 0.212141
-0.0241146 -0.330668 0.211885
-0.0200124 -0.330782 0.211268
-0.0163918 -0.330458 0.213505
-0.012136 -0.33069 0.211921
-0.00808503 -0.330752 0.212902
-0.00406086 -0.330185 0.213127
0.000198163 -0.330282 0.212569
0.00405533 -0.330713 0.212088
0.00792878 -0.330724 0.211769
0.0118375 -0.330457 0.211073
0.0162011 -0.330599 0.21088
0.0201696 -0.330728 0.211392
0.0241964 -0.331082 0.21045
0.0288686 -0.331397 0.208487
0.0322152 -0.330982 0.209056
0.0365225 -0.331273 0.20823
0.0403921 -0.331305 0.207735
0.0445435 -0.331099 0.207848
0.048311 -0.331868 0.206043
0.0526667 -0.331906 0.205843
0.0564213 -0.331995 0.205613
0.0604509 -0.332364 0.203669
0.064526 -0.331771 0.203997
0.0687787 -0.332565 0.202675
0.0728435 -0.332494 0.202185
0.077005 -0.332741 0.201938
0.0813118 -0.332857 0.200106
0.0853248 -0.333383 0.198522
0.0898399 -0.333204 0.197675
0.0933973 -0.333806 0.196706
0.0975433 -0.333732 0.195025
0.10206 -0.333815 0.192906
0.105804 -0.334438 0.192457
0.110233 -0.334662 0.190221
0.114239 -0.33541 0.18725
0.118704 -0.335788 0.185844
0.122914 -0.335757 0.184039
0.126624 -0.336463 0.182374
0.131403 -0.336405 0.180031
0.13561 -0.336814 0.17761
0.139682 -0.337493 0.175177
0.143807 -0.337772 0.172937
0.148488 -0.33838 0.170037
0.152848 -0.338652 0.16737
0.156933 -0.339394 0.165489
0.161538 -0.340029 0.161396
0.166098 -0.340898 0.157026
0.171043 -0.342119 0.151461
0.175443 -0.342429 0.148445
0.179853 -0.343727 0.14324
0.184924 -0.344479 0.136037
0.191472 -0.348383 0.114913
0.196077 -0.350068 0.109249
0.200917 -0.350743 0.103136
0.206329 -0.352665 0.0959733
0.211531 -0.35389 0.0878112
0.216659 -0.35551 0.0770502
0.223118 -0.357751 0.0618509
0.231467 -0.365436 0.024809
-0.238815 -0.351744 0.0754889
-0.231376 -0.346812 0.102072
-0.225258 -0.343665 0.117594
-0.219607 -0.341855 0.128197
-0.213706 -0.339474 0.141162
-0.207742 -0.336968 0.155338
-0.202536 -0.335394 0.164158
-0.198522 -0.334352 0.167715
-0.193943 -0.334117 0.169935
-0.189257 -0.333631 0.173148
-0.185402 -0.333645 0.174705
-0.180861 -0.333305 0.176627
-0.176939 -0.332895 0.177908
-0.172222 -0.332302 0.179505
-0.167941 -0.33245 0.181248
-0.163898 -0.332103 0.182358
-0.160094 -0.332098 0.183155
-0.155566 -0.331455 0.185504
-0.151518 -0.331289 0.185716
-0.146914 -0.330778 0.18804
-0.142492 -0.330687 0.190194
-0.139025 -0.330735 0.190455
-0.134543 -0.33024 0.191513
-0.130315 -0.329948 0.194198
-0.126301 -0.329818 0.193995
-0.122015 -0.329128 0.196239
-0.118059 -0.329319 0.196264
-0.113903 -0.329312 0.197693
-0.109578 -0.328745 0.199878
-0.105511 -0.328968 0.199979
-0.101435 -0.328894 0.200931
-0.0972794 -0.328641 0.201357
-0.092856 -0.328463 0.202314
-0.0891186 -0.328282 0.203509
-0.0848821 -0.328435 0.203201
-0.0810705 -0.327565 0.205004
-0.0769604 -0.327715 0.205138
-0.0727415 -0.327748 0.20589
-0.0688573 -0.327722 0.207023
-0.0646249 -0.327616 0.208159
-0.0605936 -0.327576 0.207842
-0.0563567 -0.327274 0.208919
-0.0528026 -0.327462 0.208171
-0.0484354 -0.327124 0.209501
-0.0443317 -0.326863 0.210382
-0.0404467 -0.327244 0.210611
-0.0364414 -0.326677 0.211748
-0.0322705 -0.326906 0.210574
-0.0282661 -0.326946 0.21152
-0.0243827 -0.326663 0.211822
-0.0202363 -0.326293 0.212229
-0.0159295 -0.326639 0.212329
-0.0120137 -0.326499 0.212923
-0.00815222 -0.326683 0.21223
-0.00394385 -0.326512 0.211515
-7.33083e-05 -0.326415 0.212342
0.00388607 -0.326765 0.211711
0.00799474 -0.326506 0.212227
0.0121821 -0.326751 0.211188
0.0160332 -0.326768 0.210626
0.0205512 -0.326789 0.209192
0.0242999 -0.327202 0.209349
0.0281167 -0.327318 0.208447
0.0316648 -0.327183 0.208852
0.0363051 -0.327477 0.208241
0.0401982 -0.327859 0.207063
0.044771 -0.32801 0.205755
0.0483162 -0.327954 0.206574
0.0525126 -0.327624 0.205819
0.0563376 -0.32765 0.205145
0.0606858 -0.328293 0.204443
0.0647756 -0.328176 0.204235
0.0692788 -0.328002 0.203563
0.0726705 -0.32819 0.202456
0.0771582 -0.328671 0.20034
0.0812847 -0.328835 0.199723
0.0853732 -0.329391 0.198416
0.0896297 -0.32939 0.197913
0.0937509 -0.329456 0.196077
0.0980397 -0.329533 0.194052
0.102202 -0.330295 0.192435
0.106154 -0.330443 0.19119
0.110153 -0.33057 0.189941
0.114177 -0.330936 0.187941
0.118728 -0.331665 0.185219
0.122508 -0.33132 0.184397
0.127183 -0.332209 0.181331
0.131451 -0.33246 0.179791
0.135746 -0.332992 0.177223
0.13964 -0.333236 0.175789
0.144413 -0.3334 0.173309
0.148431 -0.334336 0.170427
0.153298 -0.334678 0.166944
0.157556 -0.33553 0.164638
0.162155 -0.33636 0.160964
0.166258 -0.336635 0.157515
0.170691 -0.337417 0.154042
0.175235 -0.337936 0.149599
0.180275 -0.339098 0.143901
0.184882 -0.340077 0.138868
0.191021 -0.34387 0.114561
0.196552 -0.345862 0.108442
0.200921 -0.346635 0.103508
0.206114 -0.347421 0.0959903
0.211007 -0.34959 0.0883045
0.216573 -0.350989 0.0770645
0.222417 -0.353331 0.0645448
0.231334 -0.360268 0.0270195
-0.23169 -0.343085 0.0959398
-0.224154 -0.339442 0.119512
-0.219713 -0.337759 0.12885
-0.213677 -0.335248 0.143328
-0.207919 -0.331896 0.158671
-0.203415 -0.331278 0.16354
-0.198454 -0.330352 0.167489
-0.194234 -0.330317 0.170292
-0.189591 -0.329981 0.171881
-0.185211 -0.329245 0.1744
-0.180889 -0.329071 0.17602
-0.176991 -0.328712 0.177674
-0.172704 -0.328823 0.17821
-0.16829 -0.32819 0.179885
-0.164133 -0.328007 0.182636
-0.159765 -0.327704 0.183667
-0.155643 -0.327396 0.185716
-0.151206 -0.327357 0.18687
-0.146935 -0.326797 0.188222
-0.14278 -0.326524 0.189375
-0.138494 -0.326319 0.190639
-0.134001 -0.3265 0.192395
-0.130517 -0.325618 0.192712
-0.126209 -0.325715 0.194979
-0.122221 -0.325703 0.195389
-0.1181 -0.325587 0.196524
-0.113944 -0.325397 0.197271
-0.109232 -0.325024 0.199552
-0.105516 -0.325191 0.199464
-0.10112 -0.324742 0.200899
-0.0975765 -0.324589 0.201087
-0.093344 -0.324614 0.202258
-0.0892372 -0.324185 0.202712
-0.0848358 -0.323875 0.203343
-0.0808584 -0.323897 0.204153
-0.0770254 -0.323795 0.205167
-0.0727794 -0.323362 0.206411
-0.068685 -0.323676 0.207157
-0.0646932 -0.323204 0.207591
-0.0604377 -0.323477 0.207705
-0.0568358 -0.323503 0.208502
-0.0522654 -0.32337 0.208536
-0.0482038 -0.322815 0.209983
-0.0440803 -0.322465 0.210921
-0.0406792 -0.322532 0.210425
-0.0359324 -0.322888 0.211121
-0.0322467 -0.322845 0.210839
-0.0283583 -0.322707 0.21138
-0.0243929 -0.322803 0.211969
-0.0197539 -0.322929 0.211564
-0.0161361 -0.322443 0.212608
-0.0120138 -0.322429 0.213267
-0.00809694 -0.322752 0.211447
-0.0040001 -0.32245 0.211723
-0.000117381 -0.322484 0.212945
0.00369554 -0.322532 0.212716
0.00852653 -0.322541 0.211856
0.0121918 -0.322528 0.210962
0.016129 -0.322806 0.210836
0.0200603 -0.323267 0.210645
0.0244932 -0.32329 0.209219
0.0283089 -0.322991 0.209151
0.0324309 -0.323579 0.207874
0.0363542 -0.323616 0.207871
0.0398908 -0.323543 0.206456
0.0442402 -0.323772 0.205811
0.0483526 -0.323611 0.20619
0.0522649 -0.323692 0.205414
0.0569063 -0.323937 0.203882
0.0607878 -0.323698 0.205021
0.0647389 -0.324329 0.203394
0.0693752 -0.324293 0.202442
0.0729114 -0.324555 0.201786
0.0771577 -0.324624 0.201301
0.0806465 -0.324896 0.199901
0.0852686 -0.324772 0.199735
0.0895331 -0.325696 0.197492
0.0932575 -0.324925 0.196804
0.0978121 -0.325879 0.193344
0.101713 -0.325836 0.193602
0.10603 -0.326568 0.190646
0.110065 -0.326733 0.189239
0.114171 -0.327161 0.188758
0.118559 -0.327207 0.187232
0.123074 -0.32774 0.184126
0.127131 -0.327808 0.18318
0.131188 -0.328888 0.179751
0.135526 -0.328867 0.178315
0.139505 -0.328748 0.17685
0.14405 -0.330005 0.173274
0.148548 -0.330069 0.170828
0.152997 -0.330407 0.168103
0.157546 -0.331607 0.163769
0.161926 -0.331352 0.161618
0.1663 -0.332304 0.157283
0.170465 -0.33288 0.154362
0.174904 -0.333877 0.150258
0.180148 -0.334569 0.144731
0.184388 -0.335692 0.140224
0.19124 -0.340284 0.114337
0.196192 -0.341466 0.108059
0.200644 -0.342025 0.104668
0.206327 -0.343539 0.0964664
0.21064 -0.344668 0.0896262
0.217307 -0.347434 0.076195
0.222528 -0.349438 0.0647175
0.230732 -0.355153 0.0313135
-0.233273 -0.341033 0.0856087
-0.225602 -0.33639 0.112786
-0.219205 -0.332542 0.131441
-0.212858 -0.329949 0.148781
-0.207913 -0.32794 0.159109
-0.2027 -0.326714 0.165893
-0.198424 -0.326262 0.168026
-0.193727 -0.325575 0.170562
-0.189496 -0.325578 0.173267
-0.185487 -0.325449 0.173951
-0.181115 -0.324711 0.176249
-0.176877 -0.32484 0.177248
-0.172551 -0.324337 0.178762
-0.168341 -0.323993 0.180043
-0.163812 -0.323882 0.18203
-0.159742 -0.323501 0.183468
-0.155276 -0.323047 0.18597
-0.151047 -0.32307 0.186417
-0.147464 -0.322823 0.187631
-0.142977 -0.322281 0.189644
-0.138706 -0.322131 0.190264
-0.134549 -0.321863 0.191681
-0.130186 -0.321917 0.192615
-0.12615 -0.321817 0.193567
-0.122443 -0.321166 0.195641
-0.117894 -0.320608 0.197053
-0.113871 -0.321059 0.196849
-0.109749 -0.321037 0.198884
-0.105797 -0.321165 0.198908
-0.10136 -0.321039 0.200089
-0.0969954 -0.320815 0.201574
-0.0932555 -0.320105 0.202068
-0.0890392 -0.319949 0.203172
-0.0852097 -0.319813 0.20388
-0.0810372 -0.319881 0.204821
-0.0771206 -0.319868 0.204621
-0.0725887 -0.31934 0.205945
-0.0687303 -0.319534 0.206672
-0.0647894 -0.319387 0.2074
-0.0606898 -0.31902 0.208476
-0.0563162 -0.318785 0.208338
-0.0527057 -0.319412 0.209053
-0.0482603 -0.318987 0.209621
-0.0446637 -0.318588 0.210336
-0.0403804 -0.319133 0.210163
-0.0361078 -0.318773 0.210637
-0.0319366 -0.318815 0.211138
-0.0286227 -0.318983 0.211764
-0.0239661 -0.318509 0.212292
-0.0198483 -0.318569 0.21243
-0.0159569 -0.318222 0.212013
-0.0118633 -0.318641 0.212862
-0.00801105 -0.318608 0.212678
-0.00396141 -0.318765 0.212251
-0.000200718 -0.318809 0.21259
0.00416761 -0.318704 0.211559
0.00830634 -0.318507 0.211992
0.0119733 -0.318651 0.21161
0.0160423 -0.318535 0.211427
0.0202617 -0.319118 0.209866
0.024586 -0.319204 0.209643
0.0279145 -0.318946 0.209403
0.0324972 -0.319217 0.208742
0.0364286 -0.319622 0.207837
0.0404403 -0.319177 0.207347
0.0446326 -0.319734 0.206632
0.048473 -0.319867 0.20517
0.0525713 -0.319934 0.204676
0.0569279 -0.319865 0.204945
0.0601334 -0.319353 0.204854
0.0649073 -0.320083 0.204173
0.0688195 -0.320371 0.201563
0.0731313 -0.320385 0.201753
0.0772739 -0.320642 0.200983
0.0811036 -0.321113 0.199718
0.0855476 -0.321439 0.198126
0.0895934 -0.321041 0.197551
0.093793 -0.321315 0.196423
0.0975091 -0.321512 0.195025
0.101518 -0.321485 0.194498
0.106116 -0.322237 0.191666
0.110279 -0.322518 0.189581
0.114406 -0.323101 0.186932
0.118821 -0.323724 0.186028
0.122713 -0.323375 0.184162
0.126727 -0.32371 0.182748
0.13142 -0.324054 0.180017
0.135504 -0.324424 0.178324
0.139545 -0.324794 0.176313
0.144046 -0.325169 0.173875
0.148413 -0.325927 0.171552
0.152708 -0.326421 0.168159
0.157224 -0.327276 0.164544
0.161939 -0.327974 0.161055
0.166212 -0.328243 0.157312
0.170893 -0.328698 0.154095
0.174661 -0.32949 0.151309
0.179659 -0.330513 0.146167
0.184907 -0.33137 0.140327
0.19148 -0.33634 0.114081
0.1965 -0.337222 0.107611
0.201229 -0.337996 0.102986
0.205856 -0.339062 0.0968469
0.211071 -0.340778 0.0883151
0.216274 -0.342232 0.07839
0.2228 -0.34486 0.0639955
0.231643 -0.351419 0.028049
-0.226066 -0.332732 0.107895
-0.218669 -0.328456 0.134373
-0.213093 -0.325069 0.15129
-0.207231 -0.323417 0.161254
-0.202711 -0.322441 0.164973
-0.198548 -0.322219 0.16699
-0.193959 -0.322026 0.169772
-0.189858 -0.321674 0.171918
-0.185597 -0.320794 0.173692
-0.180726 -0.321011 0.176012
-0.176851 -0.320611 0.17702
-0.172159 -0.320165 0.178448
-0.167824 -0.320202 0.180952
-0.164328 -0.3203 0.180856
-0.160185 -0.319616 0.182426
-0.155603 -0.319363 0.184407
-0.151284 -0.318987 0.185831
-0.147423 -0.319106 0.187635
-0.143061 -0.318812 0.188611
-0.138852 -0.318088 0.190713
-0.134461 -0.318092 0.191581
-0.130234 -0.318004 0.193479
-0.126467 -0.317908 0.194573
-0.122213 -0.317416 0.195759
-0.11761 -0.317333 0.196607
-0.113964 -0.31693 0.197726
-0.110069 -0.317055 0.197841
-0.105342 -0.316648 0.198869
-0.101397 -0.31679 0.20008
-0.0970296 -0.316416 0.201593
-0.093148 -0.316002 0.202203
-0.0895354 -0.316111 0.202316
-0.0850451 -0.316034 0.203717
-0.0810296 -0.31607 0.204696
-0.0767542 -0.315804 0.204585
-0.0728581 -0.315534 0.206117
-0.0687356 -0.315534 0.206689
-0.0646035 -0.315139 0.207341
-0.0605592 -0.315548 0.207271
-0.0567833 -0.315167 0.208506
-0.0528017 -0.315167 0.208788
-0.0487516 -0.314873 0.208822
-0.0443375 -0.31498 0.210042
-0.0406972 -0.315334 0.210588
-0.0362194 -0.314977 0.210677
-0.0320248 -0.314453 0.211406
-0.0282025 -0.314847 0.210669
-0.024153 -0.31427 0.211896
-0.020361 -0.314684 0.212135
-0.0159398 -0.314415 0.212399
-0.0124946 -0.314667 0.212091
-0.00785249 -0.31442 0.212784
-0.00436635 -0.314664 0.21163
0.000269193 -0.314115 0.212068
0.00369601 -0.314388 0.211562
0.00822121 -0.314458 0.211779
0.0122528 -0.315079 0.210704
0.0160603 -0.314781 0.209895
0.0200418 -0.314808 0.210163
0.0238478 -0.314969 0.208901
0.0286455 -0.315321 0.20879
0.0321114 -0.315444 0.208502
0.036307 -0.315414 0.207092
0.0406555 -0.31552 0.20679
0.0441597 -0.315252 0.206675
0.0486821 -0.315997 0.205939
0.0527973 -0.315579 0.205643
0.0568369 -0.315561 0.205723
0.0608379 -0.315935 0.204102
0.0648452 -0.31592 0.203962
0.0688713 -0.316071 0.203435
0.073011 -0.316599 0.201603
0.0771592 -0.316708 0.20078
0.0810783 -0.316638 0.200337
0.0852727 -0.316503 0.199593
0.0894799 -0.316783 0.197967
0.0938614 -0.317003 0.197216
0.0980202 -0.317493 0.195436
0.101825 -0.317994 0.193053
0.105998 -0.317928 0.192227
0.110111 -0.318243 0.191095
0.114502 -0.319011 0.18865
0.118817 -0.319044 0.186081
0.122788 -0.319261 0.185722
0.127145 -0.319385 0.183062
0.130945 -0.319525 0.181238
0.135394 -0.32044 0.178521
0.139817 -0.320822 0.176723
0.144325 -0.321064 0.173247
0.148066 -0.321244 0.171839
0.153061 -0.322295 0.167289
0.157449 -0.322705 0.164217
0.16163 -0.323603 0.161765
0.165947 -0.324144 0.158842
0.170414 -0.324228 0.156251
0.174694 -0.325329 0.152111
0.179872 -0.325954 0.146566
0.18418 -0.32657 0.142487
0.189469 -0.32867 0.132443
0.196277 -0.332869 0.107957
0.201139 -0.33413 0.102222
0.206359 -0.334915 0.0948358
0.211115 -0.336274 0.0886329
0.216823 -0.338402 0.0774993
0.222586 -0.340075 0.0646923
0.229392 -0.344456 0.0411811
-0.227744 -0.330349 0.0961497
-0.218286 -0.323052 0.139437
-0.212704 -0.320222 0.155584
-0.20719 -0.319503 0.163041
-0.202891 -0.318371 0.165589
-0.198455 -0.317909 0.167755
-0.193801 -0.31744 0.170473
-0.189813 -0.317611 0.172262
-0.18512 -0.317204 0.173542
-0.180809 -0.316947 0.175542
-0.176363 -0.316814 0.177218
-0.17272 -0.316899 0.178084
-0.168246 -0.315556 0.180167
-0.164111 -0.315706 0.181748
-0.16 -0.315564 0.18376
-0.155349 -0.3148 0.18465
-0.151716 -0.315057 0.18621
-0.147175 -0.314654 0.187012
-0.143004 -0.314742 0.188405
-0.139144 -0.314442 0.188474
-0.134636 -0.313979 0.19123
-0.130525 -0.313889 0.193055
-0.126024 -0.313728 0.194652
-0.122175 -0.313429 0.194264
-0.117891 -0.312976 0.19673
-0.113788 -0.312988 0.197833
-0.109691 -0.312734 0.198877
-0.105495 -0.31279 0.198955
-0.101593 -0.312528 0.199751
-0.0975709 -0.312714 0.201233
-0.0931345 -0.31219 0.202174
-0.0890903 -0.312111 0.203008
-0.0851937 -0.311951 0.202994
-0.0810026 -0.311943 0.20435
-0.0768636 -0.311466 0.205304
-0.0727351 -0.31147 0.205484
-0.0692845 -0.311542 0.206698
-0.0648916 -0.311062 0.206482
-0.0608805 -0.311342 0.207747
-0.0568714 -0.311192 0.207863
-0.0524435 -0.31125 0.209056
-0.0480459 -0.310686 0.210182
-0.0443904 -0.311073 0.209786
-0.0403578 -0.310884 0.210278
-0.0365234 -0.310474 0.210436
-0.0319047 -0.310345 0.211373
-0.0282627 -0.31099 0.211697
-0.0242262 -0.310454 0.211939
-0.0203188 -0.310433 0.211417
-0.0159923 -0.310507 0.212035
-0.012239 -0.310638 0.212507
-0.00801588 -0.310501 0.212598
-0.00360506 -0.310806 0.21173
0.000330384 -0.310212 0.211959
0.00390669 -0.310621 0.211056
0.00800609 -0.310478 0.212213
0.0122636 -0.311029 0.211375
0.0164775 -0.310844 0.211192
0.0204021 -0.310581 0.210792
0.0243229 -0.311231 0.209545
0.0281875 -0.310796 0.208153
0.0321402 -0.311252 0.208037
0.0363957 -0.311072 0.208204
0.0404731 -0.311002 0.207361
0.044333 -0.3113 0.206304
0.048516 -0.311261 0.207075
0.0527158 -0.311601 0.205345
0.0565025 -0.311745 0.205406
0.0604259 -0.311596 0.204641
0.0645372 -0.31197 0.203656
0.0687797 -0.312256 0.204035
0.0729905 -0.311777 0.203109
0.0773043 -0.312104 0.202116
0.0813031 -0.31264 0.200048
0.085657 -0.312684 0.199623
0.0892004 -0.31258 0.19912
0.0933934 -0.312833 0.197458
0.0975985 -0.313368 0.195955
0.101913 -0.313712 0.195388
0.105899 -0.313991 0.193072
0.110215 -0.314244 0.190533
0.114052 -0.314398 0.1888
0.118576 -0.315056 0.187292
0.12274 -0.315159 0.18585
0.126761 -0.315288 0.183545
0.131173 -0.315922 0.180968
0.13541 -0.3169 0.17778
0.140284 -0.316729 0.175731
0.144072 -0.316834 0.17412
0.148827 -0.318147 0.170567
0.152419 -0.318342 0.167964
0.157329 -0.318798 0.165358
0.161282 -0.319058 0.162838
0.165894 -0.319724 0.159279
0.170386 -0.320558 0.155169
0.175237 -0.320907 0.151162
0.179808 -0.321874 0.146502
0.184431 -0.322729 0.141384
0.189279 -0.324398 0.133611
0.196325 -0.328888 0.105989
0.200961 -0.329551 0.101564
0.206224 -0.330537 0.0951788
0.211263 -0.332093 0.0882384
0.216781 -0.333841 0.0762734
0.22304 -0.33668 0.0625011
0.230416 -0.340968 0.0364727
-0.230009 -0.329419 0.0777771
-0.216757 -0.317581 0.146785
-0.212024 -0.315691 0.157711
-0.207161 -0.315059 0.163015
-0.202356 -0.314489 0.165727
-0.198227 -0.314062 0.168434
-0.194208 -0.313709 0.169047
-0.189744 -0.313607 0.17114
-0.18513 -0.313114 0.174158
-0.18123 -0.312852 0.175109
-0.17699 -0.312507 0.176283
-0.172485 -0.312541 0.178609
-0.167959 -0.311508 0.18036
-0.163785 -0.311512 0.182291
-0.159522 -0.311537 0.183643
-0.15568 -0.311121 0.184003
-0.151768 -0.311461 0.184898
-0.147141 -0.311157 0.186391
-0.143181 -0.31083 0.188946
-0.138626 -0.310272 0.190879
-0.134484 -0.310355 0.191188
-0.130287 -0.309495 0.19226
-0.126181 -0.309219 0.193871
-0.12217 -0.309279 0.194627
-0.117884 -0.309189 0.196029
-0.11359 -0.309155 0.197369
-0.109664 -0.308798 0.197634
-0.105364 -0.308405 0.199997
-0.101482 -0.308566 0.199661
-0.0971531 -0.308356 0.200786
-0.0930063 -0.308073 0.201092
-0.0890864 -0.308378 0.201838
-0.0853693 -0.308404 0.203194
-0.0806253 -0.307661 0.204395
-0.0767459 -0.307506 0.204899
-0.0724869 -0.30754 0.20556
-0.0686395 -0.307573 0.206129
-0.0645805 -0.307385 0.206864
-0.0605147 -0.307081 0.207141
-0.0566563 -0.307175 0.207369
-0.0525373 -0.306941 0.20908
-0.0485242 -0.306917 0.209461
-0.0445623 -0.306674 0.209822
-0.0402855 -0.306616 0.209621
-0.0363178 -0.306835 0.210697
-0.0322651 -0.306836 0.210469
-0.028314 -0.306511 0.210837
-0.0238087 -0.306541 0.211497
-0.0200412 -0.306277 0.212196
-0.0159786 -0.30684 0.211986
-0.011992 -0.306494 0.212899
-0.00812365 -0.306523 0.2112
-0.00391996 -0.306172 0.212103
0.000146017 -0.306711 0.211853
0.0039741 -0.306727 0.210854
0.00791563 -0.306292 0.212091
0.0120701 -0.30666 0.210956
0.016031 -0.306805 0.210539
0.0200229 -0.306658 0.209677
0.024542 -0.306962 0.209237
0.0282973 -0.30744 0.208623
0.0320163 -0.307015 0.209337
0.0360188 -0.306995 0.207915
0.0406016 -0.306794 0.207605
0.0445651 -0.307282 0.207051
0.0483543 -0.307285 0.20673
0.0523925 -0.307732 0.206093
0.0570188 -0.307597 0.206075
0.060891 -0.307403 0.205429
0.0646742 -0.30765 0.205421
0.0686513 -0.307781 0.204243
0.0730214 -0.307952 0.203683
0.0767995 -0.308089 0.202392
0.0812493 -0.308182 0.200987
0.0850597 -0.308271 0.200953
0.0892813 -0.308793 0.198567
0.0934169 -0.308586 0.198249
0.0974058 -0.309389 0.196285
0.102183 -0.309462 0.194165
0.105698 -0.309915 0.193805
0.109893 -0.309431 0.192283
0.114085 -0.309914 0.190176
0.118585 -0.310708 0.187188
0.12281 -0.311148 0.185781
0.12718 -0.311379 0.183446
0.130795 -0.311531 0.181098
0.135693 -0.31208 0.178877
0.139942 -0.31266 0.176442
0.144243 -0.312954 0.173939
0.148797 -0.313533 0.171446
0.152791 -0.313823 0.168695
0.157441 -0.314757 0.165092
0.161461 -0.31506 0.161698
0.165706 -0.315655 0.159553
0.170613 -0.316144 0.154751
0.175484 -0.317192 0.150983
0.180111 -0.317998 0.146038
0.184464 -0.318516 0.14233
0.189457 -0.319704 0.134378
0.196447 -0.324881 0.104817
0.200967 -0.325269 0.101653
0.206201 -0.326456 0.0944053
0.211251 -0.327859 0.0870457
0.217151 -0.32987 0.0748372
0.223086 -0.332321 0.0610647
0.229546 -0.335955 0.0405456
-0.225082 -0.318132 0.118591
-0.216787 -0.312727 0.150192
-0.21186 -0.311874 0.15891
-0.207186 -0.310818 0.164178
-0.20257 -0.309837 0.166013
-0.198305 -0.309415 0.16798
-0.194096 -0.309557 0.169081
-0.189409 -0.309185 0.172723
-0.185418 -0.308745 0.173597
-0.180803 -0.308785 0.175551
-0.17692 -0.308421 0.176836
-0.172604 -0.308284 0.178513
-0.168008 -0.307937 0.17996
-0.164258 -0.307173 0.182811
-0.159968 -0.307015 0.182112
-0.155709 -0.306993 0.18423
-0.151298 -0.306721 0.185386
-0.147169 -0.306468 0.186994
-0.142939 -0.30655 0.188298
-0.138438 -0.306068 0.190079
-0.134763 -0.306045 0.191089
-0.130139 -0.305987 0.192505
-0.126251 -0.305479 0.19318
-0.122287 -0.305852 0.193636
-0.118319 -0.305365 0.195316
-0.113785 -0.305114 0.196702
-0.109924 -0.305104 0.197395
-0.105304 -0.304321 0.198589
-0.101539 -0.304403 0.199336
-0.097472 -0.304114 0.200475
-0.093318 -0.304281 0.201301
-0.0893116 -0.304263 0.201489
-0.0852493 -0.304039 0.201903
-0.0811166 -0.30375 0.203571
-0.0769171 -0.303293 0.205218
-0.0729751 -0.303308 0.206043
-0.068622 -0.303286 0.206372
-0.0650777 -0.303354 0.206282
-0.0607129 -0.303351 0.207036
-0.0566314 -0.3029 0.208805
-0.0521859 -0.303127 0.208933
-0.0483927 -0.302728 0.209208
-0.044346 -0.302833 0.20933
-0.0407889 -0.302489 0.209333
-0.0363469 -0.302834 0.210764
-0.0321964 -0.302689 0.210625
-0.0281399 -0.302522 0.211044
-0.0241294 -0.302271 0.21107
-0.0199322 -0.302576 0.211479
-0.016082 -0.302416 0.211579
-0.0122519 -0.302301 0.211873
-0.00797853 -0.302325 0.211561
-0.00420453 -0.302103 0.21227
0.000727659 -0.302294 0.212055
0.00423835 -0.302718 0.211217
0.0086329 -0.302446 0.211371
0.0117822 -0.302695 0.21153
0.016335 -0.302896 0.208836
0.0200334 -0.30305 0.210171
0.0240558 -0.30283 0.209217
0.0285434 -0.302691 0.209771
0.0322723 -0.302694 0.209635
0.0362631 -0.303337 0.208288
0.0401161 -0.302692 0.208877
0.0441908 -0.30344 0.206531
0.0483608 -0.302844 0.207844
0.0527001 -0.302741 0.208076
0.0568414 -0.303004 0.206837
0.060722 -0.303378 0.206415
0.0643925 -0.303784 0.205593
0.0689992 -0.303448 0.205211
0.0729655 -0.303832 0.203898
0.0770573 -0.303717 0.2039
0.0812532 -0.304332 0.202243
0.0855654 -0.3043 0.200294
0.0895725 -0.304519 0.199602
0.0934866 -0.30469 0.197625
0.0978682 -0.305042 0.196803
0.101514 -0.304852 0.195949
0.105887 -0.305371 0.193954
0.110016 -0.305784 0.19132
0.114223 -0.306354 0.189948
0.118744 -0.306635 0.187205
0.122379 -0.306952 0.185834
0.127001 -0.307604 0.183537
0.131367 -0.30777 0.181968
0.135463 -0.307962 0.179434
0.140005 -0.308204 0.176839
0.143849 -0.30874 0.174294
0.148831 -0.309256 0.17032
0.153029 -0.310109 0.167953
0.157028 -0.310387 0.165487
0.161995 -0.310765 0.161312
0.165863 -0.311372 0.158185
0.170643 -0.312153 0.154782
0.174975 -0.31267 0.151989
0.179359 -0.313281 0.147679
0.184195 -0.314213 0.142786
0.189402 -0.315384 0.135329
0.196123 -0.320825 0.104244
0.20147 -0.321575 0.0977942
0.206057 -0.322548 0.0930241
0.211439 -0.323847 0.0848222
0.217284 -0.326199 0.0746495
0.22339 -0.328442 0.0595506
0.230484 -0.332297 0.0356865
-0.223195 -0.311441 0.132961
-0.216299 -0.308032 0.153849
-0.211213 -0.306988 0.160465
-0.20745 -0.30661 0.162768
-0.202401 -0.306203 0.165774
-0.198201 -0.305489 0.168005
-0.193972 -0.305246 0.169756
-0.189811 -0.305164 0.170611
-0.185374 -0.304773 0.173484
-0.181059 -0.304376 0.175464
-0.177307 -0.304254 0.17657
-0.172193 -0.304183 0.17803
-0.16855 -0.304115 0.179018
-0.164172 -0.303631 0.180507
-0.160429 -0.303444 0.181534
-0.155543 -0.302728 0.184078
-0.151476 -0.303018 0.185386
-0.147399 -0.302503 0.187946
-0.142966 -0.30217 0.188259
-0.138482 -0.30236 0.189889
-0.134928 -0.301736 0.191042
-0.130376 -0.301752 0.192682
-0.126436 -0.301728 0.191572
-0.121737 -0.301627 0.194091
-0.117821 -0.301385 0.195605
-0.113817 -0.300902 0.196147
-0.109539 -0.300617 0.197771
-0.105587 -0.300611 0.198185
-0.101319 -0.300088 0.198387
-0.0976681 -0.300666 0.199535
-0.093401 -0.300181 0.200437
-0.089158 -0.300139 0.200998
-0.0853099 -0.299896 0.202916
-0.0811309 -0.299799 0.202726
-0.0768813 -0.299294 0.205295
-0.0730188 -0.29944 0.205225
-0.0686646 -0.299443 0.205801
-0.0647233 -0.299201 0.207047
-0.0608851 -0.299132 0.207459
-0.056544 -0.29916 0.207041
-0.0528539 -0.299233 0.208488
-0.0486669 -0.298869 0.208686
-0.0441269 -0.298898 0.209851
-0.0401271 -0.299026 0.21031
-0.0366892 -0.299131 0.209582
-0.0320946 -0.298844 0.210067
-0.0281853 -0.298471 0.210407
-0.0241326 -0.298494 0.211085
-0.020147 -0.298357 0.211492
-0.0161391 -0.298389 0.211067
-0.0120194 -0.298405 0.21151
-0.00804961 -0.298038 0.212773
-0.00427527 -0.298285 0.211204
-0.000371374 -0.29843 0.211647
0.00406069 -0.298677 0.211699
0.00815107 -0.298387 0.211641
0.0119641 -0.29859 0.211203
0.0159184 -0.298502 0.211683
0.019833 -0.298698 0.210235
0.0245792 -0.298789 0.209217
0.028541 -0.298619 0.209587
0.0321465 -0.298922 0.209593
0.0358824 -0.298725 0.208609
0.0403965 -0.298762 0.208162
0.0442347 -0.298607 0.208086
0.0484955 -0.299153 0.207348
0.0527255 -0.29896 0.207968
0.0566783 -0.2994 0.207391
0.0608968 -0.298995 0.20762
0.0648609 -0.29875 0.207237
0.0684369 -0.299545 0.204795
0.0728467 -0.300015 0.204431
0.0769469 -0.299761 0.204518
0.0811705 -0.300042 0.202309
0.0854213 -0.30042 0.201568
0.0892045 -0.300593 0.200381
0.0931428 -0.300844 0.19799
0.0973747 -0.30104 0.197466
0.10197 -0.301671 0.195587
0.10602 -0.301405 0.194202
0.110534 -0.30185 0.192005
0.11428 -0.302122 0.189523
0.118496 -0.301864 0.187765
0.122837 -0.302832 0.185119
0.127263 -0.302946 0.183437
0.131033 -0.30346 0.181654
0.135647 -0.304147 0.178727
0.14001 -0.304234 0.17639
0.144174 -0.304677 0.173413
0.148326 -0.305209 0.171227
0.153011 -0.305715 0.167639
0.157094 -0.306362 0.164918
0.161627 -0.306579 0.162166
0.16635 -0.307484 0.158144
0.170683 -0.307731 0.154706
0.175065 -0.30847 0.151734
0.179652 -0.309456 0.146154
0.184644 -0.310087 0.141501
0.189293 -0.310774 0.136399
0.195166 -0.313756 0.11852
0.201756 -0.317594 0.0961101
0.206613 -0.318668 0.0906285
0.21226 -0.320371 0.0819955
0.217111 -0.321954 0.0722039
0.223566 -0.324765 0.0573325
-0.221949 -0.305547 0.142153
-0.216253 -0.303562 0.155663
-0.211098 -0.302981 0.160836
-0.207268 -0.301955 0.163781
-0.20272 -0.302014 0.165802
-0.198332 -0.301857 0.167459
-0.194121 -0.301371 0.170562
-0.189912 -0.30097 0.170745
-0.185555 -0.300785 0.173028
-0.181215 -0.300649 0.174107
-0.17697 -0.300626 0.176164
-0.17197 -0.299959 0.178359
-0.168433 -0.299819 0.178243
-0.164226 -0.299699 0.181034
-0.159642 -0.299054 0.182651
-0.155888 -0.298975 0.183339
-0.151409 -0.29862 0.185271
-0.147329 -0.298465 0.188139
-0.142963 -0.298243 0.188531
-0.138835 -0.29801 0.189275
-0.134549 -0.297846 0.1911
-0.130307 -0.298019 0.192261
-0.126274 -0.297632 0.192804
-0.12226 -0.297506 0.193674
-0.11825 -0.297141 0.194778
-0.113545 -0.29728 0.196858
-0.109756 -0.296705 0.196427
-0.105524 -0.296275 0.198098
-0.101482 -0.296601 0.198912
-0.0969531 -0.296192 0.199445
-0.0934364 -0.295744 0.201206
-0.0893408 -0.295981 0.200729
-0.085558 -0.296172 0.202294
-0.0810632 -0.295779 0.202745
-0.076861 -0.295811 0.203991
-0.0729534 -0.295074 0.205292
-0.0687596 -0.2955 0.205465
-0.0645639 -0.295419 0.205328
-0.0606317 -0.295479 0.205821
-0.0568359 -0.295261 0.206984
-0.0523623 -0.2956 0.207252
-0.0484333 -0.295234 0.208488
-0.0443938 -0.294623 0.209468
-0.0405674 -0.294917 0.209475
-0.036576 -0.294923 0.209501
-0.0323027 -0.294769 0.209901
-0.0282452 -0.294651 0.210129
-0.0241361 -0.294197 0.211032
-0.0198511 -0.294502 0.210872
-0.0165959 -0.294558 0.21084
-0.0123682 -0.294497 0.2108
-0.00782572 -0.294136 0.212181
-0.0042715 -0.294141 0.211623
0.000104049 -0.29402 0.211427
0.00435761 -0.295181 0.210666
