ply
format ascii 1.0
element vertex 1668
property float x
property float y
property float z
end_header
-0.0198994 -0.160758 0.220781
-0.0160024 -0.16068 0.218734
-0.012335 -0.160918 0.21683
-0.00825422 -0.160756 0.216807
-0.0040229 -0.160997 0.214845
-0.000299522 -0.160976 0.214233
0.00417848 -0.161072 0.213111
0.00787765 -0.161113 0.211762
0.0120988 -0.161358 0.210074
0.0163097 -0.161355 0.209525
0.0199795 -0.161538 0.20871
0.0243606 -0.161651 0.206452
0.0282196 -0.161944 0.204821
0.0326778 -0.161959 0.203686
0.0362317 -0.162113 0.202564
0.040747 -0.162632 0.200277
0.0444216 -0.162749 0.198316
0.0490268 -0.162422 0.198009
0.0530473 -0.162843 0.19668
0.0573071 -0.162896 0.195179
0.0611804 -0.162417 0.194355
0.0651892 -0.162952 0.191974
0.0693349 -0.16327 0.190305
0.0732355 -0.163312 0.189517
0.077665 -0.163712 0.18679
0.0813389 -0.163787 0.186838
0.0858146 -0.163642 0.185581
0.0900883 -0.164254 0.183556
0.0946335 -0.163764 0.182797
0.0983985 -0.164099 0.180414
0.103279 -0.164352 0.178532
0.106704 -0.164509 0.177484
0.110664 -0.164485 0.177293
0.115327 -0.164733 0.173782
0.119776 -0.165124 0.172453
0.123555 -0.165316 0.171169
0.128326 -0.165011 0.168942
0.132079 -0.16541 0.168782
0.136181 -0.165657 0.166334
0.140673 -0.165563 0.163137
0.145274 -0.165861 0.161555
0.149379 -0.166276 0.159279
0.153392 -0.165813 0.158129
0.157949 -0.165836 0.156219
0.162338 -0.166413 0.1544
0.167048 -0.167041 0.151868
0.171314 -0.166932 0.150472
0.175676 -0.16686 0.148418
0.179603 -0.167245 0.146983
0.184043 -0.167194 0.145962
0.188743 -0.167439 0.142997
0.192856 -0.167753 0.141569
0.197815 -0.168181 0.139655
0.201448 -0.167834 0.139335
0.205696 -0.167949 0.137097
0.210347 -0.168395 0.135518
0.214727 -0.168498 0.132854
0.219173 -0.168732 0.131356
0.223424 -0.168627 0.129583
0.228034 -0.169157 0.126274
0.232626 -0.1688 0.125884
0.237262 -0.16919 0.12221
0.241545 -0.16947 0.118924
0.246353 -0.170243 0.115848
0.251138 -0.170307 0.110554
0.256668 -0.171308 0.103002
-0.207624 -0.180195 -0.0448189
-0.197138 -0.17475 0.0143527
-0.190426 -0.172855 0.0309036
-0.177339 -0.16494 0.128299
-0.172 -0.163161 0.143276
-0.166165 -0.162086 0.160099
-0.161053 -0.160718 0.171199
-0.155546 -0.159597 0.184176
-0.150289 -0.158216 0.195872
-0.145981 -0.158139 0.204185
-0.141209 -0.157134 0.212997
-0.136794 -0.156211 0.219804
-0.132193 -0.156053 0.227198
-0.127578 -0.155511 0.229973
-0.123673 -0.155422 0.232035
-0.119597 -0.154926 0.233977
-0.115717 -0.155556 0.234116
-0.111293 -0.15518 0.234649
-0.107555 -0.155385 0.235107
-0.103264 -0.155336 0.235206
-0.0994241 -0.155399 0.235749
-0.0958642 -0.155496 0.235277
-0.0915864 -0.154981 0.23559
-0.0877051 -0.155412 0.23429
-0.0837415 -0.155407 0.234195
-0.0795501 -0.155579 0.2333
-0.0758233 -0.155407 0.232556
-0.0717248 -0.155706 0.23077
-0.0673573 -0.15542 0.231223
-0.0639415 -0.155885 0.231345
-0.0594028 -0.155398 0.229924
-0.0561033 -0.155637 0.229195
-0.0518441 -0.15589 0.22845
-0.0480296 -0.156069 0.227062
-0.0441086 -0.156164 0.226496
-0.0398259 -0.155787 0.225864
-0.035832 -0.156014 0.224736
-0.0318952 -0.156108 0.223776
-0.0280376 -0.155857 0.223792
-0.0240204 -0.156763 0.221382
-0.0201433 -0.156509 0.220916
-0.0155521 -0.156424 0.219751
-0.0116773 -0.156688 0.217291
-0.00819107 -0.156508 0.217087
-0.00373791 -0.156388 0.215576
-2.3204e-05 -0.15701 0.21423
0.00414678 -0.157416 0.213093
0.00811785 -0.157169 0.211445
0.0120495 -0.157216 0.210178
0.0160105 -0.157831 0.208607
0.0200684 -0.157422 0.208128
0.0240468 -0.157953 0.206653
0.0282317 -0.157776 0.204933
0.0323004 -0.158203 0.203461
0.0362841 -0.158685 0.202007
0.0408898 -0.158325 0.19979
0.0445989 -0.158554 0.19949
0.0492124 -0.158667 0.197947
0.0528962 -0.158729 0.196686
0.0566863 -0.1592 0.195652
0.0609518 -0.158687 0.194559
0.0650998 -0.158864 0.193659
0.0694714 -0.159106 0.190128
0.0733711 -0.159056 0.18977
0.0774668 -0.159609 0.188513
0.0816736 -0.159308 0.18626
0.0855943 -0.159656 0.184777
0.090561 -0.159662 0.183221
0.0943324 -0.159586 0.182084
0.0983659 -0.159929 0.180947
0.102462 -0.159835 0.180342
0.10678 -0.160214 0.177595
0.110822 -0.160773 0.176029
0.115115 -0.160837 0.174547
0.119545 -0.160864 0.173066
0.124075 -0.160955 0.170626
0.127829 -0.160968 0.169664
0.132341 -0.161282 0.16784
0.136571 -0.161195 0.165243
0.140822 -0.161059 0.163419
0.144917 -0.161746 0.161233
0.149427 -0.161966 0.159838
0.153781 -0.162323 0.157159
0.158361 -0.162162 0.155347
0.162063 -0.162368 0.154875
0.166457 -0.162712 0.15238
0.171161 -0.163033 0.150475
0.175894 -0.162569 0.148756
0.179635 -0.163079 0.147024
0.184259 -0.163456 0.144926
0.188288 -0.163301 0.143938
0.192717 -0.163363 0.142364
0.197132 -0.163619 0.139847
0.201441 -0.163605 0.138975
0.20534 -0.163793 0.137053
0.210177 -0.163973 0.135368
0.214765 -0.164352 0.133806
0.219426 -0.164296 0.131917
0.2235 -0.164283 0.129659
0.227968 -0.164592 0.127657
0.232704 -0.164815 0.124874
0.237086 -0.164723 0.123361
0.241572 -0.165429 0.119801
0.246087 -0.165792 0.117065
0.251645 -0.166318 0.111096
0.256406 -0.166677 0.103533
-0.207471 -0.175244 -0.0460806
-0.196811 -0.1699 0.0151478
-0.190908 -0.168869 0.0305696
-0.177296 -0.160309 0.127014
-0.171343 -0.159018 0.144915
-0.16568 -0.157596 0.160036
-0.161239 -0.156853 0.170097
-0.156097 -0.155636 0.183402
-0.150934 -0.154537 0.193731
-0.145631 -0.153677 0.204078
-0.14076 -0.153431 0.214072
-0.136942 -0.152761 0.218863
-0.132059 -0.15205 0.226129
-0.12768 -0.151972 0.230474
-0.1236 -0.151543 0.232375
-0.119606 -0.151667 0.23404
-0.115293 -0.151704 0.234271
-0.111766 -0.151039 0.235514
-0.107723 -0.151365 0.235022
-0.103529 -0.151566 0.235455
-0.0994389 -0.151683 0.235117
-0.0953973 -0.151521 0.235506
-0.0915968 -0.151567 0.234465
-0.0877625 -0.151148 0.234147
-0.0835813 -0.151198 0.234652
-0.079913 -0.151638 0.232685
-0.0758956 -0.15121 0.232751
-0.0717001 -0.151474 0.232386
-0.067988 -0.151548 0.231053
-0.0639354 -0.15148 0.2301
-0.0597417 -0.151519 0.230421
-0.0558094 -0.151882 0.229222
-0.0519601 -0.151522 0.22852
-0.0477612 -0.151734 0.228131
-0.0439084 -0.151868 0.226826
-0.0398046 -0.152182 0.226238
-0.0357485 -0.15235 0.223573
-0.0319801 -0.151871 0.22435
-0.0279904 -0.152125 0.222459
-0.0242791 -0.152329 0.221596
-0.0202987 -0.152479 0.221583
-0.0159408 -0.152233 0.220187
-0.0123812 -0.152936 0.218409
-0.00779711 -0.152709 0.217358
-0.00398183 -0.153564 0.215515
-9.68317e-05 -0.152987 0.214762
0.00425321 -0.152851 0.213035
0.00816167 -0.15358 0.21226
0.0122039 -0.153183 0.210441
0.0164239 -0.153156 0.209497
0.0198518 -0.153645 0.207981
0.0244213 -0.153449 0.206957
0.0285797 -0.153949 0.204343
0.0322296 -0.153729 0.204545
0.036115 -0.153749 0.203225
0.0408571 -0.154504 0.19969
0.0447068 -0.154468 0.199743
0.0488386 -0.154555 0.198516
0.0528353 -0.154481 0.196921
0.0569375 -0.154849 0.196212
0.0608856 -0.154796 0.195245
0.0654998 -0.154752 0.192531
0.0696479 -0.154962 0.19081
0.0735834 -0.155504 0.189362
0.0777472 -0.155486 0.188227
0.0816938 -0.155555 0.187155
0.0859567 -0.155792 0.185496
0.0902353 -0.155804 0.183564
0.0943743 -0.155916 0.18181
0.0985597 -0.155646 0.179948
0.102347 -0.155946 0.179992
0.106721 -0.15578 0.179019
0.111462 -0.155913 0.176704
0.115306 -0.15662 0.175246
0.119547 -0.156631 0.173262
0.123366 -0.157066 0.170913
0.127768 -0.156879 0.169775
0.132621 -0.157158 0.167709
0.136624 -0.157295 0.165533
0.140597 -0.157847 0.163531
0.145178 -0.157198 0.161065
0.148889 -0.157739 0.15941
0.154243 -0.157846 0.157563
0.15796 -0.157613 0.155996
0.162455 -0.15835 0.154916
0.166645 -0.158511 0.152425
0.170994 -0.158811 0.150777
0.175599 -0.15838 0.149123
0.179633 -0.158684 0.146601
0.183554 -0.158997 0.14514
0.188267 -0.158711 0.144143
0.192994 -0.159272 0.141096
0.196978 -0.159371 0.140075
0.201693 -0.159228 0.138621
0.205784 -0.159852 0.137881
0.209746 -0.159767 0.136297
0.214747 -0.159874 0.133648
0.219341 -0.160138 0.131089
0.223283 -0.160005 0.130801
0.227985 -0.160631 0.128123
0.232497 -0.160838 0.12535
0.237117 -0.161139 0.122929
0.241641 -0.160885 0.12003
0.246919 -0.161568 0.116172
0.251039 -0.161634 0.112743
0.256108 -0.162269 0.105442
-0.197423 -0.165907 0.0128869
-0.19077 -0.164192 0.0310968
-0.177538 -0.156853 0.125376
-0.171561 -0.155268 0.142401
-0.165881 -0.154109 0.15793
-0.160835 -0.153135 0.171007
-0.155799 -0.151438 0.18248
-0.150563 -0.150801 0.194147
-0.145594 -0.149947 0.20417
-0.141247 -0.149015 0.210971
-0.136533 -0.148711 0.218476
-0.132101 -0.147882 0.226022
-0.127527 -0.147621 0.230529
-0.123572 -0.147648 0.233951
-0.11911 -0.147245 0.234247
-0.115621 -0.147395 0.234478
-0.111382 -0.147378 0.235723
-0.107237 -0.147147 0.235424
-0.103204 -0.147272 0.235955
-0.0993849 -0.147157 0.236181
-0.095592 -0.14721 0.235476
-0.0916716 -0.147575 0.235127
-0.0876669 -0.147007 0.235532
-0.0833264 -0.146898 0.234282
-0.0798576 -0.147158 0.233285
-0.0759373 -0.147568 0.233286
-0.0717989 -0.147542 0.232782
-0.067569 -0.147699 0.231206
-0.0637805 -0.147467 0.230814
-0.0597447 -0.147512 0.230427
-0.0556745 -0.14763 0.229935
-0.0517854 -0.148291 0.228197
-0.0477734 -0.147987 0.227757
-0.0441734 -0.147879 0.227093
-0.0396962 -0.148234 0.22579
-0.0360651 -0.147758 0.22522
-0.0320217 -0.14848 0.223514
-0.0280224 -0.148333 0.223077
-0.0237047 -0.1485 0.22291
-0.0201865 -0.148126 0.220826
-0.0158943 -0.148138 0.220021
-0.0121197 -0.148524 0.218947
-0.00788966 -0.149081 0.217143
-0.00417415 -0.149091 0.215782
-0.000170905 -0.148969 0.214628
0.00402461 -0.149028 0.213803
0.00806565 -0.149008 0.21172
0.0121066 -0.149294 0.210342
0.0160903 -0.149179 0.210191
0.0199237 -0.149235 0.208139
0.0242931 -0.149371 0.207345
0.0282527 -0.149584 0.204787
0.0325425 -0.149981 0.204476
0.036491 -0.149774 0.203175
0.040268 -0.150333 0.201223
0.044582 -0.150503 0.199642
0.0489783 -0.150088 0.198404
0.0530713 -0.150433 0.196921
0.0569621 -0.150637 0.195235
0.061103 -0.151024 0.194485
0.0648589 -0.151011 0.193548
0.0693147 -0.150831 0.191716
0.0733935 -0.151094 0.189789
0.0777783 -0.151441 0.18852
0.0815617 -0.151471 0.186748
0.0860367 -0.151492 0.185742
0.0902379 -0.150991 0.184358
0.0941758 -0.151882 0.182779
0.0988495 -0.151281 0.181502
0.102358 -0.152074 0.179842
0.107117 -0.152197 0.178691
0.110713 -0.152239 0.176572
0.115038 -0.152136 0.175668
0.119713 -0.152413 0.173415
0.123676 -0.152484 0.171964
0.128037 -0.153152 0.1696
0.132055 -0.152976 0.166955
0.136284 -0.15323 0.165856
0.140748 -0.153226 0.163789
0.144911 -0.153503 0.161394
0.14943 -0.153369 0.159454
0.153696 -0.153579 0.158711
0.158115 -0.154195 0.155169
0.162283 -0.15375 0.154889
0.166629 -0.154068 0.152669
0.170915 -0.154224 0.15123
0.175473 -0.154191 0.149022
0.179313 -0.154331 0.147008
0.184068 -0.1545 0.145892
0.187989 -0.155136 0.144795
0.192795 -0.15489 0.14236
0.196967 -0.155074 0.141544
0.201483 -0.154979 0.138599
0.205974 -0.155672 0.137963
0.209912 -0.15554 0.135662
0.214637 -0.155872 0.133721
0.218948 -0.155945 0.133257
0.223397 -0.156038 0.129837
0.227516 -0.156319 0.129165
0.232659 -0.156431 0.126121
0.23688 -0.15681 0.123565
0.241242 -0.156557 0.12147
0.246225 -0.157421 0.116682
0.251005 -0.157717 0.111626
0.256125 -0.157913 0.104974
-0.197296 -0.161466 0.012412
-0.190984 -0.159887 0.0301911
-0.177221 -0.151814 0.125673
-0.172077 -0.150692 0.140658
-0.166502 -0.149618 0.155893
-0.16065 -0.148238 0.17012
-0.156104 -0.148075 0.181251
-0.150703 -0.14665 0.192746
-0.146169 -0.145855 0.201521
-0.141272 -0.145084 0.211062
-0.136567 -0.144665 0.219281
-0.131966 -0.143661 0.225615
-0.127597 -0.143415 0.230615
-0.123933 -0.143155 0.234241
-0.119496 -0.143225 0.234503
-0.115538 -0.143448 0.234751
-0.111527 -0.14312 0.234792
-0.107518 -0.143192 0.236517
-0.103611 -0.143176 0.235981
-0.0996604 -0.143138 0.236552
-0.0955946 -0.143303 0.235937
-0.0916237 -0.143311 0.235498
-0.0876951 -0.143493 0.236202
-0.0834402 -0.143149 0.234053
-0.0797105 -0.143364 0.233902
-0.0759425 -0.143299 0.233601
-0.0717996 -0.143782 0.23225
-0.0681307 -0.143547 0.231935
-0.0641856 -0.143698 0.231097
-0.0600451 -0.143439 0.230782
-0.0556223 -0.143823 0.228925
-0.0517496 -0.143479 0.228873
-0.0480704 -0.143893 0.228763
-0.0439729 -0.143873 0.226792
-0.0397517 -0.143748 0.226627
-0.0361362 -0.143815 0.224856
-0.0318504 -0.144269 0.224197
-0.0282667 -0.144041 0.223102
-0.0237348 -0.144197 0.222333
-0.0201057 -0.144459 0.221053
-0.0163416 -0.14461 0.220135
-0.0121213 -0.144232 0.21835
-0.00801685 -0.144775 0.216884
-0.00390681 -0.144948 0.215482
-0.000348379 -0.144834 0.214776
0.00380931 -0.144664 0.21342
0.00796295 -0.145516 0.212188
0.0124611 -0.144925 0.210816
0.0162386 -0.145505 0.209198
0.0204596 -0.145353 0.208253
0.024275 -0.145688 0.207497
0.0280258 -0.145612 0.205267
0.0322823 -0.145773 0.204281
0.0364482 -0.145792 0.203574
0.0404398 -0.145962 0.201247
0.0448521 -0.146167 0.200578
0.0485344 -0.146331 0.19947
0.0526053 -0.146344 0.197091
0.0569046 -0.146497 0.196644
0.0611671 -0.146851 0.194488
0.0651102 -0.146679 0.193364
0.0695208 -0.146685 0.191277
0.0734844 -0.14693 0.189548
0.0777986 -0.147307 0.188424
0.0814627 -0.14711 0.18694
0.0860692 -0.147572 0.185987
0.0900346 -0.147346 0.183936
0.0946041 -0.147259 0.182812
0.0987303 -0.147377 0.180918
0.102548 -0.14785 0.180112
0.106882 -0.147939 0.179052
0.110643 -0.148218 0.177116
0.115061 -0.147841 0.175715
0.119132 -0.148184 0.174086
0.124113 -0.148371 0.171151
0.128127 -0.148773 0.169878
0.131922 -0.148829 0.167978
0.136431 -0.148895 0.165427
0.140763 -0.149447 0.163374
0.145314 -0.149154 0.161461
0.149394 -0.149801 0.159948
0.1536 -0.1496 0.157421
0.157981 -0.14963 0.156186
0.162479 -0.149796 0.15478
0.16685 -0.149949 0.153695
0.170991 -0.150277 0.150392
0.175523 -0.15032 0.148981
0.179315 -0.150154 0.14815
0.184432 -0.150322 0.146249
0.188265 -0.1505 0.14432
0.192695 -0.150812 0.14257
0.19743 -0.151028 0.14044
0.201437 -0.151077 0.139796
0.206001 -0.151282 0.136851
0.210192 -0.151274 0.136297
0.214263 -0.1516 0.134332
0.21879 -0.151392 0.132723
0.223481 -0.151823 0.129948
0.2277 -0.152018 0.128363
0.232107 -0.152012 0.12773
0.236888 -0.152129 0.123657
0.241487 -0.152534 0.121175
0.246318 -0.152794 0.117004
0.250989 -0.152942 0.112676
0.256804 -0.1537 0.104466
-0.19736 -0.157307 0.0111487
-0.191286 -0.156108 0.0293312
-0.177888 -0.147931 0.122648
-0.172182 -0.147191 0.139523
-0.166435 -0.145326 0.154516
-0.161059 -0.144499 0.169075
-0.15589 -0.143665 0.180798
-0.150739 -0.142635 0.191774
-0.146104 -0.142136 0.202063
-0.141433 -0.141352 0.210054
-0.136643 -0.140419 0.218589
-0.131827 -0.139795 0.226031
-0.128003 -0.139495 0.231088
-0.123717 -0.139586 0.233382
-0.11946 -0.13908 0.234296
-0.115457 -0.139227 0.234944
-0.11126 -0.13946 0.235896
-0.107746 -0.139247 0.235623
-0.103675 -0.139154 0.236019
-0.0998653 -0.139382 0.236248
-0.0954055 -0.139147 0.236312
-0.091401 -0.139335 0.235478
-0.0874632 -0.139168 0.235828
-0.0834525 -0.139063 0.234444
-0.0798604 -0.139324 0.234876
-0.0760508 -0.139283 0.23313
-0.071649 -0.139778 0.233095
-0.0680125 -0.139246 0.232405
-0.063995 -0.13975 0.231829
-0.0600269 -0.139645 0.230908
-0.055977 -0.139566 0.22991
-0.0519354 -0.139977 0.229016
-0.0478273 -0.139982 0.227858
-0.0439343 -0.140226 0.227274
-0.0398704 -0.139898 0.225768
-0.0360706 -0.139951 0.225563
-0.0318702 -0.140254 0.224213
-0.0279029 -0.140099 0.223064
-0.0238842 -0.140101 0.221655
-0.0199948 -0.139885 0.220911
-0.0159287 -0.140566 0.219763
-0.0122698 -0.140821 0.218487
-0.00801322 -0.140808 0.216747
-0.00370991 -0.14093 0.214926
-1.95885e-05 -0.140993 0.213913
0.00404766 -0.141198 0.213782
0.00790472 -0.14132 0.211667
0.0119864 -0.141221 0.210926
0.0165524 -0.141212 0.209796
0.0202293 -0.141493 0.207734
0.0243831 -0.141738 0.208052
0.0283794 -0.141714 0.205747
0.0323349 -0.141639 0.205387
0.0364688 -0.141947 0.203044
0.0401727 -0.142356 0.202178
0.044345 -0.141976 0.20055
0.048804 -0.142239 0.199048
0.0528078 -0.142282 0.197685
0.0572119 -0.142234 0.19656
0.0609666 -0.142337 0.194759
0.0648535 -0.142143 0.193418
0.069207 -0.142412 0.192209
0.0735972 -0.142874 0.190065
0.0779206 -0.143057 0.189001
0.0816173 -0.143231 0.187175
0.0857629 -0.142973 0.185971
0.0903256 -0.143374 0.184296
0.0940771 -0.143303 0.183075
0.0984194 -0.143799 0.181679
0.102563 -0.143524 0.180543
0.106666 -0.143796 0.179643
0.111198 -0.143601 0.177181
0.115639 -0.144303 0.175846
0.11963 -0.143957 0.173552
0.123342 -0.144011 0.173692
0.128316 -0.144654 0.170156
0.132286 -0.144366 0.168146
0.136463 -0.144497 0.165792
0.140644 -0.145248 0.163501
0.145373 -0.144858 0.161789
0.149749 -0.144895 0.159191
0.153837 -0.145297 0.158455
0.158019 -0.145401 0.156717
0.162267 -0.145975 0.153605
0.166419 -0.145584 0.153275
0.171266 -0.146288 0.150278
0.175178 -0.146559 0.148741
0.179441 -0.146276 0.147872
0.184188 -0.14627 0.145801
0.188081 -0.146321 0.144902
0.192747 -0.146697 0.143034
0.196615 -0.146407 0.141708
0.201349 -0.146887 0.139416
0.20618 -0.146918 0.13809
0.21027 -0.146964 0.136794
0.214439 -0.1473 0.134831
0.219353 -0.147347 0.131581
0.223117 -0.147716 0.130239
0.227838 -0.147979 0.12844
0.232149 -0.147937 0.126837
0.236586 -0.148309 0.124951
0.241824 -0.148518 0.121947
0.246273 -0.14901 0.116929
0.251067 -0.148755 0.112528
0.256288 -0.149826 0.105558
-0.197878 -0.152689 0.00935364
-0.191101 -0.150876 0.0301238
-0.178021 -0.144117 0.121258
-0.172124 -0.142755 0.138106
-0.166709 -0.141467 0.152271
-0.161128 -0.140435 0.167189
-0.155397 -0.139499 0.181365
-0.150997 -0.138731 0.190705
-0.145935 -0.137689 0.201222
-0.141658 -0.137238 0.209349
-0.136724 -0.136548 0.217416
-0.131993 -0.136073 0.224946
-0.127598 -0.135747 0.230631
-0.123635 -0.135461 0.233197
-0.119379 -0.135595 0.234888
-0.115457 -0.135035 0.236132
-0.111752 -0.135196 0.236579
-0.107341 -0.135273 0.236246
-0.103416 -0.135362 0.236638
-0.099574 -0.135471 0.236969
-0.0953914 -0.135263 0.23595
-0.0913449 -0.135491 0.235847
-0.0876212 -0.135544 0.23562
-0.0836687 -0.135278 0.235325
-0.0797811 -0.135404 0.234238
-0.0752669 -0.135473 0.233196
-0.0714791 -0.135327 0.233625
-0.0680363 -0.135693 0.232525
-0.0638997 -0.135358 0.233094
-0.0600113 -0.135696 0.230627
-0.056083 -0.135759 0.230147
-0.0520113 -0.135604 0.228796
-0.047807 -0.13588 0.228122
-0.0441705 -0.136031 0.227854
-0.0398401 -0.136041 0.226355
-0.0357948 -0.135493 0.225667
-0.0318762 -0.136086 0.225318
-0.0276912 -0.136365 0.223888
-0.0242646 -0.136166 0.222861
-0.0202556 -0.136726 0.221483
-0.0159838 -0.136758 0.220619
-0.0119745 -0.136634 0.21854
-0.00770543 -0.136565 0.217872
-0.00412098 -0.136812 0.215594
-6.95778e-05 -0.137065 0.215103
0.00411372 -0.136924 0.214127
0.00795232 -0.137194 0.211893
0.0119112 -0.137219 0.210756
0.0162872 -0.137451 0.20989
0.0203573 -0.137522 0.208351
0.0242204 -0.137385 0.207176
0.0282348 -0.137949 0.206326
0.0320862 -0.137483 0.204988
0.0364542 -0.138086 0.204126
0.0406562 -0.137669 0.202188
0.0446626 -0.138094 0.201134
0.0489179 -0.138217 0.199875
0.0529434 -0.137823 0.198407
0.0566767 -0.138024 0.197512
0.0610578 -0.138584 0.19416
0.0652695 -0.138478 0.193002
0.0691602 -0.138657 0.192396
0.0735229 -0.138856 0.190714
0.0776108 -0.138873 0.189662
0.0816703 -0.138992 0.188633
0.0858855 -0.139175 0.186044
0.0899768 -0.138953 0.185624
0.0943519 -0.139445 0.182792
0.0982083 -0.139271 0.18272
0.102478 -0.139421 0.180724
0.106746 -0.139417 0.179532
0.110818 -0.139772 0.178614
0.115385 -0.139769 0.175594
0.11949 -0.140125 0.175331
0.123426 -0.13989 0.173259
0.127944 -0.140188 0.171105
0.131942 -0.140604 0.169721
0.13651 -0.140118 0.166599
0.141233 -0.140727 0.163961
0.145345 -0.140888 0.161895
0.149225 -0.141189 0.160756
0.153529 -0.141333 0.159567
0.157536 -0.141369 0.157302
0.162365 -0.141503 0.154511
0.166407 -0.14176 0.153455
0.170681 -0.141565 0.151839
0.175353 -0.141765 0.149327
0.179395 -0.142287 0.147694
0.18396 -0.141797 0.146275
0.188429 -0.142317 0.144772
0.192653 -0.142535 0.14337
0.196583 -0.142491 0.141659
0.201299 -0.142794 0.14017
0.20554 -0.142706 0.137889
0.210312 -0.142897 0.136614
0.214889 -0.143211 0.13422
0.218734 -0.143277 0.132664
0.223586 -0.143729 0.131097
0.22767 -0.143465 0.129718
0.232208 -0.143118 0.127911
0.236531 -0.143523 0.125076
0.241247 -0.144154 0.122329
0.246088 -0.144159 0.117736
0.250942 -0.144834 0.114011
0.2558 -0.14529 0.106527
-0.197732 -0.148168 0.00872529
-0.191004 -0.146499 0.0296899
-0.185514 -0.145514 0.0433247
-0.171797 -0.138209 0.138793
-0.166611 -0.137921 0.152432
-0.161189 -0.136523 0.165872
-0.156157 -0.1352 0.178694
-0.151193 -0.134818 0.189084
-0.145759 -0.133756 0.20176
-0.141498 -0.133276 0.209609
-0.136842 -0.132465 0.217528
-0.131867 -0.132117 0.225013
-0.127929 -0.131914 0.229475
-0.123642 -0.131778 0.233387
-0.119261 -0.13121 0.235194
-0.115564 -0.131051 0.236004
-0.111339 -0.131105 0.236769
-0.107643 -0.131169 0.235631
-0.10326 -0.131238 0.236712
-0.0992538 -0.131465 0.236971
-0.0956514 -0.131499 0.236763
-0.0915003 -0.131492 0.23568
-0.0878912 -0.131552 0.235434
-0.0835923 -0.131271 0.234141
-0.0798347 -0.131452 0.234961
-0.0752875 -0.131494 0.233254
-0.07157 -0.131719 0.233845
-0.068099 -0.131377 0.233473
-0.0637527 -0.13145 0.232453
-0.059889 -0.131839 0.231375
-0.0558643 -0.131819 0.230253
-0.0513634 -0.131429 0.229412
-0.047943 -0.13171 0.228716
-0.0441093 -0.131857 0.227757
-0.0400941 -0.131966 0.227613
-0.0359179 -0.131758 0.226421
-0.0319271 -0.131809 0.225919
-0.0278107 -0.132391 0.223163
-0.0240924 -0.132351 0.222456
-0.0203281 -0.132192 0.220864
-0.0162752 -0.132558 0.221476
-0.0121052 -0.132507 0.218804
-0.00790762 -0.132527 0.216975
-0.0038178 -0.132459 0.216816
0.000183847 -0.132651 0.215022
0.00408514 -0.133102 0.213686
0.00806858 -0.132995 0.21296
0.0122222 -0.133374 0.21063
0.0164238 -0.133486 0.210327
0.0204197 -0.133276 0.20878
0.0241313 -0.133772 0.207504
0.028182 -0.133617 0.205536
0.0322428 -0.133642 0.206298
0.0365364 -0.133524 0.20399
0.0401107 -0.133736 0.20167
0.0444195 -0.134329 0.200774
0.0486633 -0.134117 0.199506
0.0534051 -0.134264 0.198192
0.0567735 -0.134201 0.197392
0.0610144 -0.134008 0.19671
0.0649822 -0.134281 0.19436
0.069202 -0.134266 0.192953
0.0732815 -0.134354 0.190647
0.0779305 -0.134469 0.189495
0.0817866 -0.134845 0.188331
0.0860135 -0.134983 0.186974
0.0899608 -0.134973 0.185599
0.094057 -0.134931 0.184563
0.0989588 -0.135589 0.182154
0.102217 -0.135194 0.182037
0.107014 -0.135427 0.179652
0.111057 -0.135776 0.178531
0.115252 -0.135734 0.176678
0.119495 -0.136293 0.1744
0.123601 -0.136006 0.172732
0.128194 -0.136271 0.170525
0.131697 -0.136102 0.16919
0.136467 -0.136172 0.167098
0.14063 -0.136922 0.164833
0.144734 -0.136561 0.161861
0.149497 -0.137023 0.161076
0.153306 -0.136944 0.158833
0.158385 -0.137109 0.156757
0.162492 -0.137485 0.154051
0.16668 -0.137223 0.153346
0.170938 -0.137595 0.151466
0.175001 -0.137346 0.150119
0.179985 -0.137664 0.147826
0.183397 -0.137587 0.14755
0.188229 -0.137928 0.145603
0.19256 -0.13796 0.143672
0.196579 -0.138389 0.142038
0.200949 -0.138227 0.14075
0.205906 -0.138968 0.137848
0.210138 -0.139012 0.137145
0.214316 -0.138312 0.135717
0.219247 -0.139284 0.132694
0.223806 -0.138836 0.131191
0.227469 -0.139588 0.129285
0.232179 -0.139411 0.127787
0.237335 -0.139711 0.124807
0.241097 -0.139714 0.123106
0.245824 -0.139445 0.119768
0.251013 -0.139914 0.113967
0.256473 -0.140751 0.106076
-0.197331 -0.14323 0.009444
-0.191555 -0.142484 0.0275975
-0.184991 -0.141028 0.0448045
-0.172105 -0.134475 0.137119
-0.166805 -0.133973 0.151196
-0.161367 -0.132583 0.164612
-0.156357 -0.131626 0.177481
-0.150955 -0.131007 0.188876
-0.146232 -0.129767 0.199645
-0.141389 -0.128827 0.209037
-0.136716 -0.128262 0.217072
-0.132055 -0.128455 0.223874
-0.127382 -0.127784 0.230561
-0.123479 -0.127689 0.233822
-0.119274 -0.127529 0.23585
-0.115304 -0.126991 0.236261
-0.11128 -0.127131 0.237735
-0.10748 -0.126997 0.2369
-0.103552 -0.126962 0.236427
-0.0991487 -0.127201 0.23705
-0.0958582 -0.127565 0.236925
-0.0916238 -0.127111 0.236125
-0.0875877 -0.127459 0.236074
-0.0836922 -0.127377 0.23632
-0.0796635 -0.12713 0.235323
-0.0756717 -0.127751 0.234987
-0.0718703 -0.127306 0.234044
-0.0677407 -0.127551 0.232333
-0.0640157 -0.127656 0.231841
-0.0597028 -0.127499 0.231567
-0.0560115 -0.127506 0.230413
-0.0522208 -0.12755 0.22964
-0.0479187 -0.128015 0.228344
-0.0438244 -0.128376 0.228035
-0.0400956 -0.127799 0.227293
-0.036396 -0.128073 0.225076
-0.0322256 -0.128261 0.225379
-0.0278255 -0.128004 0.22391
-0.0240676 -0.12817 0.222831
-0.0197126 -0.128107 0.221867
-0.0158548 -0.128553 0.220363
-0.0120669 -0.128314 0.219381
-0.00760291 -0.128828 0.2174
-0.00398472 -0.128797 0.216982
-0.000233689 -0.128817 0.214642
0.00423352 -0.128983 0.214062
0.00801494 -0.128979 0.213188
0.0124095 -0.129059 0.211331
0.0162167 -0.129246 0.209303
0.0202753 -0.129133 0.208935
0.0244182 -0.129025 0.207876
0.0282872 -0.129853 0.205773
0.0324834 -0.129916 0.205118
0.0367082 -0.129743 0.203667
0.0405231 -0.129446 0.202359
0.0445193 -0.12997 0.201596
0.0487017 -0.130107 0.199608
0.0524784 -0.130086 0.198808
0.0569603 -0.130246 0.196744
0.0608459 -0.130579 0.19558
0.0654998 -0.130039 0.19311
0.0694415 -0.130456 0.192897
0.0734762 -0.130216 0.191815
0.0771282 -0.130518 0.190183
0.0815578 -0.130601 0.188696
0.086045 -0.13054 0.187545
0.0903167 -0.130636 0.185506
0.0941529 -0.131136 0.184745
0.0983939 -0.13129 0.183122
0.102315 -0.13093 0.181328
0.106541 -0.131527 0.180261
0.111259 -0.131432 0.1782
0.115354 -0.131094 0.17674
0.119596 -0.131907 0.175176
0.124074 -0.131755 0.17248
0.127795 -0.13215 0.171334
0.132245 -0.13178 0.169411
0.13645 -0.132436 0.166933
0.140526 -0.132233 0.166304
0.144961 -0.1328 0.162881
0.149335 -0.132727 0.159863
0.153688 -0.133148 0.158825
0.158092 -0.133622 0.156915
0.162677 -0.133247 0.155239
0.167116 -0.133122 0.153197
0.170807 -0.133435 0.151595
0.175153 -0.133675 0.1502
0.179594 -0.133747 0.14792
0.183605 -0.133718 0.147573
0.188323 -0.133775 0.145651
0.192247 -0.134094 0.144554
0.196789 -0.134137 0.142601
0.201112 -0.133985 0.140883
0.205858 -0.134684 0.139012
0.210127 -0.13458 0.137744
0.214708 -0.134491 0.13433
0.218621 -0.134752 0.134224
0.223102 -0.135088 0.132142
0.227997 -0.135292 0.130404
0.232154 -0.134733 0.128377
0.236636 -0.134898 0.125871
0.241322 -0.135681 0.122718
0.245471 -0.13543 0.120037
0.25063 -0.136447 0.114812
0.256476 -0.136612 0.105094
-0.198108 -0.138953 0.00542128
-0.19049 -0.137604 0.0310704
-0.185631 -0.136828 0.043027
-0.17296 -0.130526 0.133682
-0.166618 -0.12908 0.150578
-0.161327 -0.128407 0.164295
-0.156187 -0.127531 0.176735
-0.151127 -0.126599 0.187554
-0.146462 -0.126059 0.198169
-0.141432 -0.125437 0.208652
-0.136135 -0.124548 0.218507
-0.132137 -0.124316 0.22465
-0.127965 -0.12396 0.229474
-0.123342 -0.123835 0.234318
-0.11927 -0.123354 0.236391
-0.115874 -0.123253 0.236064
-0.111658 -0.123091 0.237349
-0.107021 -0.123058 0.237241
-0.103241 -0.123041 0.2369
-0.099666 -0.123472 0.236433
-0.0955003 -0.123418 0.23684
-0.0910342 -0.123033 0.236113
-0.0870962 -0.123348 0.235692
-0.0834816 -0.123581 0.235706
-0.0799117 -0.123525 0.234169
-0.0757107 -0.123728 0.23364
-0.0715369 -0.123631 0.234189
-0.0678543 -0.123492 0.233156
-0.0637705 -0.123866 0.232204
-0.0600595 -0.123715 0.232202
-0.0562143 -0.123484 0.231223
-0.0520571 -0.123568 0.230095
-0.0480441 -0.123836 0.229537
-0.0435793 -0.123454 0.228041
-0.0402245 -0.123988 0.227405
-0.0360447 -0.124313 0.225183
-0.0321883 -0.124099 0.224438
-0.0278025 -0.123768 0.224298
-0.0238208 -0.124713 0.222274
-0.0199904 -0.124452 0.220875
-0.015953 -0.124202 0.219931
-0.0119126 -0.124407 0.218237
-0.00808182 -0.124466 0.218261
-0.00437075 -0.124841 0.216532
-0.000151901 -0.124909 0.215355
0.00388746 -0.125014 0.213717
0.00766472 -0.124615 0.2126
0.0121011 -0.12508 0.211664
0.0159114 -0.125264 0.210387
0.0202201 -0.125333 0.208795
0.0241275 -0.125386 0.207708
0.0283091 -0.125253 0.206756
0.0320776 -0.125366 0.206033
0.0365418 -0.125538 0.204226
0.040667 -0.125869 0.202628
0.0448783 -0.125759 0.202407
0.0489723 -0.125901 0.199734
0.0528148 -0.125563 0.199306
0.056813 -0.125985 0.197871
0.0609881 -0.126176 0.196288
0.065321 -0.126052 0.193121
0.0692436 -0.126599 0.193109
0.0732223 -0.126317 0.191096
0.077732 -0.126797 0.190267
0.0817004 -0.126538 0.189311
0.0858488 -0.126742 0.187901
0.0899611 -0.126773 0.186112
0.0937987 -0.127295 0.185398
0.0981254 -0.127069 0.183962
0.102418 -0.126947 0.183188
0.106393 -0.127593 0.18109
0.110499 -0.126812 0.179297
0.115473 -0.127455 0.176079
0.119202 -0.127541 0.175503
0.123701 -0.127759 0.173548
0.12789 -0.1276 0.172297
0.131701 -0.127663 0.170906
0.136442 -0.12827 0.16813
0.140522 -0.127968 0.165714
0.144825 -0.12826 0.163155
0.149476 -0.128797 0.160442
0.153528 -0.128716 0.159026
0.157953 -0.128725 0.156848
0.162483 -0.129066 0.155501
0.16675 -0.129338 0.152612
0.170644 -0.129401 0.152095
0.174982 -0.12958 0.150477
0.17966 -0.129457 0.148535
0.184092 -0.129291 0.146979
0.188377 -0.129233 0.146071
0.192504 -0.129699 0.143671
0.19694 -0.130115 0.142061
0.201593 -0.130004 0.140771
0.205484 -0.129975 0.140734
0.210325 -0.13032 0.1372
0.214505 -0.129955 0.13623
0.218883 -0.130391 0.134045
0.223166 -0.13058 0.132175
0.227764 -0.130844 0.129786
0.232723 -0.130887 0.127818
0.236671 -0.131445 0.126033
0.241367 -0.131282 0.122763
0.245888 -0.131462 0.120008
0.251002 -0.131913 0.11348
0.256249 -0.132446 0.107039
-0.197985 -0.135513 0.00490725
-0.190953 -0.133212 0.0298598
-0.185572 -0.132585 0.042544
-0.172875 -0.126565 0.132481
-0.167332 -0.125397 0.14704
-0.161297 -0.124464 0.162235
-0.156627 -0.123879 0.174139
-0.150894 -0.122626 0.187693
-0.146176 -0.1219 0.197991
-0.141334 -0.121153 0.207983
-0.136203 -0.120576 0.217881
-0.131822 -0.120273 0.224543
-0.127743 -0.120028 0.229804
-0.123455 -0.11914 0.234172
-0.119312 -0.119023 0.236226
-0.115047 -0.119499 0.237015
-0.111448 -0.119397 0.237669
-0.107427 -0.119397 0.237563
-0.103469 -0.119008 0.237461
-0.0995638 -0.119139 0.237447
-0.0951959 -0.119137 0.237475
-0.0914703 -0.119314 0.236761
-0.0873242 -0.119309 0.236588
-0.0835002 -0.11931 0.236586
-0.0797027 -0.119439 0.234949
-0.0753836 -0.119368 0.234194
-0.0716849 -0.119727 0.234313
-0.0678798 -0.11951 0.232891
-0.0637493 -0.119473 0.233219
-0.0599906 -0.11945 0.232225
-0.0558836 -0.119414 0.230343
-0.0515462 -0.119423 0.229347
-0.0481843 -0.120161 0.2291
-0.0439529 -0.119885 0.228392
-0.0402009 -0.119734 0.22797
-0.0359192 -0.119941 0.226114
-0.0321978 -0.120221 0.225852
-0.0278348 -0.120167 0.224414
-0.0241397 -0.120322 0.22339
-0.0197656 -0.120449 0.221006
-0.0162762 -0.120838 0.221794
-0.0120641 -0.120697 0.219952
-0.00789075 -0.120841 0.21752
-0.00386102 -0.120675 0.216586
0.000382363 -0.120836 0.215082
0.00423613 -0.121039 0.21386
0.00816703 -0.120786 0.212627
0.0121025 -0.121102 0.211929
0.0161342 -0.121224 0.210473
0.0202049 -0.121135 0.209211
0.0241345 -0.121077 0.207202
0.0284223 -0.121139 0.20609
0.0324202 -0.121433 0.205935
0.036364 -0.121569 0.204644
0.0409163 -0.121413 0.202436
0.04472 -0.121241 0.201921
0.0486862 -0.121803 0.200998
0.0526035 -0.121892 0.198634
0.056808 -0.121916 0.197395
0.0607562 -0.121786 0.196488
0.0649147 -0.122288 0.195697
0.0694885 -0.121828 0.193043
0.0729468 -0.122433 0.192835
0.0775558 -0.122367 0.191336
0.081891 -0.122161 0.189956
0.08577 -0.122501 0.188068
0.0897809 -0.122764 0.187777
0.0944179 -0.122408 0.185038
0.0979423 -0.122832 0.184199
0.102439 -0.122809 0.183377
0.1065 -0.123052 0.180864
0.1112 -0.123587 0.179436
0.114771 -0.123313 0.177411
0.119486 -0.123626 0.175217
0.123146 -0.12327 0.175013
0.127677 -0.123888 0.171729
0.132383 -0.123804 0.169414
0.136427 -0.123703 0.168538
0.140493 -0.123999 0.16546
0.144983 -0.124531 0.163235
0.148922 -0.124572 0.162146
0.153115 -0.124257 0.160523
0.157945 -0.124588 0.157543
0.162152 -0.124913 0.156028
0.166521 -0.125063 0.15414
0.170547 -0.124851 0.152582
0.174952 -0.125605 0.149693
0.179288 -0.125329 0.149624
0.183981 -0.125501 0.147421
0.188481 -0.125357 0.145643
0.192347 -0.125812 0.144005
0.196945 -0.126105 0.142878
0.20108 -0.125319 0.141536
0.205769 -0.125842 0.138533
0.209861 -0.125966 0.137681
0.214067 -0.125996 0.136705
0.218575 -0.126148 0.134616
0.223207 -0.126377 0.13184
0.227897 -0.126391 0.130078
0.232417 -0.126614 0.128667
0.236593 -0.126439 0.126026
0.241241 -0.126723 0.123241
0.245297 -0.126976 0.120803
0.2508 -0.12755 0.115674
0.2558 -0.128319 0.107668
-0.197673 -0.130635 0.00530779
-0.191129 -0.128692 0.0286739
-0.18527 -0.127969 0.0443107
-0.173244 -0.122545 0.130404
-0.167414 -0.121271 0.146201
-0.162198 -0.12028 0.159855
-0.156223 -0.11934 0.174682
-0.15152 -0.118516 0.185906
-0.14651 -0.11792 0.197034
-0.141323 -0.117272 0.207684
-0.136069 -0.116334 0.218348
-0.132468 -0.1162 0.223709
-0.127607 -0.115674 0.229597
-0.123256 -0.115564 0.235247
-0.119651 -0.115429 0.235478
-0.115321 -0.114932 0.23798
-0.111349 -0.11509 0.238033
-0.107174 -0.115262 0.238016
-0.103793 -0.115036 0.238048
-0.0994292 -0.11524 0.237669
-0.0951859 -0.115241 0.237208
-0.0914359 -0.115352 0.23772
-0.0877098 -0.115498 0.236302
-0.0835391 -0.115596 0.235366
-0.0796865 -0.115447 0.235615
-0.075911 -0.115338 0.235076
-0.0718988 -0.115624 0.234699
-0.0677903 -0.115912 0.233325
-0.0633829 -0.115385 0.233762
-0.0597347 -0.115844 0.232092
-0.0559681 -0.115935 0.229926
-0.0518949 -0.115438 0.231346
-0.0481767 -0.115845 0.229605
-0.0441881 -0.115651 0.22785
-0.0402245 -0.116191 0.227108
-0.0363267 -0.116081 0.226466
-0.0319103 -0.116037 0.225926
-0.0283433 -0.11619 0.22368
-0.0237762 -0.116059 0.223801
-0.0198568 -0.116257 0.221673
-0.0161497 -0.116296 0.220663
-0.0123662 -0.116205 0.219163
-0.00793926 -0.116613 0.217411
-0.00381347 -0.116499 0.217447
-0.000313939 -0.116692 0.214569
0.00408336 -0.116885 0.214928
0.00824644 -0.11741 0.211578
0.0120559 -0.117304 0.211439
0.0159866 -0.117436 0.208897
0.0206817 -0.116912 0.209113
0.0239939 -0.116873 0.208609
0.0282329 -0.117071 0.207279
0.0322662 -0.117396 0.205261
0.0361333 -0.117095 0.203976
0.0405849 -0.117521 0.203086
0.0447326 -0.117706 0.201847
0.0487981 -0.117913 0.200502
0.0528382 -0.117698 0.199079
0.0573166 -0.11778 0.197121
0.0610723 -0.117927 0.196941
0.0651797 -0.118116 0.194052
0.0695082 -0.118378 0.193874
0.073617 -0.118449 0.191619
0.077478 -0.118183 0.190818
0.0816806 -0.118494 0.189965
0.0858913 -0.118862 0.188955
0.0895122 -0.118385 0.187455
0.0943237 -0.118504 0.185082
0.0981868 -0.118762 0.183438
0.102385 -0.118848 0.182147
0.106609 -0.118527 0.181296
0.110925 -0.119141 0.179687
0.115011 -0.119425 0.177691
0.119328 -0.119191 0.175981
0.123503 -0.119226 0.174416
0.127817 -0.119745 0.172058
0.13223 -0.119641 0.169908
0.136431 -0.119352 0.168072
0.140682 -0.11999 0.167278
0.144769 -0.120214 0.163756
0.149152 -0.119976 0.162711
0.15366 -0.12033 0.1594
0.158277 -0.120393 0.15786
0.162287 -0.120841 0.156666
0.166406 -0.12085 0.154755
0.170962 -0.120808 0.153054
0.175004 -0.121137 0.152426
0.179413 -0.121011 0.149378
0.183525 -0.121176 0.148088
0.188417 -0.121254 0.145871
0.19258 -0.121641 0.14455
0.19666 -0.121578 0.142996
0.201057 -0.121576 0.14113
0.205813 -0.121574 0.139598
0.209881 -0.121803 0.138518
0.214457 -0.121727 0.135998
0.218677 -0.121848 0.134953
0.223387 -0.122112 0.131555
0.227702 -0.121945 0.131009
0.232412 -0.122452 0.128728
0.236763 -0.122737 0.126685
0.241354 -0.123005 0.122262
0.246166 -0.12268 0.120116
0.250479 -0.123129 0.11608
0.255602 -0.12363 0.108785
-0.198481 -0.126132 -0.000435352
-0.190707 -0.124165 0.0303595
-0.185351 -0.123356 0.0442871
-0.173225 -0.118071 0.129043
-0.167083 -0.117153 0.146892
-0.161553 -0.116292 0.160095
-0.156455 -0.115312 0.173575
-0.151221 -0.114731 0.185503
-0.146123 -0.114222 0.196765
-0.14181 -0.113596 0.206106
-0.136744 -0.112788 0.2164
-0.132384 -0.11243 0.223819
-0.127719 -0.111668 0.229577
-0.123149 -0.111746 0.234877
-0.119311 -0.11115 0.237365
-0.115613 -0.11146 0.237305
-0.111489 -0.111291 0.237853
-0.106927 -0.111225 0.238903
-0.103505 -0.111178 0.238038
-0.0991038 -0.111113 0.238512
-0.0950643 -0.111204 0.237972
-0.091036 -0.11154 0.238589
-0.0875916 -0.111504 0.237088
-0.083474 -0.111394 0.235902
-0.0794179 -0.11135 0.23658
-0.0754979 -0.111506 0.235065
-0.0718524 -0.111896 0.234615
-0.0677926 -0.111528 0.233599
-0.0634074 -0.111599 0.233531
-0.0599057 -0.111625 0.233052
-0.0555604 -0.111651 0.230544
-0.0517264 -0.111763 0.230374
-0.0479232 -0.111646 0.230119
-0.0436173 -0.111542 0.229414
-0.039938 -0.112296 0.227112
-0.0360946 -0.111472 0.225978
-0.0319647 -0.112282 0.225888
-0.0278175 -0.112084 0.224905
-0.0240656 -0.111845 0.223554
-0.0201986 -0.112629 0.221798
-0.0162903 -0.112439 0.221642
-0.0122468 -0.112333 0.219951
-0.00798795 -0.112279 0.217877
-0.00406198 -0.112317 0.217124
0.000101038 -0.112628 0.215651
0.00364055 -0.112702 0.214292
0.00794716 -0.112984 0.21267
0.0123854 -0.112959 0.212876
0.0160125 -0.112961 0.211136
0.0201187 -0.113023 0.209266
0.0243948 -0.113093 0.208527
0.0284996 -0.113064 0.207429
0.0323198 -0.112933 0.205204
0.0368682 -0.113215 0.20443
0.0405614 -0.113507 0.201981
0.0447021 -0.113227 0.202297
0.0485575 -0.11355 0.200722
0.0531457 -0.113655 0.199739
0.056823 -0.113623 0.198459
0.0611749 -0.114149 0.195743
0.0652065 -0.113734 0.194949
0.0692593 -0.114017 0.19374
0.0733588 -0.114242 0.193152
0.07782 -0.114405 0.19134
0.0813086 -0.114195 0.190144
0.0857693 -0.114143 0.188904
0.090312 -0.114494 0.186903
0.0938681 -0.114874 0.18549
0.0982678 -0.114598 0.183354
0.102839 -0.114925 0.182576
0.106742 -0.114867 0.181217
0.110605 -0.115042 0.179597
0.114963 -0.115416 0.178092
0.119504 -0.115331 0.175752
0.123701 -0.115384 0.174608
0.127712 -0.115365 0.172565
0.13175 -0.115396 0.171441
0.136615 -0.115931 0.168263
0.140577 -0.115522 0.166546
0.144733 -0.115864 0.163558
0.149427 -0.116076 0.161925
0.153421 -0.116253 0.160454
0.157917 -0.116123 0.158302
0.162196 -0.116172 0.156868
0.166353 -0.11667 0.155369
0.170414 -0.11655 0.152993
0.175087 -0.116895 0.151651
0.179525 -0.11684 0.150054
0.184081 -0.116823 0.147939
0.188274 -0.117195 0.146137
0.192338 -0.117076 0.145451
0.196651 -0.117535 0.143811
0.201989 -0.116979 0.140758
0.205766 -0.117289 0.139894
0.20966 -0.117577 0.138505
0.214145 -0.117819 0.136201
0.218953 -0.118132 0.133083
0.223264 -0.117993 0.133281
0.227927 -0.118019 0.131181
0.232362 -0.118233 0.128532
0.236859 -0.118817 0.12665
0.240697 -0.118511 0.124899
0.245837 -0.118795 0.119858
0.251062 -0.11928 0.115738
0.256321 -0.119445 0.107495
-0.19762 -0.121465 0.00392032
-0.191101 -0.120571 0.0293249
-0.185469 -0.119048 0.0434529
-0.173059 -0.114225 0.128264
-0.167643 -0.113047 0.143994
-0.161659 -0.112372 0.159792
-0.156624 -0.111318 0.172673
-0.152166 -0.110957 0.182834
-0.146312 -0.109651 0.195951
-0.141609 -0.109186 0.20583
-0.13674 -0.108867 0.21558
-0.132312 -0.108544 0.223959
-0.127703 -0.108153 0.22981
-0.123854 -0.107448 0.234281
-0.119453 -0.107389 0.236181
-0.114989 -0.107472 0.237842
-0.111074 -0.107306 0.238472
-0.107563 -0.107414 0.237131
-0.103292 -0.107105 0.239171
-0.09918 -0.10701 0.238551
-0.0955417 -0.10719 0.237698
-0.091333 -0.107071 0.23753
-0.0871268 -0.107669 0.237332
-0.0835977 -0.106797 0.236561
-0.0797115 -0.107553 0.235201
-0.0754696 -0.107338 0.236055
-0.0717494 -0.107666 0.233969
-0.0676732 -0.107633 0.233049
-0.0637099 -0.107205 0.232851
-0.0597464 -0.108005 0.232872
-0.0559436 -0.107745 0.231134
-0.0519665 -0.10743 0.230637
-0.0480108 -0.107734 0.230189
-0.044052 -0.108178 0.228909
-0.0397629 -0.107843 0.228926
-0.0356675 -0.107768 0.226653
-0.0322704 -0.107751 0.226592
-0.0280945 -0.107988 0.225185
-0.024207 -0.108604 0.223438
-0.0199552 -0.108082 0.221286
-0.0159701 -0.10845 0.221221
-0.0122201 -0.108516 0.220137
-0.00808709 -0.108108 0.218642
-0.00426291 -0.108437 0.217177
-0.000295904 -0.108657 0.215511
0.00391153 -0.108435 0.214976
0.00830517 -0.108581 0.213163
0.0122863 -0.109192 0.21213
0.015837 -0.108835 0.211226
0.020305 -0.109085 0.209762
0.0243787 -0.108976 0.208091
0.0283833 -0.10935 0.207527
0.0323759 -0.109578 0.206258
0.0364712 -0.109365 0.20492
0.0402418 -0.109209 0.203312
0.0447829 -0.109402 0.201488
0.04882 -0.10971 0.200855
0.0529144 -0.109736 0.199233
0.0568031 -0.109707 0.198388
0.0610446 -0.110066 0.196256
0.0651653 -0.109816 0.19491
0.0692281 -0.109523 0.193042
0.0732027 -0.110152 0.193869
0.0776865 -0.110409 0.191352
0.0815961 -0.110231 0.189925
0.0856962 -0.110436 0.189796
0.0899916 -0.110472 0.186551
0.0943469 -0.110674 0.185662
0.0980581 -0.110322 0.183885
0.102865 -0.110765 0.182323
0.106541 -0.110579 0.181763
0.110791 -0.110636 0.18034
0.114903 -0.111065 0.178751
0.119525 -0.110892 0.176631
0.123855 -0.111391 0.175352
0.128003 -0.110863 0.173258
0.131781 -0.111506 0.170436
0.136464 -0.111423 0.169278
0.140643 -0.111331 0.166521
0.144614 -0.111875 0.165387
0.148863 -0.112184 0.1629
0.153728 -0.111905 0.16042
0.157935 -0.112481 0.159159
0.162013 -0.112255 0.156942
0.166549 -0.112559 0.155468
0.170731 -0.112018 0.153593
0.175119 -0.112374 0.152022
0.179321 -0.112286 0.150673
0.183747 -0.112757 0.149571
0.188285 -0.112711 0.146799
0.192749 -0.11246 0.145464
0.196664 -0.113147 0.143636
0.201025 -0.113586 0.141554
0.205467 -0.113312 0.139998
0.209919 -0.113594 0.138317
0.214149 -0.113531 0.136619
0.218527 -0.113398 0.13488
0.223007 -0.113523 0.133107
0.227699 -0.114186 0.130067
0.231857 -0.113675 0.129817
0.236448 -0.113747 0.126692
0.241307 -0.114233 0.123562
0.24556 -0.114714 0.120897
0.251051 -0.114224 0.115966
0.255921 -0.115048 0.108908
-0.191115 -0.116117 0.0285041
-0.185783 -0.114767 0.0423508
-0.173621 -0.109979 0.125031
-0.16732 -0.10891 0.144373
-0.161748 -0.107974 0.158766
-0.156461 -0.107373 0.173151
-0.151273 -0.106719 0.184284
-0.14651 -0.105401 0.195099
-0.141677 -0.105415 0.205512
-0.136876 -0.104631 0.215306
-0.132264 -0.104261 0.223726
-0.127694 -0.103475 0.230989
-0.123286 -0.103647 0.233622
-0.119589 -0.103531 0.236589
-0.115287 -0.103209 0.238181
-0.111338 -0.102712 0.239271
-0.107187 -0.103323 0.239948
-0.103281 -0.103315 0.238753
-0.0990451 -0.102776 0.239189
-0.0954485 -0.103485 0.238811
-0.0911998 -0.102989 0.23806
-0.0874233 -0.103218 0.238158
-0.0835065 -0.103371 0.237728
-0.0799124 -0.103506 0.236719
-0.0755274 -0.103467 0.234478
-0.071642 -0.103975 0.235395
-0.0679201 -0.103539 0.233558
-0.0637363 -0.103751 0.233939
-0.0596833 -0.103599 0.232776
-0.0558594 -0.103652 0.231805
-0.0521685 -0.103812 0.231075
-0.04784 -0.104156 0.230458
-0.0438992 -0.103732 0.229568
-0.0397562 -0.103935 0.228055
-0.0360358 -0.104073 0.225518
-0.0319304 -0.104165 0.226171
-0.0280905 -0.103955 0.224288
-0.0239622 -0.10422 0.224169
-0.0199825 -0.104262 0.222749
-0.0159583 -0.104508 0.221146
-0.0120486 -0.104782 0.219543
-0.00807977 -0.104292 0.218898
-0.0043297 -0.104557 0.216892
-0.000157007 -0.104596 0.215356
0.00401594 -0.104571 0.213969
0.00864946 -0.104716 0.213763
0.0118658 -0.104818 0.212616
0.0163082 -0.104581 0.21067
0.0200981 -0.104733 0.210033
0.0242785 -0.104829 0.208232
0.0282951 -0.105367 0.208075
0.0321091 -0.105016 0.206624
0.0365901 -0.105454 0.204671
0.0403976 -0.10545 0.204708
0.0448422 -0.105505 0.201809
0.0483085 -0.105682 0.200161
0.0528091 -0.105543 0.199983
0.0571383 -0.106067 0.198221
0.060853 -0.105798 0.196652
0.065092 -0.105775 0.196308
0.069293 -0.105997 0.194253
0.0732177 -0.105915 0.192151
0.0777289 -0.106013 0.191457
0.0816159 -0.106317 0.189804
0.0861742 -0.106082 0.189138
0.0897748 -0.106445 0.18793
0.094265 -0.106288 0.185254
0.0979306 -0.106554 0.184624
0.102676 -0.106584 0.183597
0.106938 -0.106457 0.181563
0.110818 -0.106576 0.180666
0.114894 -0.106614 0.179227
0.119395 -0.106771 0.177203
0.122973 -0.106874 0.175622
0.127961 -0.106794 0.172671
0.132252 -0.106809 0.170957
0.136021 -0.107383 0.169776
0.140639 -0.107552 0.167497
0.145011 -0.107768 0.165299
0.149061 -0.107574 0.163544
0.153335 -0.107931 0.161817
0.157754 -0.10822 0.159002
0.162004 -0.108295 0.157328
0.166337 -0.107984 0.156804
0.170574 -0.108206 0.154829
0.175084 -0.108238 0.152163
0.179261 -0.107972 0.151507
0.183088 -0.108823 0.149223
0.187998 -0.108284 0.145697
0.19261 -0.108883 0.145341
0.196736 -0.10874 0.143805
0.201555 -0.108769 0.142558
0.205253 -0.108927 0.140378
0.209711 -0.109454 0.13889
0.214149 -0.109068 0.136395
0.218238 -0.109261 0.134909
0.223356 -0.10963 0.13351
0.227596 -0.109826 0.131016
0.231808 -0.110018 0.128724
0.236231 -0.109982 0.126338
0.241682 -0.109927 0.124313
0.245799 -0.110402 0.121509
0.25064 -0.110605 0.115297
0.25615 -0.110637 0.107818
-0.197739 -0.112188 0.00191951
-0.191048 -0.111336 0.0287719
-0.185409 -0.110683 0.0434709
-0.179792 -0.109272 0.057429
-0.167078 -0.104715 0.144977
-0.161829 -0.103521 0.157632
-0.156833 -0.10279 0.170088
-0.15127 -0.10184 0.184054
-0.146272 -0.101727 0.19488
-0.141805 -0.101536 0.204983
-0.136741 -0.100652 0.21564
-0.132157 -0.100263 0.222933
-0.127745 -0.0998456 0.229753
-0.123663 -0.0992472 0.234246
-0.119271 -0.0996129 0.236677
-0.114765 -0.0989159 0.239323
-0.111433 -0.0990464 0.239869
-0.107327 -0.0991686 0.239908
-0.103196 -0.0990397 0.238865
-0.099309 -0.0994973 0.239204
-0.0951875 -0.0991624 0.23896
-0.0914934 -0.0993863 0.237535
-0.0875923 -0.0991295 0.238467
-0.0834535 -0.0991727 0.23768
-0.0796754 -0.0992257 0.236264
-0.0759031 -0.0997118 0.23616
-0.0719107 -0.0992231 0.235038
-0.0673604 -0.0997451 0.234867
-0.0639288 -0.0997346 0.233286
-0.0596362 -0.0996854 0.23308
-0.0556918 -0.0994274 0.232127
-0.0519306 -0.100142 0.231048
-0.048119 -0.0997939 0.230288
-0.0436878 -0.10001 0.230029
-0.03999 -0.0996765 0.228516
-0.0361136 -0.100148 0.226985
-0.031889 -0.0999523 0.225958
-0.0283516 -0.0999804 0.22479
-0.0242338 -0.100136 0.223304
-0.0199353 -0.100369 0.222266
-0.0162016 -0.100264 0.221184
-0.0125405 -0.100207 0.219625
-0.00744252 -0.100334 0.218763
-0.00423481 -0.100185 0.217375
-0.000410677 -0.10046 0.215948
0.00425818 -0.100548 0.214346
0.00817119 -0.10067 0.213021
0.0120327 -0.10077 0.211497
0.0159842 -0.100817 0.211004
0.0198707 -0.100898 0.210583
0.0242431 -0.100899 0.208939
0.0285252 -0.101179 0.208139
0.0323122 -0.101353 0.206388
0.0362873 -0.101101 0.204869
0.0404079 -0.101193 0.203496
0.0446444 -0.100739 0.202023
0.0482926 -0.10142 0.200985
0.0527253 -0.101576 0.199158
0.0568881 -0.101455 0.19814
0.0611362 -0.101522 0.197011
0.065309 -0.101682 0.195869
0.0691227 -0.102123 0.194153
0.0733144 -0.101831 0.192988
0.0773089 -0.101836 0.191024
0.0814341 -0.102047 0.190112
0.085568 -0.101985 0.188869
0.0899835 -0.101904 0.187115
0.0940633 -0.102369 0.185805
0.0982091 -0.102568 0.184624
0.102619 -0.102008 0.183837
0.10711 -0.102592 0.181717
0.110879 -0.102323 0.180294
0.114755 -0.103034 0.179515
0.119294 -0.102603 0.177217
0.123646 -0.102794 0.175024
0.127532 -0.102795 0.173469
0.131811 -0.103163 0.171171
0.13602 -0.103528 0.169259
0.140882 -0.103095 0.16727
0.14478 -0.102788 0.166132
0.149166 -0.103801 0.162863
0.153477 -0.103969 0.162561
0.157912 -0.103845 0.159727
0.161989 -0.104013 0.158869
0.165979 -0.103908 0.156911
0.170802 -0.103989 0.154536
0.174964 -0.10411 0.15231
0.179188 -0.10396 0.151154
0.183494 -0.104016 0.149033
0.188163 -0.104726 0.147638
0.192288 -0.104431 0.145492
0.19676 -0.104591 0.144129
0.201041 -0.104808 0.141851
0.205392 -0.104642 0.141057
0.209943 -0.105046 0.138555
0.214685 -0.104958 0.136652
0.21867 -0.104843 0.135363
0.223074 -0.105185 0.133352
0.227429 -0.105395 0.131254
0.232411 -0.105407 0.130072
0.236594 -0.105556 0.126183
0.241219 -0.105809 0.12394
0.245596 -0.105765 0.121799
0.250606 -0.106542 0.116438
0.256023 -0.106789 0.108719
-0.191641 -0.106909 0.0270503
-0.185538 -0.105671 0.0438323
-0.172929 -0.101407 0.125132
-0.167124 -0.100576 0.144098
-0.16184 -0.0996919 0.157532
-0.156492 -0.0991083 0.171077
-0.151461 -0.098549 0.18321
-0.146473 -0.0974545 0.195056
-0.141527 -0.097003 0.204989
-0.13678 -0.096747 0.214609
-0.132243 -0.0964007 0.22302
-0.127703 -0.0958613 0.230479
-0.123441 -0.0955109 0.233686
-0.119404 -0.0956293 0.236593
-0.11517 -0.095193 0.238699
-0.111244 -0.0955032 0.238919
-0.107069 -0.0950973 0.240354
-0.103102 -0.0951568 0.239221
-0.0993811 -0.0953886 0.238662
-0.095537 -0.0956039 0.239202
-0.0914366 -0.0952634 0.239842
-0.0875186 -0.0958422 0.237838
-0.0833648 -0.0953994 0.237516
-0.0796145 -0.0957242 0.236804
-0.0756957 -0.0955451 0.236584
-0.0716238 -0.0955304 0.234637
