ply
format ascii 1.0
element vertex 1580
property float x
property float y
property float z
end_header
-0.0162643 -0.0535036 0.182447
-0.0122424 -0.0532319 0.182485
-0.0085071 -0.0533419 0.183507
-0.00433606 -0.0532642 0.183868
-0.000299336 -0.0533422 0.184374
0.00408201 -0.0531482 0.184101
0.00810388 -0.0530415 0.183657
0.0122114 -0.0531223 0.183967
0.0164184 -0.0531856 0.183919
0.0207109 -0.0532509 0.183058
0.0244537 -0.0533965 0.18282
0.0287818 -0.0534008 0.181441
0.0326127 -0.0533944 0.182251
0.0368412 -0.0532798 0.181492
0.0408654 -0.0535604 0.180311
0.0452269 -0.0530589 0.179621
0.0493428 -0.0531891 0.178142
0.0535446 -0.0535159 0.176574
0.0580059 -0.053751 0.175375
0.0618105 -0.0535519 0.174532
0.0659583 -0.05366 0.173126
0.0700097 -0.0536666 0.171314
0.07406 -0.0537007 0.168471
0.0788032 -0.0536666 0.167433
0.0825678 -0.0541407 0.165397
0.0869344 -0.0538898 0.163169
0.0914962 -0.0538999 0.160769
0.0958077 -0.0538861 0.158656
0.0996868 -0.0537732 0.155822
0.103934 -0.054279 0.153842
0.108571 -0.0539606 0.149712
0.112666 -0.054351 0.146674
0.117308 -0.0544286 0.14242
0.121838 -0.0540161 0.137869
0.126658 -0.0544988 0.132493
0.130584 -0.0550035 0.128867
0.135973 -0.0548539 0.121531
0.139717 -0.0552411 0.118654
0.145046 -0.0552387 0.113213
0.149525 -0.0552929 0.108266
0.15422 -0.0554511 0.103952
0.158677 -0.0557761 0.0982796
0.163446 -0.0554097 0.0922174
0.168463 -0.056294 0.0858805
0.173616 -0.0564235 0.0759097
0.17872 -0.0568019 0.0675461
0.18434 -0.0568753 0.0569712
0.189792 -0.0570287 0.0459628
0.19591 -0.058123 0.0276563
-0.272455 -0.0536755 0.0212059
-0.26658 -0.0533639 0.0280565
-0.261919 -0.0534904 0.0319643
-0.256422 -0.0526622 0.0378059
-0.25186 -0.0528834 0.0413686
-0.246777 -0.0528054 0.046949
-0.241625 -0.052568 0.0518889
-0.236753 -0.0528484 0.0563855
-0.231595 -0.0522368 0.0616543
-0.226559 -0.0524715 0.0659595
-0.2217 -0.0522502 0.0705373
-0.217367 -0.0521943 0.0738153
-0.212504 -0.0517933 0.0769552
-0.208027 -0.0517564 0.0817882
-0.203054 -0.0517081 0.0851189
-0.198306 -0.0517587 0.0888388
-0.193756 -0.0515754 0.0915158
-0.188844 -0.0512925 0.094207
-0.185245 -0.0514087 0.0954907
-0.180355 -0.0516619 0.0974048
-0.175934 -0.0512447 0.0973309
-0.171648 -0.0512733 0.0966401
-0.167146 -0.0513844 0.0977678
-0.162936 -0.0515846 0.0982459
-0.158364 -0.0517557 0.102372
-0.153775 -0.0510623 0.10538
-0.148978 -0.0511083 0.11134
-0.144887 -0.0511601 0.114586
-0.140448 -0.0510445 0.11878
-0.135616 -0.0504756 0.123968
-0.130735 -0.0503997 0.128937
-0.126453 -0.0503639 0.132904
-0.121661 -0.0504965 0.137118
-0.117546 -0.0505123 0.139519
-0.113414 -0.0502715 0.143009
-0.108618 -0.0501811 0.146756
-0.104371 -0.0499185 0.149481
-0.100217 -0.0499333 0.15152
-0.0955053 -0.0499062 0.15443
-0.0920088 -0.049908 0.156134
-0.0872577 -0.0500742 0.159171
-0.0828535 -0.0496691 0.160375
-0.0783895 -0.0499148 0.163695
-0.0746263 -0.0497008 0.163274
-0.0702051 -0.0495595 0.166233
-0.0663085 -0.0496654 0.167503
-0.0620395 -0.0498558 0.168943
-0.0578841 -0.0496644 0.170406
-0.0535163 -0.0493815 0.171836
-0.04915 -0.0496745 0.174298
-0.0455841 -0.0493424 0.174642
-0.0409165 -0.0490323 0.176214
-0.0368937 -0.0491081 0.175861
-0.0328875 -0.0492935 0.178709
-0.0284563 -0.0493767 0.178645
-0.0242393 -0.0494295 0.180345
-0.0203805 -0.0492889 0.182027
-0.0160592 -0.0491454 0.182951
-0.0118199 -0.0491287 0.182685
-0.00809098 -0.0490728 0.183151
-0.0039606 -0.0493179 0.182102
4.98318e-06 -0.0490991 0.182524
0.00404998 -0.0492073 0.182934
0.0083849 -0.0490782 0.18235
0.012472 -0.048811 0.182883
0.0161423 -0.0491376 0.183373
0.0203775 -0.0492913 0.182162
0.024376 -0.0488559 0.181761
0.02863 -0.0490382 0.18048
0.0325727 -0.0491695 0.180487
0.0368542 -0.0492038 0.179073
0.0409652 -0.0490808 0.179472
0.0453407 -0.0494309 0.178206
0.0495047 -0.0490614 0.177435
0.0532543 -0.0488698 0.176047
0.0574894 -0.0493185 0.17518
0.0616401 -0.0493617 0.173721
0.0657784 -0.049401 0.171217
0.0702161 -0.0495915 0.170071
0.0744577 -0.0495929 0.167485
0.078635 -0.0497006 0.165526
0.0827131 -0.0496768 0.164556
0.0872814 -0.0495844 0.161403
0.091234 -0.0498514 0.160034
0.0954587 -0.0499739 0.157969
0.099716 -0.0499419 0.154997
0.103897 -0.0498992 0.151855
0.109028 -0.0500254 0.147663
0.113296 -0.0498926 0.143913
0.117603 -0.0505655 0.14054
0.121728 -0.0503611 0.136284
0.126078 -0.0502512 0.130904
0.131614 -0.0507505 0.124629
0.135712 -0.0512087 0.12012
0.140493 -0.0508675 0.11504
0.144771 -0.0511231 0.112183
0.149417 -0.0510284 0.107432
0.154305 -0.0514103 0.101709
0.158579 -0.0516939 0.0968614
0.163963 -0.0519218 0.0895333
0.168964 -0.0519052 0.0822722
0.17349 -0.0522768 0.0750724
0.179109 -0.0522624 0.0631291
0.184559 -0.0524253 0.0543253
0.190092 -0.0530412 0.0427499
-0.272329 -0.0490672 0.0200536
-0.266851 -0.0491655 0.026953
-0.261362 -0.0488871 0.0323629
-0.256848 -0.0491677 0.0373032
-0.251716 -0.0485647 0.0427289
-0.246206 -0.0483544 0.0477995
-0.241484 -0.0484371 0.0518886
-0.236907 -0.0483142 0.0563747
-0.23197 -0.0481219 0.060696
-0.226995 -0.04798 0.065429
-0.221919 -0.0478386 0.0694962
-0.21691 -0.0478373 0.0743599
-0.212677 -0.0479192 0.0766654
-0.207611 -0.0472224 0.0803012
-0.202632 -0.0476755 0.0845391
-0.198222 -0.0474789 0.0875645
-0.193823 -0.0475089 0.0911413
-0.1889 -0.0470162 0.0935503
-0.184481 -0.0475103 0.0944526
-0.179936 -0.0474929 0.0969716
-0.175901 -0.0470678 0.0971239
-0.171252 -0.047229 0.0978136
-0.167046 -0.0471314 0.0963807
-0.163123 -0.0473356 0.0990338
-0.158268 -0.04711 0.102251
-0.153903 -0.0468132 0.105764
-0.14945 -0.0466486 0.109828
-0.14407 -0.0470346 0.115253
-0.140215 -0.0465243 0.119235
-0.135142 -0.0467107 0.124586
-0.130369 -0.0464781 0.12875
-0.126241 -0.0465896 0.132289
-0.12156 -0.0463003 0.136031
-0.117431 -0.0461515 0.139514
-0.113437 -0.0458961 0.142974
-0.108579 -0.0462473 0.146104
-0.104269 -0.045963 0.149184
-0.0997076 -0.0456829 0.151466
-0.0958924 -0.0456252 0.154424
-0.0915306 -0.045715 0.155942
-0.0875627 -0.0456306 0.158017
-0.0832614 -0.0457616 0.160553
-0.0783253 -0.0454856 0.162285
-0.0746543 -0.0456652 0.164498
-0.0701467 -0.0453346 0.165515
-0.0666309 -0.0455469 0.167223
-0.0620551 -0.0455615 0.168288
-0.0577269 -0.0453876 0.169587
-0.0530484 -0.04538 0.172153
-0.0494306 -0.0451289 0.172719
-0.0458262 -0.0452241 0.17396
-0.041074 -0.0456697 0.174829
-0.037153 -0.0449416 0.176968
-0.0329947 -0.0450963 0.177857
-0.0283901 -0.044957 0.178477
-0.0246567 -0.045082 0.180662
-0.0206601 -0.0449818 0.181106
-0.0162782 -0.0447013 0.180963
-0.0122223 -0.0449881 0.18194
-0.00820171 -0.0447735 0.182609
-0.00412102 -0.0453093 0.182461
0.000339828 -0.0448887 0.181963
0.0042613 -0.0453466 0.181678
0.00785796 -0.0450268 0.18154
0.0121025 -0.044728 0.182416
0.0162651 -0.044996 0.182066
0.0205304 -0.0449383 0.181437
0.0242182 -0.045064 0.180784
0.0287459 -0.0450614 0.180737
0.0327026 -0.0450406 0.180842
0.0372135 -0.0452281 0.179513
0.0411215 -0.0453186 0.178
0.0451158 -0.045568 0.177155
0.0492287 -0.0453884 0.176994
0.0535245 -0.0458738 0.17488
0.0576601 -0.0455844 0.173093
0.0623247 -0.0454454 0.171545
0.0662213 -0.0454265 0.170569
0.0704164 -0.045256 0.168449
0.0743119 -0.0456174 0.166909
0.0788723 -0.045558 0.164798
0.0825455 -0.0456109 0.162735
0.0869953 -0.0459123 0.162155
0.0913859 -0.0455659 0.15844
0.0956711 -0.0457892 0.155225
0.0997256 -0.0456895 0.152973
0.104368 -0.0461515 0.148127
0.108719 -0.0456567 0.146536
0.113181 -0.0461771 0.140966
0.117158 -0.0458859 0.138222
0.122175 -0.0464288 0.133349
0.125991 -0.0463613 0.129283
0.1309 -0.0464915 0.124085
0.136048 -0.0466267 0.119398
0.140749 -0.0466465 0.113622
0.145254 -0.0468504 0.109993
0.149512 -0.0464539 0.106422
0.154421 -0.0471422 0.100606
0.158934 -0.0472252 0.0934447
0.163994 -0.0473557 0.0866655
0.168581 -0.0479399 0.0796909
0.174204 -0.0477811 0.0701196
0.179556 -0.0478912 0.0604126
0.184781 -0.0484598 0.0498251
0.190126 -0.0484459 0.037313
-0.273445 -0.0447414 0.0174844
-0.267143 -0.0442783 0.0251645
-0.26181 -0.0443153 0.031456
-0.256837 -0.0444334 0.036359
-0.251687 -0.044354 0.0417657
-0.24716 -0.0439848 0.0456517
-0.241827 -0.0442399 0.0509673
-0.236862 -0.0439531 0.0554227
-0.231903 -0.0435165 0.0610371
-0.227071 -0.0433837 0.0648968
-0.222022 -0.0431048 0.0697935
-0.217324 -0.0434534 0.0728167
-0.213266 -0.0433597 0.0758535
-0.208259 -0.0429388 0.080273
-0.203101 -0.0428904 0.0848546
-0.198711 -0.0427503 0.0872297
-0.193474 -0.0430547 0.090842
-0.189102 -0.0427884 0.093245
-0.184894 -0.042763 0.0952191
-0.181075 -0.0428117 0.0951912
-0.175899 -0.042947 0.096542
-0.171926 -0.0428612 0.0962087
-0.167402 -0.0425412 0.0957316
-0.163018 -0.0429806 0.0983791
-0.158521 -0.0429772 0.101903
-0.154226 -0.0426168 0.105068
-0.149067 -0.0423552 0.110563
-0.144312 -0.0422927 0.115003
-0.13972 -0.0427181 0.11975
-0.135376 -0.042517 0.123276
-0.130784 -0.0424393 0.129164
-0.126305 -0.042448 0.131336
-0.122157 -0.0420339 0.135355
-0.11763 -0.0423341 0.13849
-0.112745 -0.0416734 0.142932
-0.108624 -0.0418396 0.145224
-0.104252 -0.0418322 0.148036
-0.100078 -0.041516 0.150241
-0.0956338 -0.0416592 0.15281
-0.0915095 -0.0415871 0.155529
-0.087286 -0.0416262 0.157458
-0.0831092 -0.0416204 0.159102
-0.0783395 -0.0415484 0.161591
-0.0743478 -0.0415154 0.163864
-0.0704759 -0.0413326 0.164874
-0.0658766 -0.0413828 0.167091
-0.0620695 -0.0409874 0.167457
-0.0577224 -0.0413554 0.16984
-0.0533549 -0.0413523 0.170654
-0.0492024 -0.0413587 0.172757
-0.0449751 -0.0412216 0.173844
-0.0413241 -0.0413446 0.174998
-0.0373034 -0.0412345 0.177019
-0.0328866 -0.0411892 0.178061
-0.0286998 -0.0410856 0.177991
-0.0246862 -0.0409357 0.178865
-0.0205716 -0.0412363 0.180283
-0.0169288 -0.0410829 0.180192
-0.0123305 -0.041007 0.18112
-0.00811428 -0.0408582 0.180304
-0.00405886 -0.0408106 0.180799
0.000226194 -0.0410591 0.180775
0.0042362 -0.0414559 0.181472
0.00840973 -0.0409584 0.18115
0.0124006 -0.0410093 0.180646
0.0162574 -0.0411781 0.180911
0.0202538 -0.0408321 0.180712
0.0246999 -0.0409491 0.179717
0.0284103 -0.0413341 0.179627
0.0326288 -0.0412105 0.180542
0.0372338 -0.0406705 0.177681
0.0412299 -0.0409547 0.177962
0.0450636 -0.0412145 0.176429
0.0489859 -0.0416959 0.174857
0.0531852 -0.0410427 0.17422
0.0577956 -0.0412198 0.172729
0.0619621 -0.0414515 0.170854
0.0660153 -0.0412977 0.168371
0.0705295 -0.0415113 0.166809
0.0745251 -0.0414965 0.165346
0.0785071 -0.041286 0.163356
0.0828734 -0.0413397 0.161512
0.086764 -0.0416029 0.159073
0.0913619 -0.0415397 0.156839
0.0954889 -0.041693 0.154491
0.100096 -0.0414448 0.151626
0.104319 -0.0411931 0.148966
0.108736 -0.0418508 0.145069
0.113065 -0.0415897 0.140311
0.117838 -0.0420693 0.135868
0.121981 -0.0424481 0.131163
0.126741 -0.0422804 0.125957
0.131192 -0.0421739 0.123302
0.13599 -0.0425631 0.117712
0.140605 -0.0426862 0.113433
0.144713 -0.0425376 0.109263
0.149573 -0.0428776 0.103496
0.154374 -0.0429699 0.0972968
0.159564 -0.0428553 0.0910659
0.164114 -0.0432698 0.0835397
0.169293 -0.0430828 0.0751454
0.174074 -0.0434322 0.0679946
0.179796 -0.0439034 0.0566901
0.185024 -0.0439709 0.0453156
0.192064 -0.0446359 0.0268071
-0.272363 -0.0401647 0.0185269
-0.267087 -0.0398287 0.0254974
-0.262102 -0.0398791 0.030287
-0.256192 -0.039704 0.0367138
-0.251785 -0.0400523 0.0417831
-0.246504 -0.0398824 0.0467297
-0.24164 -0.0393992 0.0517329
-0.237433 -0.0399804 0.054451
-0.231655 -0.0391046 0.060215
-0.226373 -0.0393521 0.0661777
-0.221798 -0.0390328 0.0694166
-0.217746 -0.0391898 0.0723554
-0.21234 -0.0387844 0.0772692
-0.207486 -0.0390203 0.080224
-0.203105 -0.0389727 0.083836
-0.198213 -0.0387007 0.0867807
-0.193779 -0.038835 0.0890155
-0.189041 -0.038979 0.0928786
-0.185084 -0.0382384 0.0941576
-0.180083 -0.0384882 0.0956569
-0.176161 -0.0386326 0.0946473
-0.171879 -0.0388314 0.0950812
-0.167235 -0.0386929 0.0969194
-0.16295 -0.0384217 0.0993069
-0.15829 -0.0385798 0.101692
-0.153514 -0.0386558 0.104923
-0.149025 -0.038535 0.111319
-0.144265 -0.0382853 0.1153
-0.139755 -0.0381122 0.119947
-0.135412 -0.0377692 0.123451
-0.131003 -0.0378616 0.128534
-0.126111 -0.0378788 0.132219
-0.121811 -0.0381645 0.134527
-0.117814 -0.0381059 0.137912
-0.113561 -0.0376581 0.14141
-0.108681 -0.0380949 0.144913
-0.104029 -0.0378162 0.148532
-0.100338 -0.0376373 0.149859
-0.0958075 -0.0375613 0.153605
-0.091557 -0.0370657 0.155419
-0.087263 -0.0374269 0.156951
-0.0831749 -0.0375609 0.158846
-0.0792016 -0.0374591 0.160045
-0.0748799 -0.0374419 0.163016
-0.070409 -0.0372883 0.163585
-0.0667544 -0.0372814 0.16674
-0.0621285 -0.0372599 0.167533
-0.0577476 -0.0369555 0.16876
-0.0538223 -0.0368596 0.170422
-0.0493582 -0.0372145 0.171874
-0.0449589 -0.0372787 0.173494
-0.041256 -0.037477 0.174314
-0.0370203 -0.0369065 0.175723
-0.033154 -0.0371314 0.17598
-0.0288615 -0.0369767 0.177516
-0.0246122 -0.0368583 0.178624
-0.0207342 -0.0368314 0.178995
-0.0164042 -0.0369258 0.178387
-0.0120965 -0.0371023 0.179795
-0.00814746 -0.0372652 0.180307
-0.0040073 -0.0369954 0.180773
6.09682e-05 -0.0370734 0.179934
0.00418553 -0.0369161 0.18013
0.00820353 -0.0370386 0.180572
0.0123234 -0.0368072 0.17997
0.0163753 -0.0368395 0.18058
0.020615 -0.0372231 0.179362
0.0245468 -0.0369736 0.179628
0.0287582 -0.0370908 0.178772
0.0327153 -0.0370092 0.177412
0.0371429 -0.0366869 0.176739
0.041067 -0.0368807 0.176997
0.0452424 -0.0368578 0.175424
0.0493913 -0.0366163 0.173931
0.0534574 -0.0372449 0.172168
0.0579954 -0.0369449 0.17125
0.0619807 -0.0370509 0.169699
0.0662641 -0.0370716 0.167349
0.0701008 -0.0373669 0.166773
0.0743441 -0.0372924 0.164955
0.0783975 -0.0372892 0.162374
0.0828622 -0.0374955 0.160044
0.0872885 -0.0375559 0.157628
0.0915413 -0.037463 0.154924
0.0958068 -0.0375004 0.153063
0.100134 -0.0371479 0.148872
0.104421 -0.0374617 0.146019
0.109088 -0.0378526 0.142401
0.113695 -0.0379583 0.137419
0.11799 -0.0375526 0.133094
0.122151 -0.0381378 0.129587
0.1269 -0.0376934 0.125474
0.131297 -0.0383509 0.12088
0.136042 -0.0384597 0.116422
0.140832 -0.0379875 0.110117
0.14522 -0.0386097 0.106928
0.149927 -0.0385123 0.100962
0.155267 -0.0382825 0.0942466
0.159297 -0.0386289 0.0892367
0.164261 -0.0388972 0.0816776
0.169342 -0.039373 0.0727366
0.17452 -0.039338 0.0647483
0.180055 -0.0400494 0.0542961
0.185329 -0.0397503 0.0420328
0.193217 -0.0405648 0.0132312
-0.272513 -0.0357915 0.0185113
-0.267117 -0.0357367 0.0251701
-0.261878 -0.0355589 0.0307689
-0.257071 -0.035449 0.0347774
-0.251554 -0.0351992 0.0407273
-0.246628 -0.0351087 0.0462548
-0.241508 -0.0352735 0.0502291
-0.236682 -0.0352489 0.0559033
-0.231884 -0.0346453 0.059677
-0.226561 -0.0349925 0.0648521
-0.222491 -0.0345847 0.0682541
-0.217596 -0.0348898 0.0719979
-0.212446 -0.0344978 0.076565
-0.207742 -0.0350034 0.0803472
-0.203168 -0.0345017 0.0824518
-0.198952 -0.0342351 0.0857052
-0.194053 -0.034383 0.0881265
-0.189334 -0.0350215 0.0917448
-0.18509 -0.0347514 0.0924333
-0.180735 -0.0344894 0.0944725
-0.176168 -0.0344071 0.0948298
-0.171794 -0.03469 0.0952328
-0.167221 -0.0343032 0.0956823
-0.162933 -0.0341672 0.0978913
-0.15857 -0.0343512 0.10047
-0.153984 -0.0345678 0.104298
-0.149081 -0.0338279 0.109619
-0.144357 -0.0340445 0.115158
-0.140065 -0.0342841 0.118703
-0.135145 -0.0339015 0.124346
-0.130561 -0.0338257 0.128268
-0.126621 -0.0334653 0.131786
-0.122135 -0.0336485 0.134492
-0.117527 -0.033427 0.138122
-0.112954 -0.0332375 0.142279
-0.108814 -0.0334855 0.144232
-0.104451 -0.0332045 0.148464
-0.100157 -0.0336123 0.150276
-0.0958075 -0.0335937 0.153058
-0.0913943 -0.0336112 0.155098
-0.0871858 -0.0333575 0.156195
-0.0828701 -0.0334879 0.159187
-0.0791154 -0.0333966 0.159805
-0.0745689 -0.0329884 0.162139
-0.0708339 -0.033181 0.163301
-0.0661236 -0.0328928 0.165493
-0.0622344 -0.0332677 0.16675
-0.0579968 -0.0329072 0.168767
-0.0534821 -0.0331718 0.17022
-0.0491864 -0.0334112 0.171147
-0.0450861 -0.032847 0.173449
-0.0414628 -0.0330458 0.173631
-0.0373077 -0.0327711 0.174534
-0.0327598 -0.0329231 0.17616
-0.0284649 -0.0328238 0.177395
-0.0245731 -0.0331213 0.177049
-0.0209685 -0.033225 0.177461
-0.0160853 -0.0327642 0.178427
-0.0124584 -0.0331526 0.179134
-0.00812918 -0.0329016 0.17925
-0.00455608 -0.0330345 0.179258
0.00024783 -0.0330168 0.179551
0.00422961 -0.0327574 0.179458
0.00839978 -0.0329533 0.178935
0.0125751 -0.032848 0.179245
0.0163359 -0.032671 0.179146
0.0205214 -0.0329523 0.178867
0.0245858 -0.0328241 0.178359
0.0288628 -0.0325198 0.177572
0.0330326 -0.0329727 0.177553
0.036804 -0.0328713 0.175932
0.0409176 -0.032901 0.17549
0.0451367 -0.0324559 0.17405
0.0495083 -0.0330985 0.172569
0.0538164 -0.0327119 0.171741
0.0580324 -0.0333441 0.170797
0.0622742 -0.0330611 0.168498
0.0660118 -0.0330126 0.165859
0.0706057 -0.0331366 0.16427
0.0746712 -0.0332396 0.162638
0.0786205 -0.0335736 0.160807
0.0827116 -0.0332315 0.158646
0.087125 -0.0330997 0.1571
0.0913849 -0.0330537 0.154124
0.0958754 -0.0335065 0.15114
0.100145 -0.0336893 0.147794
0.104658 -0.0334717 0.144994
0.108928 -0.0336959 0.140898
0.113695 -0.0335886 0.135921
0.117731 -0.0336243 0.132304
0.122325 -0.0338318 0.127476
0.127184 -0.0340574 0.12252
0.131699 -0.0341617 0.117872
0.13632 -0.0336635 0.112771
0.140974 -0.0340971 0.108397
0.14522 -0.0341427 0.104299
0.14987 -0.0343751 0.0992345
0.155197 -0.0340682 0.092555
0.159639 -0.0344669 0.0858345
0.164886 -0.0345163 0.0773621
0.169517 -0.0348119 0.0703157
0.174828 -0.0351352 0.0607333
0.180497 -0.0358396 0.0493991
0.185825 -0.0357012 0.0373725
-0.27242 -0.0312466 0.0186293
-0.267223 -0.0312256 0.0239773
-0.26144 -0.0308199 0.0317435
-0.256689 -0.0311175 0.0360942
-0.252245 -0.0309882 0.0397562
-0.246952 -0.0309283 0.0448132
-0.242175 -0.0308326 0.0499984
-0.23691 -0.0302582 0.0553156
-0.231803 -0.0305815 0.059252
-0.226895 -0.0307399 0.0637257
-0.222566 -0.0309641 0.0674121
-0.217363 -0.0304092 0.0719033
-0.212941 -0.0305129 0.0748339
-0.207901 -0.0300627 0.079633
-0.202861 -0.0306906 0.0830698
-0.198682 -0.0298389 0.0854764
-0.193905 -0.0300619 0.089088
-0.189793 -0.0300643 0.0901237
-0.185127 -0.0303032 0.0924516
-0.180249 -0.0300936 0.0937712
-0.176131 -0.0302546 0.093953
-0.171679 -0.0302099 0.0942086
-0.167737 -0.0299564 0.0950547
-0.162923 -0.0297363 0.0968918
-0.158709 -0.0299898 0.100377
-0.15432 -0.029749 0.10527
-0.149231 -0.0300187 0.110162
-0.144492 -0.0300434 0.114577
-0.140048 -0.0297441 0.119051
-0.13527 -0.0294983 0.123436
-0.130961 -0.0294759 0.127866
-0.126454 -0.0295628 0.131375
-0.122107 -0.0295585 0.134514
-0.11753 -0.0294887 0.138512
-0.113254 -0.0291211 0.140973
-0.108976 -0.0290896 0.144721
-0.104524 -0.0292171 0.147157
-0.100292 -0.0296612 0.1496
-0.0958745 -0.0287855 0.152288
-0.0912672 -0.0290346 0.155351
-0.0871693 -0.0292046 0.156321
-0.0832533 -0.0289165 0.15839
-0.0791665 -0.0287701 0.159357
-0.0747663 -0.0292433 0.161987
-0.0704861 -0.0285789 0.16348
-0.0660278 -0.0286667 0.164533
-0.0620787 -0.0287832 0.167089
-0.0579383 -0.0291481 0.167872
-0.0533597 -0.0290464 0.169889
-0.0497391 -0.0290064 0.170595
-0.0455684 -0.0291359 0.172148
-0.0410902 -0.0289404 0.172949
-0.0367458 -0.0285879 0.173899
-0.0327763 -0.0289051 0.175737
-0.0287371 -0.0285618 0.175716
-0.0249777 -0.0288136 0.17659
-0.0205155 -0.0289232 0.177558
-0.0164373 -0.0286806 0.177002
-0.0125467 -0.0290799 0.178264
-0.00803113 -0.028748 0.179091
-0.00440082 -0.0287282 0.17821
-0.00042145 -0.0284026 0.17858
0.00384359 -0.028569 0.179116
0.00817298 -0.0287166 0.178826
0.0123124 -0.0287386 0.178836
0.0162551 -0.0286947 0.178932
0.0201581 -0.0285914 0.177074
0.0247917 -0.0284588 0.177957
0.0289641 -0.029162 0.178209
0.0328795 -0.0290596 0.17603
0.0374069 -0.0287764 0.175447
0.0410549 -0.0292381 0.173533
0.0456254 -0.0286657 0.173642
0.0489624 -0.0290003 0.172138
0.0538188 -0.0291757 0.171237
0.0576977 -0.0290382 0.169296
0.0624169 -0.0290786 0.167007
0.0661804 -0.0289896 0.164566
0.070283 -0.0288967 0.163667
0.0746876 -0.0291553 0.162011
0.0786709 -0.0292241 0.16037
0.0829184 -0.0291814 0.157163
0.0873786 -0.0293497 0.1556
0.0918175 -0.028967 0.151878
0.0959423 -0.0292803 0.148727
0.0999495 -0.0291002 0.146564
0.104623 -0.0291095 0.143477
0.109282 -0.0297587 0.139197
0.113691 -0.0292868 0.134313
0.117858 -0.0295815 0.130573
0.122795 -0.0295204 0.124888
0.127175 -0.0298147 0.120371
0.131479 -0.0297231 0.115523
0.136291 -0.0298759 0.111032
0.140856 -0.0300466 0.106416
0.145498 -0.0301589 0.101909
0.14975 -0.0298587 0.0974312
0.155127 -0.0302716 0.0904264
0.160061 -0.030182 0.0824833
0.165048 -0.0305285 0.0747452
0.170006 -0.0306788 0.0669103
0.175987 -0.0312197 0.0546687
0.180223 -0.0312444 0.0470529
0.186852 -0.0309578 0.0293438
-0.272854 -0.0271314 0.0171942
-0.267325 -0.0270011 0.0247854
-0.262344 -0.0265025 0.0291179
-0.257086 -0.026327 0.035364
-0.251651 -0.0261204 0.0402347
-0.246305 -0.0263661 0.0465229
-0.242304 -0.0262525 0.0493922
-0.236401 -0.0260332 0.0555191
-0.232407 -0.0261102 0.0591756
-0.227321 -0.0265856 0.0630038
-0.221848 -0.0262069 0.0677053
-0.217157 -0.0263307 0.0719799
-0.212971 -0.0262932 0.0747619
-0.20803 -0.0258957 0.0790688
-0.203244 -0.025761 0.0825653
-0.198326 -0.026049 0.0855342
-0.194011 -0.02578 0.0885118
-0.189651 -0.0257726 0.0909126
-0.184765 -0.0258933 0.0914463
-0.180695 -0.0259583 0.0924714
-0.175986 -0.0261058 0.093855
-0.171861 -0.0259534 0.0939492
-0.167473 -0.0255639 0.094478
-0.163017 -0.0258246 0.097497
-0.158543 -0.0256867 0.101251
-0.153926 -0.0256655 0.105137
-0.1489 -0.025764 0.110141
-0.144753 -0.0256923 0.114592
-0.139985 -0.0254095 0.118971
-0.135386 -0.025421 0.122761
-0.130787 -0.0250788 0.126746
-0.126613 -0.0250468 0.130777
-0.121626 -0.025272 0.134912
-0.117803 -0.0256732 0.138455
-0.113451 -0.0247144 0.141085
-0.108926 -0.0251807 0.143809
-0.104236 -0.0252336 0.146242
-0.100285 -0.024924 0.149508
-0.0957745 -0.0247046 0.151352
-0.0915704 -0.0250502 0.152904
-0.087564 -0.0249764 0.156002
-0.0829712 -0.024977 0.159247
-0.0789948 -0.0247464 0.159307
-0.0751347 -0.0250928 0.160403
-0.0703023 -0.0246032 0.163627
-0.066467 -0.0247688 0.163517
-0.0617872 -0.0249376 0.166253
-0.0578337 -0.0249394 0.167359
-0.0534642 -0.0247468 0.168599
-0.0494062 -0.0246175 0.169853
-0.0453476 -0.0246147 0.171095
-0.0414369 -0.0246453 0.171951
-0.0369499 -0.0245034 0.173495
-0.033265 -0.0247833 0.174372
-0.0289367 -0.0248214 0.175059
-0.0245144 -0.0246181 0.176029
-0.0207296 -0.0246739 0.176441
-0.0166547 -0.0251281 0.177014
-0.0123472 -0.0248142 0.177186
-0.00815674 -0.024697 0.177652
-0.00390543 -0.0245568 0.17771
0.000174374 -0.024768 0.178391
0.00391731 -0.0245608 0.177945
0.00836607 -0.0243066 0.177719
0.0125846 -0.0248231 0.176735
0.0162735 -0.0247335 0.177289
0.0205345 -0.0243816 0.177165
0.024362 -0.0243051 0.176532
0.0288797 -0.0247654 0.176474
0.0326939 -0.0247575 0.175648
0.0372352 -0.0248144 0.174549
0.0413215 -0.0241686 0.173256
0.0450389 -0.0248695 0.17211
0.0494927 -0.0247821 0.171214
0.053602 -0.0247523 0.169045
0.0580427 -0.0251153 0.168249
0.0618483 -0.0248745 0.166392
0.0665058 -0.0248798 0.164167
0.0703809 -0.0249164 0.162598
0.0747317 -0.0248379 0.160412
0.0789017 -0.0249048 0.15767
0.0832481 -0.0251084 0.155475
0.0876341 -0.0247237 0.153001
0.0917947 -0.0249326 0.150461
0.0958545 -0.0248763 0.148663
0.100377 -0.0252176 0.145489
0.104433 -0.024991 0.142231
0.109245 -0.025456 0.138125
0.113592 -0.0252417 0.133028
0.117986 -0.0254702 0.127932
0.122937 -0.0253672 0.122407
0.127316 -0.0254233 0.118202
0.131869 -0.0255514 0.113018
0.136319 -0.025513 0.109645
0.141174 -0.0253607 0.104421
0.14598 -0.0256886 0.100087
0.15077 -0.0259507 0.0927818
0.155324 -0.0261414 0.0869956
0.160652 -0.0257465 0.079397
0.165244 -0.0258139 0.0716586
0.170901 -0.0258027 0.060706
0.175924 -0.0262477 0.0516632
0.181952 -0.0266297 0.0385143
0.187106 -0.0270411 0.0244647
-0.272763 -0.0224587 0.0173763
-0.267495 -0.0227578 0.0241988
-0.262045 -0.0220005 0.0302758
-0.25716 -0.0220018 0.0348785
-0.251888 -0.0222379 0.0407182
-0.246875 -0.0217637 0.0450027
-0.241944 -0.0218872 0.0499886
-0.237089 -0.0219002 0.0548435
-0.232258 -0.0217608 0.0587544
-0.226648 -0.0217259 0.0632112
-0.222146 -0.0220234 0.066925
-0.217583 -0.0217477 0.0711024
-0.212662 -0.0216838 0.0753262
-0.20849 -0.0216783 0.0779345
-0.203362 -0.0219225 0.0817255
-0.198732 -0.0214741 0.0841899
-0.194257 -0.021634 0.086509
-0.189285 -0.0211131 0.0896397
-0.185168 -0.0214271 0.091244
-0.18077 -0.0217659 0.0915078
-0.176418 -0.0218569 0.0926148
-0.171796 -0.021856 0.0930569
-0.167536 -0.0214336 0.0939907
-0.16309 -0.0216508 0.0969243
-0.158015 -0.0213503 0.100626
-0.153925 -0.021142 0.104651
-0.148993 -0.0214221 0.110814
-0.1444 -0.0209759 0.115492
-0.140091 -0.0212551 0.118536
-0.135645 -0.0208294 0.122618
-0.130769 -0.021092 0.127362
-0.126509 -0.0212094 0.131025
-0.121518 -0.0212441 0.134682
-0.117603 -0.0207353 0.138105
-0.113189 -0.0206944 0.140721
-0.108733 -0.020933 0.14327
-0.104591 -0.0208356 0.146986
-0.100375 -0.020963 0.147891
-0.0962844 -0.0208906 0.150512
-0.0916209 -0.0205351 0.152383
-0.0870179 -0.0210041 0.154694
-0.0829788 -0.0207227 0.156328
-0.0793503 -0.0205884 0.159251
-0.0747773 -0.0206085 0.160924
-0.0702744 -0.0206383 0.161498
-0.066404 -0.020821 0.1628
-0.0618344 -0.0201972 0.165587
-0.0580262 -0.0205844 0.167151
-0.0539688 -0.0207343 0.16715
-0.0494168 -0.0207175 0.168501
-0.0450991 -0.0205073 0.170519
-0.0410243 -0.0206953 0.172099
-0.037196 -0.0205409 0.173684
-0.0329843 -0.0203579 0.174103
-0.0286187 -0.0204905 0.175431
-0.0247076 -0.0205744 0.175345
-0.0202124 -0.0204454 0.175013
-0.0164498 -0.0206966 0.175862
-0.0124047 -0.0206531 0.176597
-0.00802919 -0.0205491 0.175932
-0.00418798 -0.020468 0.176513
-0.000113259 -0.02039 0.176413
0.00424746 -0.0203872 0.17664
0.00838702 -0.0205283 0.176092
0.0122009 -0.0204508 0.17665
0.0164181 -0.0203717 0.176332
0.020594 -0.0203074 0.175761
0.0249606 -0.0203926 0.175474
0.0288465 -0.0206479 0.173844
0.0330148 -0.0207401 0.175174
0.0370434 -0.0209713 0.173155
0.0411083 -0.0206995 0.172521
0.0450222 -0.0208337 0.170878
0.0496452 -0.0205981 0.169426
0.0541621 -0.0209077 0.16798
0.0579343 -0.020789 0.166898
0.062151 -0.0208642 0.164759
0.0661653 -0.0202793 0.163297
0.0707191 -0.0208346 0.161539
0.0749001 -0.0206373 0.159454
0.0788603 -0.0207886 0.156858
0.0832626 -0.0209118 0.154998
0.0876934 -0.0205768 0.151884
0.0918844 -0.0210388 0.149574
0.0959489 -0.0210811 0.146997
0.100399 -0.0208989 0.144627
0.104751 -0.0205688 0.140073
0.109137 -0.0209528 0.136703
0.113246 -0.0210045 0.132266
0.118327 -0.0212423 0.125803
0.123235 -0.0208729 0.12021
0.127407 -0.0213331 0.11618
0.131741 -0.0211147 0.110423
0.136912 -0.0214436 0.106921
0.141355 -0.0212464 0.101675
0.145419 -0.0215564 0.0988477
0.150806 -0.0217003 0.0914304
0.155409 -0.0217423 0.0860943
0.160436 -0.0216778 0.0770209
0.165524 -0.0218166 0.0682409
0.170551 -0.0215633 0.0583745
0.176215 -0.0220547 0.0482529
0.181663 -0.0224054 0.0368682
-0.272741 -0.0178952 0.0177246
-0.267763 -0.0182015 0.0229546
-0.262249 -0.0180855 0.029512
-0.25671 -0.0177455 0.0348821
-0.252093 -0.017389 0.0400951
-0.247065 -0.0178017 0.0448923
-0.241508 -0.0173706 0.0500839
-0.236563 -0.0176135 0.0548924
-0.232352 -0.0176529 0.0585312
-0.226939 -0.0174888 0.0630431
-0.222531 -0.0172349 0.0662783
-0.217529 -0.0172339 0.0699548
-0.212761 -0.0170559 0.0748199
-0.208168 -0.0176185 0.0781474
-0.203344 -0.0169846 0.0810421
-0.198583 -0.0176598 0.0835575
-0.19407 -0.0170693 0.0870101
-0.18929 -0.0168099 0.0900486
-0.185073 -0.0172519 0.0906686
-0.18095 -0.0172357 0.0918854
-0.176494 -0.0171446 0.0921223
-0.172326 -0.0173359 0.0928967
-0.167479 -0.0173525 0.094545
-0.163172 -0.0169114 0.0964379
-0.158322 -0.0167475 0.0999233
-0.15381 -0.0172091 0.10501
-0.149302 -0.017205 0.110253
-0.144822 -0.017608 0.113316
-0.140092 -0.0165128 0.118304
-0.135909 -0.0168622 0.121734
-0.130871 -0.0166238 0.126846
-0.126762 -0.0164163 0.130159
-0.121898 -0.0169502 0.134183
-0.117701 -0.0168051 0.136807
-0.113384 -0.0167851 0.139438
-0.108648 -0.0169644 0.143336
-0.104533 -0.0168083 0.144905
-0.100328 -0.016541 0.147995
-0.0957785 -0.0165992 0.151374
-0.0916428 -0.0168041 0.152105
-0.0873652 -0.0164719 0.15447
-0.083397 -0.0168577 0.156023
-0.0788767 -0.0170037 0.157803
-0.0748473 -0.0169085 0.160017
-0.070451 -0.0172092 0.161756
-0.0658127 -0.0163732 0.163153
-0.0621485 -0.0167312 0.164687
-0.0578516 -0.0165164 0.165196
-0.0540765 -0.0163644 0.166982
-0.0493892 -0.0166409 0.16839
-0.0451799 -0.0168016 0.169539
-0.041508 -0.0166925 0.17195
-0.0368422 -0.0164103 0.17229
-0.0331672 -0.0167802 0.173312
-0.0285517 -0.0164673 0.173052
-0.0241131 -0.0167302 0.175251
-0.0206988 -0.0164369 0.174728
-0.0166324 -0.0166055 0.174954
-0.0128112 -0.0163823 0.176404
-0.00842912 -0.0165852 0.176297
-0.00425151 -0.0163698 0.175836
4.80521e-05 -0.0163564 0.176064
0.00372099 -0.0166264 0.17633
0.00810809 -0.0161316 0.175645
0.0123502 -0.0165873 0.176014
0.016275 -0.0166462 0.175851
0.0208296 -0.0164113 0.175302
0.024727 -0.0163846 0.17488
0.028852 -0.0162517 0.174679
0.0330214 -0.0165389 0.174256
0.0368809 -0.0164481 0.172272
0.0412105 -0.016348 0.17107
0.0449618 -0.016744 0.170034
0.0496667 -0.0165273 0.16847
0.0534828 -0.0160007 0.166739
0.0582482 -0.0166971 0.164762
0.0618937 -0.0165159 0.164112
0.0663713 -0.0169887 0.16171
0.0706415 -0.0166045 0.160448
0.0747661 -0.0164052 0.15784
0.0792816 -0.0165408 0.155571
0.0833239 -0.016454 0.152799
0.0870319 -0.0165404 0.152207
0.0922271 -0.0166897 0.147635
0.0962633 -0.0168515 0.145119
0.100516 -0.0166282 0.142047
0.104958 -0.0168905 0.138409
0.109221 -0.0171405 0.135064
0.114101 -0.0165596 0.130589
0.11856 -0.0167973 0.12435
0.122607 -0.0171447 0.119799
0.12771 -0.0170692 0.114051
0.132031 -0.0169341 0.109059
0.136945 -0.0167638 0.105657
0.14115 -0.0173277 0.100503
0.145935 -0.0167702 0.0956414
0.150399 -0.0172644 0.089969
0.155824 -0.0173028 0.081115
0.160769 -0.0179878 0.0728378
0.166206 -0.0175 0.0632149
0.170862 -0.0173557 0.0551929
0.176546 -0.017646 0.0439619
0.181658 -0.0178032 0.0323855
-0.272491 -0.0133372 0.0176035
-0.267583 -0.0135824 0.0227851
-0.261883 -0.0139441 0.0295925
-0.25694 -0.0136528 0.0344578
-0.251855 -0.0133933 0.0399005
-0.246857 -0.0134588 0.0443366
-0.241892 -0.0133018 0.0499203
-0.237272 -0.0132048 0.053045
-0.232037 -0.0131588 0.0586677
-0.226706 -0.0132359 0.0630702
-0.222432 -0.0131359 0.0668467
-0.217502 -0.0129701 0.0696633
-0.21294 -0.0127359 0.0740857
-0.207917 -0.0132726 0.0769832
-0.203194 -0.012401 0.0817432
-0.199059 -0.0127661 0.0831331
-0.19446 -0.0128695 0.0857698
-0.18961 -0.0129576 0.088858
-0.185125 -0.0128796 0.0899899
-0.180922 -0.0128013 0.0902544
-0.176743 -0.0131928 0.0922077
-0.17191 -0.0133591 0.0917413
-0.167875 -0.0127109 0.0931931
-0.163024 -0.0127402 0.0956377
-0.158456 -0.0128464 0.0997732
-0.15368 -0.0127221 0.104803
-0.148731 -0.0133757 0.109653
-0.144718 -0.0127575 0.114066
-0.140107 -0.0125641 0.118478
-0.135526 -0.0125036 0.123148
-0.13082 -0.0126613 0.12719
-0.126795 -0.0124438 0.130281
-0.122134 -0.0125913 0.134027
-0.117798 -0.0126078 0.13763
-0.113292 -0.0121834 0.139594
-0.10879 -0.0124882 0.142512
-0.10459 -0.0123128 0.144951
-0.100162 -0.0125627 0.147365
-0.0958449 -0.0123194 0.150368
-0.0916107 -0.012592 0.151975
-0.0873785 -0.0121644 0.152948
-0.0832264 -0.0124035 0.155477
-0.07909 -0.0121002 0.15799
-0.0748494 -0.012658 0.1598
-0.0706956 -0.0121495 0.161335
-0.0663248 -0.0122857 0.161547
-0.0625648 -0.0126302 0.165271
-0.057785 -0.0123225 0.16488
-0.0536143 -0.0123216 0.167123
-0.0498831 -0.0125641 0.167802
-0.0459104 -0.0122878 0.168752
-0.0413217 -0.0123497 0.170704
-0.0369458 -0.0121912 0.171679
-0.032409 -0.0126089 0.172573
-0.0288793 -0.0123432 0.171919
-0.0244937 -0.0122826 0.172807
-0.02044 -0.0123829 0.174718
-0.0162602 -0.0122103 0.1742
-0.0126641 -0.0126242 0.174581
-0.0081275 -0.0121125 0.174313
-0.00408182 -0.0122942 0.174993
0.000221933 -0.0125592 0.174793
0.00437567 -0.0121989 0.175386
0.00824597 -0.0122143 0.174972
0.0121888 -0.0123361 0.174551
0.0163246 -0.0121679 0.174685
0.0206357 -0.0127494 0.174235
0.0245301 -0.0123072 0.173876
0.0286447 -0.0123663 0.173334
0.0330552 -0.0126806 0.172413
0.0371618 -0.0122618 0.172238
0.0408158 -0.0123474 0.168842
0.0455878 -0.0119663 0.168268
0.0495466 -0.0126331 0.166766
0.0538243 -0.0123636 0.16567
0.0581911 -0.0122748 0.164843
0.0621229 -0.0121491 0.162091
0.0664449 -0.0126889 0.160225
0.0705563 -0.0124419 0.157789
0.0747643 -0.0125849 0.156048
0.0792996 -0.0126136 0.153806
0.0833337 -0.0124363 0.15183
0.0872736 -0.0124614 0.149949
0.0918796 -0.0126305 0.14713
0.0956932 -0.0128836 0.14409
0.100554 -0.0123225 0.139918
0.105084 -0.0129319 0.136967
0.109822 -0.0124023 0.132442
0.113768 -0.0123102 0.12949
0.118968 -0.0125052 0.121802
0.123154 -0.0124695 0.116915
0.127718 -0.0128415 0.112753
0.132565 -0.0126801 0.10806
0.13706 -0.0131227 0.10352
0.141495 -0.0128753 0.0980151
0.146066 -0.0132793 0.0932093
0.150659 -0.0131987 0.0868067
0.156445 -0.0130034 0.0768591
0.161427 -0.0131011 0.0695547
0.166379 -0.0135245 0.0608506
0.172021 -0.0135155 0.0504745
0.177258 -0.0134358 0.0391784
0.18283 -0.0133684 0.0242769
-0.27252 -0.00866961 0.0176636
-0.267016 -0.00860721 0.0248263
-0.262036 -0.00926654 0.0298712
-0.257128 -0.00891453 0.0345237
-0.252746 -0.00868523 0.0386326
-0.246758 -0.00905764 0.0438451
-0.241873 -0.00924547 0.0497729
-0.237304 -0.00886963 0.0533767
-0.232158 -0.00870849 0.0581578
-0.227149 -0.00868003 0.0622382
-0.22223 -0.00905691 0.0665994
-0.21747 -0.00869667 0.0701802
-0.212703 -0.00859103 0.0742133
-0.20847 -0.0090298 0.0768907
-0.20321 -0.00838745 0.0802969
-0.198964 -0.00868443 0.0835928
-0.193898 -0.0090057 0.0858135
-0.18969 -0.00845007 0.0878761
-0.185362 -0.00892882 0.0879604
-0.181149 -0.00882995 0.0902655
-0.176428 -0.00858764 0.0913968
-0.171784 -0.00869416 0.0914868
-0.168088 -0.00898419 0.0935254
-0.162977 -0.00860858 0.095471
-0.159201 -0.00844989 0.0991467
-0.153652 -0.00857425 0.104867
-0.149024 -0.00827935 0.110606
-0.144771 -0.00858269 0.11413
-0.140007 -0.00847306 0.117858
-0.135864 -0.00819956 0.12202
-0.130608 -0.00839469 0.126038
-0.126398 -0.00860978 0.129444
-0.122146 -0.00860889 0.133166
-0.118014 -0.00839247 0.13719
-0.112863 -0.00832879 0.139709
-0.108645 -0.00836447 0.142325
-0.104505 -0.00806658 0.14488
-0.100437 -0.0081842 0.14659
-0.0959776 -0.00830824 0.148982
-0.0917165 -0.00840446 0.151356
-0.0873134 -0.00826105 0.153757
-0.0833228 -0.0083396 0.155271
-0.0789107 -0.00835519 0.157169
-0.0748177 -0.0081351 0.158306
-0.0702742 -0.00835437 0.160396
-0.0667638 -0.00813171 0.161107
-0.0618955 -0.00852687 0.163155
-0.057766 -0.00820822 0.164733
-0.0539896 -0.00806693 0.165967
-0.0493696 -0.00881529 0.167789
-0.0453091 -0.00809931 0.167742
-0.0409914 -0.00855839 0.170787
-0.0373496 -0.0086597 0.170437
-0.0328499 -0.00823192 0.171714
-0.0286896 -0.00826772 0.17204
-0.0249498 -0.0085587 0.173697
-0.0207134 -0.00807698 0.172942
-0.0166467 -0.00818519 0.17368
-0.0126998 -0.00862812 0.174487
-0.00803883 -0.00823947 0.174581
-0.00417978 -0.00793376 0.173923
-0.000266682 -0.00817941 0.173804
0.00405809 -0.00811595 0.173729
0.00823694 -0.00836124 0.173839
0.0124882 -0.00866928 0.173702
0.016156 -0.0081851 0.174332
0.0201843 -0.00820259 0.173975
0.0246997 -0.00838431 0.173035
0.0286807 -0.00844959 0.171255
0.03295 -0.00855189 0.170824
0.037427 -0.0084125 0.170029
0.0412811 -0.00817373 0.168589
0.0455146 -0.00821467 0.166809
0.0498128 -0.00783018 0.165959
0.0542344 -0.00842634 0.163543
0.0580137 -0.00829108 0.162079
0.0622588 -0.00831449 0.160536
0.0665701 -0.00809373 0.158078
0.0705456 -0.00856586 0.157122
0.0749976 -0.00829175 0.155448
0.0794793 -0.00826676 0.151694
0.0829576 -0.00827353 0.149836
0.0877265 -0.00842648 0.147581
0.0919936 -0.0084728 0.144595
0.0964223 -0.00870348 0.142427
0.100659 -0.00829213 0.138629
0.104831 -0.00831236 0.135435
0.109483 -0.00880344 0.130699
0.114062 -0.00832406 0.126197
0.118864 -0.00863565 0.121293
0.122847 -0.00844379 0.116631
0.127919 -0.0083845 0.110461
0.132345 -0.00888062 0.105584
0.137181 -0.00833692 0.101651
0.141459 -0.00898189 0.0969498
0.146666 -0.0083652 0.0891432
0.151552 -0.00851347 0.081449
0.156359 -0.00872433 0.075346
0.160779 -0.00892721 0.0678844
0.166474 -0.00910015 0.0568252
0.171646 -0.00907703 0.0471486
0.176975 -0.00878758 0.0357714
0.183426 -0.00860209 0.0161768
-0.272873 -0.00487303 0.0165021
-0.267471 -0.0046595 0.0231289
-0.262132 -0.00381937 0.0294502
-0.257127 -0.00431051 0.0338653
-0.251663 -0.00442358 0.040676
-0.246952 -0.00462473 0.0441104
-0.242372 -0.00413034 0.0482308
-0.237084 -0.00440292 0.0533215
-0.23219 -0.00436564 0.0573117
-0.227471 -0.0043611 0.0623101
-0.222778 -0.00421888 0.0649278
-0.217815 -0.00405086 0.0685993
-0.212857 -0.00469814 0.0732907
-0.208671 -0.0041452 0.0770656
-0.203833 -0.00439798 0.0795934
-0.199171 -0.00458894 0.082163
-0.194072 -0.0043603 0.0857818
-0.189909 -0.0044063 0.0864214
-0.185367 -0.00424021 0.0883812
-0.18091 -0.0039425 0.0893109
-0.176596 -0.00400131 0.0905935
-0.172125 -0.00434056 0.0906533
-0.16767 -0.00438058 0.0922543
-0.163005 -0.00409513 0.0970309
-0.159001 -0.00429345 0.0990133
-0.153901 -0.00434832 0.104435
-0.149007 -0.00375633 0.11021
-0.144717 -0.00448264 0.113905
-0.139672 -0.00457995 0.119185
-0.135695 -0.00423554 0.122175
-0.130759 -0.00396383 0.126702
-0.126394 -0.00446286 0.130199
-0.122218 -0.0045929 0.133422
-0.117564 -0.00424555 0.136257
-0.113537 -0.00417452 0.13821
-0.10904 -0.00398557 0.140626
-0.10425 -0.00438063 0.144541
-0.10016 -0.00419379 0.14676
-0.0957615 -0.00428002 0.149406
-0.0919532 -0.00414637 0.150963
-0.0880858 -0.00415643 0.152564
-0.0833384 -0.00439252 0.154507
-0.0787577 -0.00426171 0.156753
-0.0749158 -0.00384048 0.156436
-0.0706098 -0.0038663 0.159314
-0.066318 -0.00409964 0.161243
-0.0623167 -0.00438266 0.162053
-0.057866 -0.0041188 0.163547
-0.053865 -0.00464765 0.164873
-0.0492931 -0.00383624 0.165611
-0.0456212 -0.00396485 0.166505
-0.0413468 -0.00380686 0.168277
-0.0373037 -0.00408282 0.169081
-0.0329178 -0.00425042 0.170968
-0.0290978 -0.00415807 0.171694
-0.0246813 -0.00437505 0.171555
-0.0204369 -0.00411688 0.172371
-0.0166201 -0.0043345 0.172382
-0.011942 -0.00397383 0.17283
-0.00841131 -0.00380754 0.172564
-0.00396733 -0.00428795 0.172815
0.000160577 -0.00372771 0.172292
0.00393222 -0.00460067 0.172325
0.00826226 -0.00383647 0.173102
0.012201 -0.00364283 0.17246
0.0166287 -0.00442201 0.173044
0.0210351 -0.00415877 0.17158
0.0249149 -0.00412818 0.171709
0.0284752 -0.00344706 0.170568
0.0333744 -0.00420766 0.170128
0.0372345 -0.00421168 0.168188
0.0413786 -0.00408729 0.166783
0.0455646 -0.0043594 0.166311
0.0496873 -0.00405672 0.1642
0.0535803 -0.00386431 0.164118
0.0580767 -0.00439256 0.161304
0.0623602 -0.00383571 0.158517
0.0663668 -0.00430427 0.157345
0.070998 -0.00421845 0.154912
0.0751065 -0.00389587 0.15247
0.0790226 -0.00440958 0.150579
0.0834917 -0.00439614 0.148815
0.0877363 -0.00438843 0.145823
0.0923477 -0.00402367 0.14238
0.0961993 -0.00442007 0.140509
0.100544 -0.00409868 0.136667
0.105266 -0.00438336 0.132446
0.109839 -0.00464391 0.129188
0.114291 -0.004161 0.123285
0.118816 -0.00439914 0.118844
0.123138 -0.0042658 0.114043
0.127907 -0.00399221 0.108069
0.132472 -0.0043208 0.104811
0.137195 -0.00410005 0.0990603
0.142032 -0.00451662 0.0931017
0.146888 -0.00435285 0.0858498
0.151449 -0.00468828 0.0794908
0.156622 -0.0042412 0.0707259
0.161788 -0.00402781 0.06174
0.166824 -0.00421131 0.0528554
0.172096 -0.00468848 0.0425117
0.177674 -0.00448362 0.031027
-0.273311 -6.151e-06 0.0154502
-0.267629 0.000442171 0.022817
-0.262139 0.000365457 0.0285057
-0.257201 -9.32763e-05 0.0340252
-0.252194 2.57135e-05 0.039083
-0.246742 -0.000308521 0.0437955
-0.24198 -0.000178424 0.0485966
-0.236866 0.000162445 0.0532988
-0.231802 -0.000104708 0.0567369
-0.227669 0.000188427 0.0605643
-0.222567 -0.000596002 0.0651606
-0.217573 -4.42096e-05 0.0684524
-0.213049 0.000263977 0.0727581
-0.208712 -2.40874e-05 0.0756232
-0.203326 0.00011606 0.0797141
-0.199168 9.37617e-05 0.0816346
-0.194415 -2.83008e-05 0.0854465
-0.189771 5.4283e-05 0.0867289
-0.185774 -0.000275599 0.0877672
-0.180748 0.000153083 0.0890595
-0.176573 3.25726e-05 0.0892366
-0.171788 -0.000463853 0.0907345
-0.16766 -0.000347579 0.0930642
-0.163597 0.000168427 0.0958622
-0.158255 -0.000225737 0.10068
-0.153777 -5.35506e-05 0.104579
-0.149146 9.57616e-05 0.109868
-0.144489 -0.000236011 0.114472
-0.140293 2.53516e-05 0.118015
-0.135688 8.39434e-05 0.122218
-0.131214 0.000123095 0.125963
-0.126543 7.82765e-05 0.129256
-0.122001 -5.56256e-06 0.133514
-0.117634 9.57924e-05 0.135581
-0.113326 1.3756e-05 0.138811
-0.108888 0.00031065 0.141285
-0.104616 -2.25698e-05 0.143828
-0.100506 -3.82286e-05 0.146329
-0.095617 -0.000170213 0.148051
-0.0917071 0.000114929 0.149528
-0.0869877 0.000168267 0.152458
-0.0829886 0.000216764 0.153964
-0.0789043 -0.000119613 0.155539
-0.0750368 -0.000328415 0.157228
-0.0704741 6.78174e-05 0.158921
-0.0661884 -0.000173965 0.159747
-0.0619191 6.33303e-05 0.161753
-0.0579684 0.000161618 0.162937
-0.0537606 -7.76606e-05 0.16489
-0.0494562 -0.000250885 0.165149
-0.0451027 0.000386967 0.167074
-0.0407795 7.6407e-06 0.16872
-0.0372711 0.00049067 0.169836
-0.0331881 0.000444276 0.170417
-0.0287412 -0.000426434 0.170236
-0.0247466 -9.28953e-05 0.170747
-0.0204737 0.000435109 0.171364
-0.0164236 -3.79093e-05 0.17238
-0.0123559 -0.00020029 0.171758
-0.00775547 -0.000255582 0.172231
-0.00422901 0.00017866 0.172308
0.000398164 0.000190038 0.171842
0.00415701 4.35722e-07 0.172448
0.00805651 0.000320613 0.171655
0.0128538 -0.00012944 0.172011
0.0164794 -6.97734e-05 0.170931
0.0206593 7.35215e-05 0.169901
0.0247108 0.000323706 0.170184
0.0291341 0.000383246 0.169191
0.0332103 -3.53896e-05 0.167473
0.0370715 -0.000143125 0.166996
0.0416169 -0.000134071 0.165304
0.0455461 -2.997e-05 0.164913
0.050117 0.000292403 0.162655
0.053772 -0.000143204 0.16037
0.0583562 -0.000277804 0.159249
0.0624218 5.64422e-05 0.157697
0.0669126 -7.40867e-05 0.155833
0.0706822 -0.000426992 0.153674
0.0750793 7.4499e-05 0.151057
0.0794349 0.000161978 0.148817
0.0837987 -3.91114e-05 0.146383
0.0878935 -3.82714e-05 0.144254
0.0923627 -0.000301883 0.140692
0.096624 -0.000169441 0.137124
0.101001 0.000139661 0.134451
0.105369 -6.59803e-05 0.130126
0.109703 -0.00022438 0.125262
0.113961 0.000152634 0.122595
0.118668 -0.000133353 0.116763
0.123582 0.000193835 0.111492
0.127955 0.000197665 0.107151
0.132643 1.37948e-05 0.102965
0.137367 8.19325e-05 0.0961229
0.141913 6.37331e-06 0.0906012
0.146726 0.000256359 0.0833411
0.151558 0.000132738 0.0768722
0.157126 3.75606e-05 0.0669889
0.162095 0.000131256 0.0581082
0.167073 0.000114861 0.0495489
0.172737 -0.000266339 0.0384419
0.178166 0.000180866 0.0244579
-0.272835 0.00406561 0.0165837
-0.267626 0.00420482 0.023279
-0.262407 0.00412516 0.0283538
-0.257438 0.00464187 0.0338886
-0.251938 0.00429969 0.0390145
-0.247531 0.00447355 0.0427244
-0.241974 0.00473413 0.0480323
-0.23735 0.00391704 0.0519062
-0.232356 0.00427506 0.0570103
-0.227804 0.00465187 0.0600182
-0.222849 0.0043804 0.0647032
-0.21795 0.00451915 0.0679185
-0.212834 0.0044315 0.0723821
-0.208652 0.00427792 0.075314
-0.203886 0.00415233 0.0781134
-0.19876 0.00418822 0.0821345
-0.194248 0.0040513 0.0843935
-0.189915 0.00398584 0.0851241
-0.185143 0.00411419 0.0875375
-0.180713 0.00426809 0.0891623
-0.177283 0.00428911 0.0893395
-0.17234 0.00414737 0.0895799
-0.167188 0.00412942 0.0931362
-0.162833 0.0044216 0.0966254
-0.158126 0.00404122 0.0999777
-0.15352 0.00390861 0.10508
-0.149068 0.0041941 0.109173
-0.144718 0.00439727 0.113585
-0.140389 0.00454629 0.117338
-0.135601 0.00433305 0.122118
-0.131433 0.00422913 0.125219
-0.126208 0.00393691 0.130049
-0.122005 0.00448451 0.132228
-0.118362 0.00431721 0.134091
-0.113352 0.00381771 0.138496
-0.108918 0.00421428 0.140157
-0.104719 0.00450546 0.142499
-0.100599 0.0043497 0.144711
-0.0964803 0.0040884 0.146562
-0.0914775 0.00394565 0.149268
-0.0872835 0.00421709 0.151361
-0.0835375 0.00419583 0.152863
-0.0792972 0.00413945 0.154144
-0.0747529 0.00432263 0.156541
-0.0706623 0.00439061 0.156507
-0.0666902 0.00399151 0.158745
-0.0622104 0.00412501 0.161169
-0.0577593 0.00417365 0.162629
-0.0537619 0.0042071 0.164472
-0.0494193 0.00402047 0.164564
-0.0455566 0.00418843 0.166799
-0.0413232 0.00442303 0.167118
-0.0376237 0.00425494 0.168462
-0.0331485 0.00404687 0.168954
-0.028869 0.00377906 0.170319
-0.0245632 0.00406586 0.169249
-0.0206735 0.00395212 0.170478
-0.0166109 0.00429769 0.170059
-0.0123109 0.0044784 0.171185
-0.0081585 0.00430982 0.171025
-0.00394654 0.00439541 0.171245
-0.000218232 0.0043448 0.171167
0.00402167 0.00406571 0.171083
0.00815545 0.0041174 0.171073
0.0123978 0.00439666 0.170359
0.0165747 0.00417959 0.171049
0.0205058 0.00422487 0.168627
0.0250386 0.00426287 0.16843
0.0291186 0.00418994 0.167956
0.0327608 0.00414462 0.165881
0.0371928 0.00451478 0.164548
0.0413637 0.00420079 0.164264
0.0457676 0.00439898 0.162743
0.0497671 0.00403657 0.161018
0.0540429 0.00413948 0.159513
0.0583522 0.00404056 0.157997
0.062472 0.00429717 0.156717
0.0664792 0.00393467 0.153798
0.0707215 0.00419033 0.151601
0.0748641 0.004095 0.14997
0.0795176 0.00382097 0.147246
0.0834028 0.00423128 0.145335
0.0881603 0.0042813 0.141377
0.0918007 0.00453722 0.139194
0.0962488 0.00422627 0.135354
0.100213 0.00472512 0.132258
0.10547 0.0042028 0.127985
0.110146 0.00384179 0.123596
0.114827 0.00409939 0.119012
0.119101 0.00426982 0.113757
0.123307 0.00431107 0.11066
0.127881 0.00446329 0.104937
0.132935 0.0043762 0.0993938
0.137261 0.004815 0.0938598
0.142559 0.00418138 0.0869416
0.147581 0.00452709 0.0794015
0.152183 0.00405991 0.0728264
0.157124 0.00416554 0.064201
0.162032 0.0044757 0.0551715
0.167896 0.00446278 0.0435603
0.173037 0.00440675 0.0335907
0.178978 0.00454175 0.0174353
-0.273035 0.0086915 0.0159035
-0.267367 0.00884707 0.0228412
-0.262179 0.0084458 0.0285351
-0.257122 0.00856784 0.0339673
-0.252389 0.00863675 0.0380661
-0.246935 0.00912517 0.043364
-0.24156 0.00870329 0.0491532
-0.23716 0.00863228 0.0525807
-0.232724 0.00887435 0.0565109
-0.227658 0.0086866 0.0609775
-0.222696 0.00891469 0.0647529
-0.217494 0.0087887 0.0681059
-0.213607 0.00854714 0.0713737
-0.208068 0.00891693 0.0754709
-0.204471 0.00869132 0.0780797
-0.198881 0.00836855 0.0817443
-0.194515 0.00845498 0.0830433
-0.19016 0.00853409 0.0844184
-0.185515 0.00850313 0.0873748
-0.181014 0.00845982 0.0876819
-0.176964 0.00879734 0.0887425
-0.171804 0.00825293 0.0899793
-0.167953 0.00854511 0.0926112
-0.163014 0.00905472 0.0960897
-0.158228 0.00844779 0.0995163
-0.153478 0.00874184 0.105315
-0.149354 0.00847628 0.108025
-0.144411 0.00832033 0.112856
-0.139799 0.00858843 0.117407
-0.135711 0.00809718 0.122089
-0.13096 0.0084695 0.1254
-0.126644 0.00833076 0.127603
-0.122538 0.00834496 0.13177
-0.117929 0.00840468 0.134531
-0.113489 0.00837377 0.136856
-0.109049 0.00794887 0.14008
-0.104787 0.00802951 0.141687
-0.10058 0.00846043 0.144833
-0.0964126 0.00846625 0.146368
-0.0917839 0.00828357 0.148823
-0.0872017 0.00826802 0.151264
-0.0831321 0.00827775 0.152634
-0.0791905 0.00852496 0.153132
-0.0751345 0.00864572 0.155129
-0.0706662 0.00812558 0.15678
-0.0665644 0.00807933 0.159406
-0.0618161 0.0084738 0.159843
-0.0582645 0.00833874 0.162101
-0.0539333 0.00810408 0.162055
-0.0494919 0.00818293 0.164469
-0.0452084 0.0079724 0.165381
-0.0412278 0.00821991 0.167006
-0.0373364 0.00814898 0.16738
-0.0328319 0.00819378 0.168157
-0.0288531 0.00803513 0.168382
-0.0247167 0.00834192 0.168858
-0.0207651 0.00828099 0.168382
-0.016776 0.00803212 0.169664
-0.0122466 0.00870762 0.170174
-0.00841095 0.00835115 0.169465
-0.00389148 0.00799522 0.16997
0.000234216 0.00816721 0.168925
0.00385484 0.0084026 0.169238
0.00817059 0.00845234 0.169291
0.0122948 0.00819634 0.168903
0.0169277 0.00819974 0.168386
0.0207503 0.0081735 0.16776
0.0245591 0.00818942 0.166444
0.0290628 0.00831536 0.16576
0.0332986 0.00863995 0.16481
0.0373805 0.0081964 0.164636
0.0415969 0.00853608 0.160509
0.0455308 0.00808659 0.161
0.0495858 0.00840813 0.159765
0.0540816 0.00821839 0.156908
0.0580839 0.00821485 0.155681
0.0626241 0.00838615 0.15369
0.0664818 0.00842842 0.152384
0.0709166 0.00826841 0.15024
0.074552 0.00824102 0.148168
0.0796978 0.0084518 0.144349
