ply
format ascii 1.0
element vertex 1664
property float x
property float y
property float z
end_header
0.0323589 -0.468818 0.191277
0.0366548 -0.469517 0.190513
0.0404594 -0.469933 0.189625
0.0450609 -0.469547 0.188822
0.0488739 -0.470679 0.186199
0.0530964 -0.470292 0.186242
0.0573767 -0.47101 0.183226
0.0614024 -0.471469 0.1824
0.0652238 -0.47195 0.180952
0.0699446 -0.47266 0.17819
0.0737184 -0.472909 0.177885
0.0782625 -0.473298 0.175161
0.0824061 -0.474136 0.171857
0.0864585 -0.47447 0.170326
0.0909618 -0.475249 0.167305
0.0955079 -0.475588 0.165905
0.0991076 -0.476529 0.162879
0.103844 -0.476798 0.16045
0.107912 -0.477967 0.15784
0.112322 -0.478972 0.154538
0.116829 -0.48047 0.14913
0.121318 -0.480814 0.146027
0.125492 -0.482094 0.142955
0.13052 -0.483535 0.136431
0.134686 -0.484774 0.131615
0.139278 -0.485927 0.126059
0.1441 -0.48847 0.117568
-0.236874 -0.47386 0.157127
-0.230042 -0.468397 0.177804
-0.224336 -0.465417 0.18913
-0.219496 -0.463801 0.195606
-0.215278 -0.462701 0.201139
-0.210646 -0.461373 0.203623
-0.206275 -0.461141 0.206314
-0.202006 -0.460606 0.207197
-0.198088 -0.460683 0.208583
-0.193982 -0.460849 0.208792
-0.190035 -0.460433 0.208409
-0.185245 -0.460421 0.21015
-0.181812 -0.459992 0.210915
-0.177434 -0.459847 0.211055
-0.173368 -0.459823 0.212175
-0.169582 -0.459549 0.212235
-0.165347 -0.459703 0.212386
-0.160755 -0.459894 0.211903
-0.157247 -0.45916 0.212596
-0.153541 -0.459546 0.213387
-0.149338 -0.4593 0.214247
-0.14502 -0.459128 0.213586
-0.14094 -0.459024 0.214405
-0.137038 -0.4591 0.214214
-0.132516 -0.458903 0.214427
-0.128534 -0.458946 0.214576
-0.12529 -0.458932 0.214536
-0.120821 -0.459352 0.214404
-0.116555 -0.458724 0.215793
-0.113067 -0.459027 0.214649
-0.108477 -0.45899 0.214991
-0.104739 -0.458758 0.21516
-0.100531 -0.459232 0.214907
-0.0966814 -0.458579 0.214552
-0.0926371 -0.458629 0.214737
-0.0890994 -0.458923 0.214451
-0.0846929 -0.458678 0.214313
-0.080479 -0.45928 0.213398
-0.0768041 -0.459485 0.213367
-0.07251 -0.459467 0.213433
-0.068688 -0.459438 0.212979
-0.0645474 -0.46 0.211229
-0.0603699 -0.460253 0.210607
-0.0565574 -0.460331 0.210141
-0.0529461 -0.460345 0.209847
-0.0484884 -0.460572 0.209396
-0.0445351 -0.45974 0.210197
-0.0401396 -0.460306 0.209029
-0.0365934 -0.460895 0.207518
-0.0322345 -0.460769 0.207484
-0.028444 -0.460898 0.207052
-0.0241223 -0.460976 0.206414
-0.0200768 -0.461352 0.205433
-0.0163729 -0.461251 0.205048
-0.0119125 -0.461792 0.203973
-0.00822025 -0.46198 0.203463
-0.00393863 -0.462207 0.202119
-1.67272e-05 -0.462645 0.201054
0.00377882 -0.462568 0.200759
0.00790461 -0.463205 0.19926
0.0124719 -0.463439 0.19848
0.016361 -0.463136 0.197353
0.0202414 -0.464081 0.195144
0.0243348 -0.463947 0.195029
0.0282183 -0.464231 0.193627
0.0324463 -0.465182 0.191657
0.0365206 -0.465055 0.190996
0.0406792 -0.465472 0.189716
0.0448492 -0.465297 0.188914
0.0492032 -0.4656 0.188383
0.0527778 -0.46613 0.186163
0.0575185 -0.466469 0.185245
0.0612897 -0.467324 0.182651
0.0653071 -0.467361 0.182374
0.0696811 -0.46828 0.17991
0.073761 -0.468398 0.177922
0.0779122 -0.469251 0.17539
0.0825756 -0.469877 0.172971
0.0866806 -0.470709 0.170614
0.0905697 -0.470813 0.168735
0.0950816 -0.471223 0.167135
0.0999249 -0.471879 0.164902
0.104048 -0.472829 0.161284
0.107745 -0.473562 0.159713
0.112492 -0.473829 0.156037
0.116652 -0.474555 0.153637
0.121271 -0.475749 0.149882
0.125455 -0.477044 0.14612
0.129844 -0.477521 0.142414
0.13425 -0.478628 0.137936
0.13886 -0.480568 0.131739
0.143514 -0.4813 0.127686
0.147899 -0.483004 0.122025
0.153353 -0.484714 0.113936
0.15808 -0.486384 0.106511
-0.236768 -0.46939 0.158402
-0.230122 -0.464286 0.177049
-0.22507 -0.461984 0.186469
-0.219715 -0.460244 0.194858
-0.214936 -0.458387 0.200331
-0.210847 -0.457989 0.20338
-0.206422 -0.457001 0.205021
-0.202422 -0.457387 0.205976
-0.197688 -0.456604 0.208798
-0.193344 -0.456404 0.208785
-0.189459 -0.456486 0.209315
-0.185981 -0.456501 0.209327
-0.181932 -0.456081 0.211032
-0.177209 -0.45594 0.21127
-0.17402 -0.455931 0.211184
-0.169502 -0.455978 0.211889
-0.165098 -0.455868 0.21207
-0.161342 -0.45514 0.213606
-0.157 -0.45536 0.21301
-0.152783 -0.455513 0.213341
-0.149087 -0.45546 0.213011
-0.145185 -0.45528 0.214013
-0.141491 -0.45515 0.213737
-0.13704 -0.455024 0.214914
-0.132952 -0.454836 0.214544
-0.128751 -0.454578 0.215518
-0.125141 -0.45478 0.214992
-0.120718 -0.45508 0.21502
-0.116799 -0.455072 0.215176
-0.112694 -0.455383 0.214949
-0.108796 -0.454877 0.214781
-0.105092 -0.454814 0.21484
-0.100864 -0.455291 0.214521
-0.096774 -0.455109 0.214825
-0.0927198 -0.455019 0.213973
-0.0883577 -0.454882 0.214565
-0.0843253 -0.454937 0.214298
-0.0804755 -0.455369 0.214037
-0.0764917 -0.455189 0.212853
-0.0723272 -0.455143 0.213163
-0.0683419 -0.455702 0.212676
-0.0646531 -0.455652 0.212216
-0.0602225 -0.455796 0.211375
-0.0563836 -0.45573 0.211425
-0.052511 -0.456425 0.210363
-0.0485099 -0.456079 0.209955
-0.0447628 -0.456261 0.209232
-0.0407761 -0.456006 0.209044
-0.0364355 -0.456554 0.208359
-0.0320791 -0.456712 0.208014
-0.0282939 -0.456832 0.206717
-0.0243745 -0.45691 0.20637
-0.0207316 -0.457656 0.204528
-0.0162321 -0.457398 0.205885
-0.0120756 -0.457741 0.203729
-0.00812599 -0.45783 0.203376
-0.00385395 -0.458156 0.202233
0.000204337 -0.458572 0.201363
0.00416796 -0.45891 0.199806
0.00825239 -0.458733 0.200145
0.0123262 -0.459396 0.198551
0.0162239 -0.459549 0.196741
0.0202151 -0.459136 0.196971
0.0244804 -0.459975 0.19503
0.0285611 -0.45992 0.194136
0.0326576 -0.460504 0.193397
0.0368914 -0.461276 0.190586
0.0409233 -0.461489 0.190488
0.0448755 -0.461521 0.189047
0.0486328 -0.462097 0.187892
0.0528367 -0.462208 0.187193
0.0573355 -0.462511 0.18555
0.0614091 -0.462709 0.184916
0.065557 -0.463035 0.182764
0.0700642 -0.463852 0.180096
0.0740163 -0.464175 0.178643
0.0779867 -0.464656 0.175571
0.0818773 -0.465132 0.174395
0.0865253 -0.465948 0.171763
0.0902863 -0.46683 0.169633
0.094787 -0.466895 0.168235
0.0995285 -0.467833 0.164776
0.103651 -0.468342 0.162806
0.107768 -0.468401 0.161015
0.112063 -0.468648 0.158191
0.116552 -0.469877 0.155228
0.120685 -0.470953 0.151943
0.125182 -0.471828 0.147793
0.129599 -0.472415 0.1454
0.133969 -0.473717 0.140567
0.138528 -0.475095 0.136586
0.143453 -0.476231 0.131706
0.147626 -0.477206 0.126893
0.152234 -0.478533 0.121425
0.157645 -0.480559 0.114083
0.161729 -0.482879 0.106238
0.167819 -0.48594 0.0935965
-0.236933 -0.465213 0.158464
-0.230656 -0.461411 0.174578
-0.22503 -0.458349 0.186158
-0.220362 -0.456234 0.193214
-0.215 -0.455072 0.19932
-0.211062 -0.45374 0.201837
-0.206508 -0.453479 0.203876
-0.202428 -0.453354 0.206174
-0.198179 -0.453116 0.207011
-0.194093 -0.452446 0.208111
-0.190125 -0.452468 0.208921
-0.18524 -0.452042 0.210104
-0.182007 -0.451971 0.210005
-0.177677 -0.452236 0.21075
-0.172962 -0.451851 0.211087
-0.169302 -0.451894 0.211505
-0.165291 -0.451969 0.211999
-0.160891 -0.451507 0.212156
-0.157664 -0.451189 0.212388
-0.152895 -0.451265 0.213321
-0.149106 -0.450715 0.213533
-0.145183 -0.451495 0.213293
-0.141022 -0.450925 0.214502
-0.136829 -0.451436 0.214123
-0.13251 -0.451062 0.214568
-0.128908 -0.450846 0.214772
-0.124954 -0.451119 0.214558
-0.120824 -0.450718 0.215577
-0.116761 -0.45075 0.214314
-0.112601 -0.450782 0.215351
-0.108807 -0.450444 0.215237
-0.104544 -0.450783 0.215074
-0.100668 -0.451012 0.215082
-0.0965131 -0.450554 0.215715
-0.0923657 -0.451153 0.214208
-0.0885094 -0.450997 0.214351
-0.084509 -0.451406 0.213889
-0.0805378 -0.451195 0.213591
-0.076576 -0.451156 0.21373
-0.0723719 -0.451421 0.212552
-0.0685348 -0.451432 0.212095
-0.0645559 -0.451493 0.211447
-0.0601099 -0.451927 0.211675
-0.056313 -0.452223 0.210381
-0.0524036 -0.451905 0.210561
-0.0488593 -0.45191 0.211133
-0.0443664 -0.453111 0.208902
-0.0402092 -0.452398 0.209074
-0.0361811 -0.452845 0.207664
-0.0320871 -0.45273 0.207378
-0.0281147 -0.452961 0.207317
-0.0241077 -0.452704 0.206509
-0.0204774 -0.453148 0.20621
-0.0164283 -0.45316 0.205992
-0.0123594 -0.453512 0.204703
-0.00779859 -0.453709 0.204
-0.00446731 -0.453984 0.203265
0.000289065 -0.454047 0.202484
0.00443223 -0.454773 0.201158
0.00806247 -0.454825 0.199432
0.0123514 -0.454839 0.198826
0.0160089 -0.455169 0.197751
0.0203864 -0.455845 0.196482
0.0242305 -0.455958 0.195374
0.0282413 -0.45641 0.194458
0.0328951 -0.456511 0.193124
0.0367971 -0.456701 0.191736
0.0406251 -0.457129 0.191195
0.0446937 -0.456951 0.19103
0.0489643 -0.457551 0.188033
0.053084 -0.458028 0.186983
0.0575247 -0.458112 0.185873
0.0614209 -0.458513 0.183628
0.0656274 -0.459186 0.182079
0.0694627 -0.459448 0.180594
0.0740355 -0.45982 0.179376
0.078048 -0.460576 0.176567
0.0822902 -0.460922 0.174735
0.0865113 -0.461475 0.173071
0.0907122 -0.46202 0.170918
0.0950359 -0.462477 0.168525
0.0991681 -0.462644 0.166493
0.103583 -0.463906 0.164108
0.107651 -0.464148 0.161985
0.111869 -0.465089 0.158583
0.11661 -0.465734 0.156315
0.121141 -0.466447 0.153447
0.125092 -0.467193 0.1503
0.130015 -0.468414 0.145629
0.134449 -0.468797 0.142913
0.138829 -0.470655 0.138255
0.14312 -0.47166 0.133502
0.147655 -0.472482 0.128581
0.15228 -0.473409 0.124821
0.156825 -0.475322 0.118035
0.162188 -0.477335 0.111115
0.166935 -0.479449 0.102378
0.171731 -0.481967 0.0926934
-0.243652 -0.466781 0.135195
-0.236802 -0.461204 0.157547
-0.23107 -0.457305 0.17263
-0.225162 -0.454811 0.183979
-0.220283 -0.452456 0.192071
-0.215596 -0.451381 0.196991
-0.211 -0.450189 0.20095
-0.206653 -0.449927 0.20333
-0.202322 -0.449314 0.20531
-0.19798 -0.448827 0.207093
-0.194052 -0.448951 0.207467
-0.190229 -0.44879 0.208824
-0.185362 -0.447802 0.210022
-0.18177 -0.448151 0.20874
-0.177866 -0.448124 0.210335
-0.173548 -0.447729 0.211156
-0.169381 -0.44799 0.211146
-0.16562 -0.447511 0.211378
-0.161249 -0.447489 0.212136
-0.157266 -0.447851 0.212333
-0.152936 -0.447724 0.212176
-0.149418 -0.447553 0.213128
-0.145231 -0.44726 0.21377
-0.141068 -0.447545 0.212821
-0.136849 -0.447202 0.214758
-0.132645 -0.447094 0.213795
-0.128765 -0.447008 0.214299
-0.125209 -0.447394 0.213704
-0.120783 -0.446937 0.215247
-0.116639 -0.446915 0.214529
-0.112584 -0.44714 0.214753
-0.108437 -0.44691 0.21504
-0.10479 -0.446957 0.214693
-0.100677 -0.447025 0.214832
-0.0963122 -0.447121 0.214052
-0.0926163 -0.446882 0.214128
-0.0884064 -0.446872 0.214838
-0.0847968 -0.447208 0.214343
-0.0805162 -0.447476 0.213542
-0.0763981 -0.447028 0.213682
-0.0725276 -0.447546 0.212665
-0.0686515 -0.447406 0.21348
-0.0648023 -0.44715 0.212655
-0.0610929 -0.447506 0.211703
-0.0566386 -0.447831 0.211419
-0.0524975 -0.447939 0.211156
-0.0486135 -0.448321 0.209915
-0.0441735 -0.448318 0.209478
-0.0401132 -0.448612 0.208385
-0.0362223 -0.448422 0.208424
-0.0324234 -0.448469 0.207736
-0.0282037 -0.448321 0.207489
-0.024393 -0.449368 0.206021
-0.0204399 -0.449141 0.204678
-0.016271 -0.449084 0.205462
-0.0119713 -0.449361 0.205006
-0.00763419 -0.449521 0.203287
-0.0037748 -0.449758 0.203183
-0.000523144 -0.450187 0.201453
0.00386777 -0.4507 0.20039
0.00825244 -0.450802 0.19915
0.0122401 -0.450984 0.198713
0.0162123 -0.451025 0.198118
0.0204824 -0.45161 0.196662
0.0242362 -0.45153 0.195372
0.0285459 -0.451535 0.195164
0.0323192 -0.452135 0.194024
0.0369204 -0.452757 0.191176
0.0408671 -0.452749 0.190439
0.0450391 -0.453568 0.189154
0.0490809 -0.4535 0.188927
0.0530668 -0.453648 0.187968
0.0570797 -0.453459 0.186709
0.0618286 -0.45447 0.184157
0.0655339 -0.455133 0.183302
0.0695823 -0.455245 0.181478
0.073986 -0.455273 0.17991
0.0777102 -0.456128 0.178337
0.0819582 -0.456413 0.176139
0.0862172 -0.457218 0.1731
0.0907734 -0.45757 0.171246
0.0950976 -0.458417 0.169182
0.0992514 -0.458859 0.167061
0.103372 -0.459198 0.165389
0.107431 -0.460083 0.162689
0.112246 -0.461152 0.159931
0.116545 -0.461564 0.156828
0.120902 -0.461811 0.154515
0.125129 -0.462818 0.151254
0.129504 -0.46321 0.148167
0.134031 -0.464335 0.14383
0.138439 -0.465236 0.139813
0.14307 -0.466705 0.135256
0.147863 -0.468358 0.130485
0.152061 -0.469082 0.125137
0.156846 -0.470183 0.120759
0.161952 -0.472215 0.114018
0.166743 -0.474109 0.106173
0.171748 -0.476278 0.0980184
0.177142 -0.479438 0.0852578
-0.244245 -0.463103 0.133148
-0.237037 -0.457621 0.155596
-0.231408 -0.454302 0.169744
-0.225057 -0.450431 0.183398
-0.22086 -0.449039 0.189644
-0.215535 -0.447481 0.195842
-0.211036 -0.446407 0.200398
-0.206569 -0.445841 0.202468
-0.202769 -0.444938 0.205371
-0.198234 -0.44493 0.205484
-0.194484 -0.444787 0.206793
-0.189889 -0.444598 0.20775
-0.185922 -0.444358 0.208328
-0.181722 -0.44399 0.209487
-0.17768 -0.443824 0.210139
-0.17338 -0.443493 0.210931
-0.169493 -0.443771 0.211052
-0.16543 -0.443554 0.21187
-0.16131 -0.443385 0.213143
-0.157206 -0.443752 0.212096
-0.152766 -0.443191 0.212862
-0.149557 -0.443297 0.213205
-0.144902 -0.443451 0.212696
-0.140701 -0.443338 0.213545
-0.136677 -0.44298 0.213753
-0.132631 -0.443482 0.213736
-0.12893 -0.44316 0.21466
-0.124823 -0.442939 0.214216
-0.120688 -0.443157 0.214051
-0.116838 -0.44321 0.214371
-0.112672 -0.442906 0.214529
-0.108871 -0.442642 0.214815
-0.104438 -0.44289 0.214496
-0.100989 -0.442564 0.216368
-0.0965693 -0.442968 0.215113
-0.0925509 -0.442887 0.214906
-0.0885436 -0.443004 0.214105
-0.0846115 -0.443375 0.214197
-0.080745 -0.443451 0.213973
-0.0763229 -0.443094 0.213175
-0.0725098 -0.443067 0.212783
-0.0686075 -0.44358 0.211682
-0.0647803 -0.443487 0.211905
-0.0605808 -0.443715 0.212065
-0.0560184 -0.443944 0.210961
-0.0524881 -0.443947 0.210919
-0.0483878 -0.444089 0.210497
-0.0443204 -0.443968 0.209982
-0.0401955 -0.444233 0.208927
-0.0362099 -0.444814 0.208069
-0.0321611 -0.445011 0.207421
-0.0283289 -0.444475 0.207262
-0.0243706 -0.445306 0.205449
-0.0200928 -0.445246 0.205606
-0.0158996 -0.444756 0.205991
-0.0122195 -0.44556 0.204733
-0.00811261 -0.445674 0.203349
-0.00407384 -0.445335 0.203364
-0.000252279 -0.446334 0.201977
0.00421461 -0.446782 0.200411
0.00806749 -0.446253 0.200612
0.0125355 -0.446661 0.199419
0.0162863 -0.447203 0.197847
0.0204407 -0.44706 0.196716
0.0245051 -0.447278 0.196334
0.0287077 -0.447877 0.194961
0.0326241 -0.448321 0.19376
0.036802 -0.448479 0.191483
0.0410275 -0.448717 0.190727
0.0449353 -0.4496 0.191253
0.0485873 -0.44921 0.187961
0.0532444 -0.449576 0.187865
0.0572956 -0.449883 0.185843
0.06166 -0.450577 0.184494
0.0653032 -0.450713 0.183014
0.0701156 -0.450917 0.181498
0.0737203 -0.450914 0.180407
0.0785961 -0.452171 0.177598
0.0824818 -0.45262 0.17598
0.0867146 -0.453075 0.174284
0.0908654 -0.453584 0.171386
0.0950209 -0.454358 0.169475
0.0990365 -0.454592 0.167675
0.103235 -0.454683 0.165724
0.107888 -0.455702 0.163409
0.112215 -0.456588 0.160543
0.116339 -0.457217 0.15793
0.12084 -0.457796 0.155604
0.125066 -0.458643 0.152553
0.129357 -0.458782 0.149371
0.133767 -0.460246 0.144018
0.138768 -0.461377 0.140107
0.142908 -0.462343 0.136395
0.147498 -0.46309 0.133034
0.152099 -0.464763 0.126997
0.156697 -0.465949 0.122226
0.161576 -0.467799 0.114908
0.166777 -0.469405 0.108438
0.171076 -0.471218 0.100874
0.176666 -0.473348 0.0906932
0.182282 -0.477612 0.074854
-0.244959 -0.45982 0.129247
-0.236645 -0.453182 0.155562
-0.231157 -0.450124 0.168787
-0.225509 -0.447024 0.181499
-0.221259 -0.445462 0.187091
-0.215416 -0.44392 0.194527
-0.211155 -0.442812 0.199204
-0.207091 -0.441742 0.202233
-0.20242 -0.441384 0.204554
-0.197914 -0.441092 0.206172
-0.194656 -0.44092 0.206331
-0.190041 -0.440584 0.206785
-0.185831 -0.440793 0.208522
-0.18198 -0.440066 0.209615
-0.177572 -0.440335 0.209055
-0.173747 -0.439601 0.210243
-0.16932 -0.439988 0.209906
-0.165459 -0.439728 0.210768
-0.161116 -0.439937 0.211833
-0.157319 -0.43985 0.211326
-0.153639 -0.439416 0.212274
-0.149101 -0.439529 0.21303
-0.144955 -0.43927 0.212864
-0.141054 -0.439041 0.213994
-0.136674 -0.439088 0.214029
-0.132893 -0.439056 0.213589
-0.129071 -0.439349 0.213925
-0.124221 -0.438982 0.214752
-0.120782 -0.438701 0.215508
-0.116607 -0.438576 0.214884
-0.113029 -0.438883 0.215169
-0.109003 -0.438852 0.214579
-0.104742 -0.439158 0.214359
-0.100563 -0.438729 0.214826
-0.0966201 -0.43912 0.214642
-0.0926884 -0.439036 0.214655
-0.0886928 -0.439162 0.213989
-0.0849554 -0.439465 0.213927
-0.0805355 -0.438818 0.213695
-0.0764601 -0.439279 0.213571
-0.072782 -0.439501 0.21233
-0.0682808 -0.439542 0.212316
-0.0642888 -0.439439 0.212022
-0.0601511 -0.439362 0.212313
-0.0563087 -0.43985 0.211162
-0.052636 -0.439611 0.210284
-0.0485665 -0.439945 0.210159
-0.0441914 -0.440299 0.209971
-0.0404586 -0.440247 0.209189
-0.0363167 -0.440083 0.208951
-0.0324387 -0.440802 0.207183
-0.0284153 -0.440588 0.207003
-0.0240166 -0.440765 0.206066
-0.0202498 -0.440818 0.205096
-0.0162236 -0.441395 0.204597
-0.0119716 -0.441871 0.203744
-0.00819239 -0.441871 0.203233
-0.00381685 -0.441772 0.201636
0.000236643 -0.441958 0.201894
0.00422277 -0.442105 0.201231
0.0082421 -0.44259 0.19986
0.0122471 -0.442618 0.199608
0.0160564 -0.443122 0.198431
0.020123 -0.443249 0.197042
0.0244262 -0.443681 0.195967
0.0285308 -0.443701 0.194497
0.032711 -0.444185 0.192799
0.0366402 -0.444716 0.192064
0.0405938 -0.444978 0.190063
0.0451493 -0.445043 0.190661
0.0491006 -0.445403 0.188445
0.0530238 -0.445605 0.187738
0.0573826 -0.445727 0.18604
0.0614737 -0.446009 0.184926
0.0661321 -0.447028 0.18254
0.0697592 -0.447081 0.182109
0.0740738 -0.447302 0.180296
0.077964 -0.447646 0.178292
0.0818222 -0.447852 0.177174
0.0867938 -0.448892 0.173574
0.0909088 -0.449387 0.171841
0.094982 -0.450084 0.170342
0.099639 -0.450277 0.167501
0.10321 -0.450551 0.165773
0.107995 -0.451523 0.163556
0.11192 -0.451783 0.161196
0.116171 -0.452704 0.158786
0.1205 -0.453052 0.156188
0.125334 -0.454403 0.151855
0.128933 -0.454686 0.150319
0.133612 -0.4558 0.145378
0.138542 -0.456378 0.141944
0.142563 -0.457976 0.13705
0.147365 -0.459386 0.132255
0.151539 -0.460007 0.128176
0.156485 -0.461213 0.122961
0.161485 -0.463074 0.116127
0.165957 -0.464539 0.110354
0.17109 -0.466388 0.102941
0.176125 -0.468848 0.0930337
0.182106 -0.471706 0.0800836
0.190945 -0.483395 0.0333736
0.196603 -0.488228 0.0139451
-0.244782 -0.455995 0.128887
-0.237491 -0.450189 0.150998
-0.231184 -0.446644 0.167151
-0.225978 -0.443926 0.177171
-0.221109 -0.441297 0.186083
-0.216073 -0.439981 0.192538
-0.211194 -0.438624 0.197941
-0.207137 -0.438531 0.200117
-0.202745 -0.437598 0.202175
-0.198239 -0.437664 0.204883
-0.194401 -0.437163 0.205666
-0.190292 -0.437039 0.205987
-0.186161 -0.436704 0.207379
-0.181795 -0.436185 0.208561
-0.177961 -0.435875 0.209552
-0.1733 -0.435903 0.209705
-0.169276 -0.435794 0.210968
-0.16518 -0.436116 0.211255
-0.161663 -0.43558 0.210855
-0.157076 -0.435932 0.211869
-0.153094 -0.435334 0.212572
-0.149163 -0.435636 0.211393
-0.145439 -0.435371 0.212452
-0.141014 -0.435567 0.213165
-0.137111 -0.435533 0.213044
-0.132906 -0.43507 0.213493
-0.128788 -0.435112 0.213712
-0.124772 -0.434757 0.214187
-0.120818 -0.434861 0.213514
-0.116573 -0.435297 0.213675
-0.112693 -0.43485 0.214077
-0.108521 -0.43494 0.214404
-0.104987 -0.435164 0.214208
-0.100471 -0.434867 0.215209
-0.0965086 -0.434911 0.214487
-0.0925777 -0.434696 0.214721
-0.088595 -0.434836 0.214488
-0.0844279 -0.435309 0.213402
-0.080012 -0.435221 0.21354
-0.0764626 -0.434725 0.214283
-0.0728585 -0.435228 0.213208
-0.0685697 -0.43563 0.21239
-0.0643474 -0.43552 0.212402
-0.0604694 -0.43545 0.211601
-0.0567301 -0.43612 0.211066
-0.0522699 -0.435986 0.209778
-0.0482259 -0.436319 0.209544
-0.0442562 -0.435974 0.209845
-0.0405262 -0.436031 0.208418
-0.0365712 -0.436499 0.207415
-0.0320712 -0.436676 0.207359
-0.0283262 -0.437097 0.206676
-0.0247328 -0.43677 0.205884
-0.020346 -0.436725 0.205241
-0.0164734 -0.436663 0.205731
-0.0120532 -0.437236 0.203681
-0.00849078 -0.437413 0.203998
-0.00425646 -0.438077 0.202034
-1.07231e-06 -0.438245 0.200969
0.00410462 -0.437835 0.201041
0.0079095 -0.438167 0.20059
0.0122385 -0.438323 0.200141
0.016021 -0.438989 0.198454
0.0205184 -0.439664 0.196495
0.0242715 -0.439749 0.195973
0.0287026 -0.439745 0.194413
0.0328964 -0.439535 0.194224
0.0365285 -0.439939 0.193951
0.0408666 -0.440275 0.191663
0.0447165 -0.441007 0.190117
0.0491149 -0.440918 0.189624
0.0530957 -0.441487 0.18802
0.0574118 -0.441572 0.187043
0.0610769 -0.441902 0.185471
0.0655552 -0.442102 0.184289
0.0700596 -0.44293 0.181692
0.0736849 -0.442663 0.180911
0.0779722 -0.443181 0.179511
0.082116 -0.443779 0.17673
0.0863089 -0.444662 0.174482
0.0907075 -0.445051 0.173011
0.0946737 -0.445749 0.170352
0.0993583 -0.445748 0.168498
0.103232 -0.446477 0.166379
0.107425 -0.447451 0.164393
0.11224 -0.447793 0.162812
0.115994 -0.448238 0.159264
0.120596 -0.448875 0.156048
0.125108 -0.449902 0.153497
0.129314 -0.450213 0.150889
0.133948 -0.451696 0.145825
0.13806 -0.452414 0.141909
0.142629 -0.453665 0.137625
0.147414 -0.454669 0.132982
0.151992 -0.456055 0.128428
0.156735 -0.457655 0.122731
0.161225 -0.458216 0.117773
0.165759 -0.459819 0.111453
0.170898 -0.461694 0.104104
0.176397 -0.464237 0.0944294
0.181699 -0.466733 0.0833101
0.189963 -0.476032 0.0454943
0.195415 -0.478599 0.0344489
0.201956 -0.485098 0.00901711
-0.245453 -0.452768 0.124369
-0.237902 -0.446736 0.148031
-0.232331 -0.443615 0.162929
-0.226469 -0.440035 0.175038
-0.221384 -0.438752 0.182813
-0.215855 -0.436686 0.191304
-0.211331 -0.435358 0.196166
-0.207191 -0.434752 0.199899
-0.2028 -0.433781 0.202171
-0.198539 -0.43378 0.202797
-0.194429 -0.432959 0.205025
-0.190045 -0.432952 0.206527
-0.186173 -0.432662 0.207316
-0.181823 -0.432313 0.207888
-0.177554 -0.43238 0.208258
-0.173404 -0.431957 0.209587
-0.169389 -0.431787 0.210428
-0.16542 -0.431831 0.210584
-0.161566 -0.4316 0.210265
-0.1572 -0.431581 0.211803
-0.152985 -0.431066 0.212177
-0.14969 -0.431388 0.212359
-0.145131 -0.431143 0.211969
-0.141084 -0.431199 0.212455
-0.136986 -0.431015 0.213537
-0.132957 -0.43138 0.212742
-0.129411 -0.431121 0.213368
-0.125097 -0.43112 0.212807
-0.120729 -0.430919 0.213573
-0.117089 -0.431257 0.213404
-0.113033 -0.430648 0.213713
-0.108601 -0.430817 0.214168
-0.104628 -0.430786 0.214461
-0.100955 -0.430803 0.214239
-0.0964894 -0.43115 0.212868
-0.0924267 -0.430999 0.214328
-0.088691 -0.431108 0.213606
-0.0848243 -0.43113 0.213657
-0.0805151 -0.431383 0.213239
-0.0762645 -0.43114 0.213215
-0.0727902 -0.431783 0.212745
-0.0682641 -0.431575 0.212124
-0.0650294 -0.431489 0.210565
-0.0605442 -0.43146 0.211546
-0.0564751 -0.431934 0.21045
-0.0526899 -0.431901 0.210091
-0.0485582 -0.431836 0.210465
-0.0446371 -0.432033 0.209085
-0.0404916 -0.432605 0.207747
-0.0362378 -0.432454 0.207659
-0.0320827 -0.432328 0.208039
-0.0280691 -0.432584 0.207
-0.0244753 -0.432758 0.205392
-0.0199441 -0.433515 0.20463
-0.0161166 -0.433342 0.204377
-0.0121967 -0.433424 0.203175
-0.00781047 -0.43363 0.203188
-0.00415026 -0.433788 0.202917
0.000126883 -0.434129 0.202074
0.00384016 -0.433973 0.20126
0.00824168 -0.433959 0.201545
0.0121233 -0.434589 0.19947
0.016781 -0.435151 0.19859
0.0205648 -0.435171 0.197199
0.0243565 -0.435428 0.19581
0.0286134 -0.435208 0.195926
0.0324873 -0.436225 0.193571
0.0368498 -0.436445 0.192543
0.0407211 -0.43637 0.192397
0.0447762 -0.43633 0.191514
0.0493143 -0.436907 0.189545
0.0530886 -0.437172 0.188433
0.0570335 -0.437206 0.188933
0.0611412 -0.437918 0.185675
0.0654808 -0.437653 0.186154
0.0695821 -0.43844 0.183117
0.0736276 -0.438788 0.182031
0.0781454 -0.439754 0.179146
0.0821143 -0.439676 0.178104
0.086553 -0.440224 0.175805
0.0904944 -0.440184 0.174506
0.0948925 -0.441176 0.171578
0.0992402 -0.441186 0.169244
0.103232 -0.44242 0.167883
0.107565 -0.443089 0.164614
0.112084 -0.443297 0.162506
0.11628 -0.44434 0.159233
0.120797 -0.444646 0.158061
0.125227 -0.445019 0.155041
0.129153 -0.446079 0.151714
0.133534 -0.447198 0.147558
0.138447 -0.448437 0.142088
0.142531 -0.44897 0.139081
0.147231 -0.449944 0.133991
0.151805 -0.451286 0.129107
0.156398 -0.453071 0.123129
0.161426 -0.454228 0.118114
0.166546 -0.456436 0.111171
0.17114 -0.457287 0.104697
0.176195 -0.459882 0.0948085
0.181129 -0.461624 0.0864445
0.188546 -0.468691 0.0575522
0.194818 -0.472249 0.0414753
0.199525 -0.47507 0.0330101
-0.246409 -0.45007 0.11615
-0.23799 -0.443289 0.145424
-0.232415 -0.440179 0.159646
-0.226632 -0.436969 0.171802
-0.221572 -0.434898 0.18081
-0.216615 -0.432435 0.1891
-0.211686 -0.431389 0.194519
-0.207355 -0.430784 0.198069
-0.20241 -0.430373 0.201184
-0.198703 -0.42961 0.202889
-0.194202 -0.42947 0.20417
-0.190251 -0.4293 0.204684
-0.185589 -0.428892 0.206329
-0.181754 -0.428545 0.206666
-0.17801 -0.428692 0.207973
-0.173973 -0.42817 0.208765
-0.169464 -0.427772 0.20998
-0.165735 -0.427785 0.210912
-0.161353 -0.428002 0.210184
-0.15707 -0.427386 0.211383
-0.152823 -0.427121 0.211657
-0.148879 -0.427104 0.212765
-0.145227 -0.427554 0.211811
-0.140918 -0.42735 0.211516
-0.137216 -0.427398 0.212456
-0.133306 -0.427386 0.212471
-0.129238 -0.427274 0.212605
-0.124856 -0.426983 0.213253
-0.120735 -0.427297 0.213036
-0.116719 -0.427304 0.21296
-0.112759 -0.426559 0.214136
-0.108743 -0.426828 0.214237
-0.104643 -0.427352 0.214263
-0.100973 -0.427048 0.212865
-0.09677 -0.426585 0.214546
-0.0928138 -0.426968 0.213893
-0.0888783 -0.427132 0.213476
-0.0844628 -0.42685 0.213844
-0.0803974 -0.427194 0.213199
-0.0769398 -0.427542 0.212737
-0.0726472 -0.427222 0.213002
-0.06826 -0.427259 0.211794
-0.064434 -0.427517 0.212138
-0.0604447 -0.427748 0.210838
-0.0564598 -0.42767 0.21036
-0.052379 -0.427827 0.210705
-0.0485357 -0.428515 0.209595
-0.0444015 -0.428391 0.20858
-0.0407361 -0.428585 0.207834
-0.0360304 -0.428082 0.208007
-0.0325218 -0.428555 0.207574
-0.0281666 -0.428682 0.207105
-0.0241345 -0.428685 0.206189
-0.0204396 -0.429023 0.204801
-0.0163621 -0.429001 0.204402
-0.0122718 -0.428754 0.203901
-0.00814427 -0.429432 0.2035
-0.00383485 -0.429761 0.202645
-0.000137447 -0.430121 0.201262
0.00380083 -0.429863 0.201709
0.00814521 -0.430308 0.200405
0.0121412 -0.430124 0.199897
0.0162746 -0.430786 0.198647
0.0199374 -0.43059 0.199247
0.0242523 -0.430577 0.197435
0.0287949 -0.430773 0.197123
0.0326519 -0.431188 0.195718
0.0369509 -0.431462 0.194457
0.0410741 -0.432142 0.192246
0.0448192 -0.432392 0.192416
0.0489591 -0.43234 0.190804
0.0528486 -0.432794 0.190091
0.0569879 -0.43287 0.188865
0.061488 -0.433679 0.186157
0.0653324 -0.433509 0.186126
0.0693766 -0.434041 0.183819
0.0731921 -0.434557 0.182938
0.0779488 -0.434957 0.180098
0.0822977 -0.435459 0.177999
0.0862152 -0.435835 0.177052
0.0904875 -0.436511 0.174479
0.0946803 -0.437011 0.171914
0.0986832 -0.437128 0.170923
0.103202 -0.437725 0.168905
0.107203 -0.438807 0.165699
0.111692 -0.438721 0.163973
0.11635 -0.439547 0.161555
0.120359 -0.439537 0.159296
0.125216 -0.44104 0.155698
0.129262 -0.441895 0.152116
0.13408 -0.442544 0.14863
0.138613 -0.443173 0.144154
0.142596 -0.445107 0.139576
0.147182 -0.44612 0.134936
0.151726 -0.447247 0.130592
0.155924 -0.448167 0.125854
0.16116 -0.449788 0.118845
0.166137 -0.451006 0.113193
0.17085 -0.453216 0.105475
0.176015 -0.454834 0.097136
0.180915 -0.456811 0.0883731
0.186949 -0.461219 0.0710714
0.193757 -0.466877 0.0475374
0.198985 -0.468359 0.0409455
0.204279 -0.471535 0.0281128
-0.238914 -0.440238 0.140288
-0.232741 -0.43697 0.156767
-0.227516 -0.434164 0.167173
-0.221725 -0.431564 0.179042
-0.216285 -0.429061 0.188075
-0.211994 -0.428005 0.191685
-0.207726 -0.427086 0.196234
-0.203209 -0.426392 0.199431
-0.199004 -0.425793 0.200564
-0.194633 -0.425714 0.203185
-0.190231 -0.424811 0.204667
-0.186158 -0.424938 0.205961
-0.181805 -0.424662 0.207121
-0.178265 -0.42458 0.207239
-0.173913 -0.424074 0.208575
-0.169676 -0.424326 0.209216
-0.165618 -0.423798 0.209409
-0.161523 -0.424149 0.210099
-0.157424 -0.423942 0.210638
-0.153169 -0.423064 0.211331
-0.149479 -0.423472 0.211517
-0.145235 -0.423546 0.212361
-0.141165 -0.423211 0.211863
-0.137099 -0.423223 0.213017
-0.133107 -0.423407 0.212928
-0.129117 -0.423412 0.21252
-0.124705 -0.423131 0.212635
-0.120983 -0.423061 0.213097
-0.11698 -0.423092 0.213614
-0.112823 -0.423224 0.213258
-0.109064 -0.423069 0.214186
-0.105027 -0.42314 0.213603
-0.100641 -0.423189 0.213517
-0.096807 -0.422865 0.213203
-0.0929899 -0.422869 0.214228
-0.0885444 -0.423136 0.213753
-0.0845603 -0.423348 0.21338
-0.0808132 -0.422898 0.21303
-0.0768944 -0.423154 0.213292
-0.0725371 -0.423308 0.212272
-0.068409 -0.423455 0.211886
-0.0646196 -0.423333 0.211433
-0.0603758 -0.423922 0.210799
-0.0564727 -0.423277 0.211329
-0.0526188 -0.423929 0.210135
-0.0486243 -0.424359 0.2088
-0.0446796 -0.424504 0.207549
-0.0404807 -0.424321 0.208362
-0.0362687 -0.424574 0.207241
-0.0322149 -0.424585 0.207361
-0.0284809 -0.424594 0.206448
-0.0241876 -0.42532 0.205389
-0.0199317 -0.425182 0.204762
-0.0162392 -0.425017 0.206279
-0.0126098 -0.424793 0.205527
-0.00790566 -0.425153 0.204773
-0.00429296 -0.425561 0.203712
-0.000192734 -0.425575 0.203592
0.00356937 -0.425949 0.202217
0.00830568 -0.42597 0.201473
0.0121651 -0.425857 0.201257
0.0163 -0.426486 0.199959
0.0200914 -0.42679 0.199407
0.0244369 -0.426367 0.198924
0.028405 -0.426837 0.198475
0.0324843 -0.426765 0.197012
0.0366209 -0.426854 0.196312
0.0405906 -0.427581 0.195002
0.0448352 -0.426788 0.194832
0.0489674 -0.428639 0.191277
0.0532461 -0.428352 0.190674
0.05727 -0.428894 0.189972
0.0612779 -0.428954 0.188285
0.0654247 -0.429133 0.186989
0.0697968 -0.429701 0.185334
0.0734847 -0.429738 0.184169
0.077831 -0.430823 0.181644
0.0819191 -0.43032 0.180784
0.0863767 -0.431227 0.177541
0.0903763 -0.432604 0.174782
0.0946498 -0.432559 0.173167
0.0989904 -0.432796 0.171604
0.1034 -0.433591 0.169595
0.107647 -0.43444 0.166752
0.111483 -0.434199 0.165452
0.116275 -0.435141 0.162076
0.120215 -0.435667 0.160102
0.124433 -0.435934 0.158133
0.128946 -0.437347 0.154733
0.133387 -0.438045 0.149922
0.137878 -0.439034 0.145643
0.142757 -0.439613 0.141788
0.147105 -0.440963 0.136954
0.152035 -0.442373 0.132128
0.156158 -0.443431 0.127078
0.161339 -0.445247 0.120001
0.16569 -0.446333 0.114527
0.170757 -0.448192 0.108027
0.175836 -0.449827 0.0997772
0.18098 -0.452289 0.0892636
0.186262 -0.455487 0.0758723
0.193604 -0.461806 0.0504247
0.198607 -0.463252 0.0432134
0.203697 -0.464906 0.0361789
-0.239538 -0.437229 0.136427
-0.233575 -0.43333 0.151617
-0.227643 -0.430768 0.164713
-0.2225 -0.428022 0.17444
-0.216968 -0.425735 0.183703
-0.212164 -0.424536 0.19039
-0.208091 -0.423642 0.194273
-0.203311 -0.422814 0.197565
-0.198784 -0.422233 0.199848
-0.194459 -0.421291 0.203556
-0.190594 -0.421252 0.203723
-0.186121 -0.420712 0.205105
-0.182255 -0.421329 0.204834
-0.177734 -0.42102 0.205447
-0.173466 -0.42059 0.207314
-0.170236 -0.420319 0.208368
-0.164997 -0.42001 0.210033
-0.161324 -0.420217 0.209473
-0.157117 -0.419512 0.210291
-0.15417 -0.419981 0.20963
-0.149467 -0.419684 0.211394
-0.145108 -0.419432 0.210625
-0.14101 -0.419648 0.211454
-0.13735 -0.419388 0.211862
-0.133162 -0.419375 0.212323
-0.129091 -0.419401 0.212015
-0.124902 -0.419621 0.212376
-0.120698 -0.419153 0.212344
-0.116588 -0.419676 0.212803
-0.112897 -0.418962 0.213339
-0.10855 -0.419053 0.21389
-0.104592 -0.418721 0.213478
-0.100966 -0.418929 0.212898
-0.0965985 -0.419168 0.214632
-0.0925837 -0.419044 0.213785
-0.0886356 -0.419203 0.213379
-0.0847694 -0.419351 0.213009
-0.080177 -0.419164 0.212548
-0.076704 -0.419676 0.211891
-0.0725815 -0.419309 0.212591
-0.0682309 -0.419493 0.211643
-0.0641309 -0.419445 0.211308
-0.0605025 -0.41975 0.209795
-0.0565724 -0.419859 0.210827
-0.0525994 -0.420138 0.209925
-0.0486576 -0.420111 0.209352
-0.0442777 -0.419911 0.209362
-0.040498 -0.420488 0.208557
-0.0366672 -0.420232 0.20828
-0.0321971 -0.420466 0.207735
-0.0284986 -0.420666 0.206843
-0.0242612 -0.420546 0.20629
-0.0202636 -0.420528 0.206017
-0.0160804 -0.421031 0.205313
-0.0122143 -0.421024 0.204774
-0.00818105 -0.420727 0.20497
-0.00421389 -0.421402 0.204738
-8.13547e-05 -0.421291 0.204072
0.00383593 -0.421163 0.203746
0.0084735 -0.421213 0.203122
0.0122826 -0.421438 0.202853
0.0163192 -0.422487 0.20092
0.0204053 -0.421471 0.201105
0.0244686 -0.422007 0.201056
0.0285489 -0.422218 0.199165
0.0324767 -0.422709 0.197339
0.0367645 -0.422809 0.196579
0.0406254 -0.423252 0.196177
0.0444794 -0.42359 0.193885
0.048884 -0.42369 0.194245
0.0528613 -0.423969 0.192224
0.0572681 -0.423768 0.191377
0.061217 -0.424417 0.190321
0.0653487 -0.424524 0.188952
0.0697272 -0.425472 0.186526
0.0736158 -0.426031 0.184562
0.0776716 -0.425998 0.183733
0.0822399 -0.427048 0.181165
0.086274 -0.42682 0.179191
0.0900713 -0.427245 0.177541
0.0947714 -0.427946 0.174847
0.0990201 -0.428838 0.17363
0.103124 -0.428692 0.170862
0.107173 -0.429673 0.169336
0.111798 -0.429797 0.166631
0.115633 -0.430773 0.164295
0.120101 -0.431689 0.161023
0.124395 -0.431688 0.15924
0.129322 -0.432802 0.155954
0.133506 -0.433335 0.151995
0.137805 -0.434552 0.147044
0.14247 -0.435233 0.143598
0.146838 -0.436423 0.13916
0.151353 -0.4375 0.133829
0.156226 -0.439039 0.12841
0.161344 -0.440343 0.122191
0.165817 -0.441481 0.116888
0.170437 -0.443226 0.109776
0.17537 -0.445429 0.101912
0.181034 -0.448142 0.091108
0.186538 -0.450524 0.0784278
0.192925 -0.456175 0.055141
0.198322 -0.458449 0.0459478
0.203796 -0.460073 0.0388086
0.209648 -0.463758 0.023029
-0.239981 -0.433524 0.131306
-0.233581 -0.430282 0.148601
-0.22795 -0.426888 0.160855
-0.222935 -0.424609 0.170962
-0.217555 -0.422854 0.180666
-0.21263 -0.42132 0.187771
-0.208149 -0.419889 0.192424
-0.203236 -0.419202 0.196585
-0.198724 -0.418165 0.200092
-0.194878 -0.417708 0.200788
-0.190535 -0.417737 0.201866
-0.186002 -0.417206 0.204269
-0.182162 -0.416932 0.205197
-0.177847 -0.416692 0.205538
-0.173997 -0.416381 0.207139
-0.16969 -0.416242 0.208908
-0.165505 -0.415882 0.209177
-0.161358 -0.415737 0.210114
-0.157497 -0.415964 0.210262
-0.153395 -0.415621 0.210134
-0.149595 -0.415589 0.211373
-0.14563 -0.415314 0.210914
-0.141187 -0.415397 0.211678
-0.137147 -0.415493 0.211272
-0.132955 -0.415558 0.210875
-0.129042 -0.415319 0.211609
-0.124959 -0.41524 0.211259
-0.120848 -0.415288 0.211896
-0.116887 -0.415099 0.212597
-0.113096 -0.415212 0.212501
-0.108915 -0.415642 0.211281
-0.104861 -0.415174 0.212141
-0.100473 -0.415101 0.213144
-0.0965781 -0.414966 0.213498
-0.0925389 -0.4147 0.213992
-0.0883565 -0.414889 0.213845
-0.0846838 -0.41511 0.212841
-0.0807853 -0.415254 0.213166
-0.0762081 -0.415569 0.21296
-0.0728151 -0.415297 0.212244
-0.0687436 -0.415368 0.211649
-0.0643532 -0.415551 0.211714
-0.0602601 -0.415763 0.211747
-0.0562934 -0.415459 0.211709
-0.0524958 -0.41563 0.211063
-0.04807 -0.415572 0.21108
-0.0440413 -0.415826 0.209904
-0.0406959 -0.416052 0.210672
-0.0361976 -0.415725 0.209044
-0.0325415 -0.415731 0.210015
-0.0283743 -0.416195 0.209591
-0.0237442 -0.415504 0.20887
-0.0201673 -0.415759 0.208284
-0.0163849 -0.415919 0.208206
-0.0124464 -0.416218 0.20784
-0.00799426 -0.416615 0.206646
-0.0040953 -0.417034 0.206254
0.000109504 -0.416649 0.205888
0.00377446 -0.416658 0.20538
0.00812366 -0.41657 0.205168
0.0122909 -0.417265 0.203958
0.0161543 -0.417253 0.203474
0.0205476 -0.417645 0.202125
0.0241555 -0.4177 0.201604
0.0281884 -0.418151 0.200514
0.032516 -0.418326 0.199935
0.0364521 -0.418343 0.199564
0.0407497 -0.418575 0.197567
0.0451476 -0.419091 0.19609
0.0486365 -0.418985 0.195387
0.0529127 -0.419499 0.193687
0.0572888 -0.420008 0.192199
0.0612143 -0.419861 0.191866
0.0654147 -0.420602 0.189072
0.0695459 -0.421339 0.188197
0.0737023 -0.421166 0.18662
0.0777686 -0.421385 0.185002
0.0816925 -0.422176 0.182766
0.0864859 -0.422839 0.17951
0.0905933 -0.423336 0.178313
0.0947499 -0.423769 0.175826
0.0987801 -0.424551 0.174206
0.103053 -0.42479 0.171861
0.107284 -0.425294 0.170034
0.111808 -0.425812 0.167622
0.115697 -0.425912 0.16649
0.12008 -0.426686 0.163154
0.124577 -0.427525 0.160369
0.12866 -0.42801 0.157635
0.13316 -0.428974 0.153468
0.137733 -0.429833 0.150414
0.141893 -0.430094 0.14689
0.146777 -0.43177 0.141163
0.151215 -0.43298 0.136357
0.155994 -0.434319 0.131211
0.160412 -0.435325 0.125525
0.16583 -0.43708 0.117846
0.170256 -0.438502 0.112454
0.175087 -0.440386 0.105322
0.180413 -0.442344 0.0957288
0.186065 -0.445127 0.0829054
0.192988 -0.451139 0.0579815
0.198005 -0.452942 0.0495676
0.203097 -0.45454 0.0426997
0.20802 -0.456676 0.034415
-0.241092 -0.431503 0.125406
-0.234243 -0.427013 0.144106
-0.228628 -0.424296 0.156111
-0.222907 -0.420982 0.169187
-0.217893 -0.419313 0.176773
-0.213097 -0.417752 0.18475
-0.207951 -0.416634 0.190777
-0.203702 -0.415251 0.194587
-0.199059 -0.414871 0.197871
-0.194914 -0.413878 0.200301
-0.190262 -0.413453 0.202065
-0.186424 -0.413434 0.202597
-0.182312 -0.412847 0.204695
-0.177976 -0.412904 0.205427
-0.173851 -0.41246 0.205999
-0.169632 -0.412458 0.207717
-0.165652 -0.412363 0.207804
-0.16176 -0.41193 0.208924
-0.157693 -0.411711 0.210198
-0.153489 -0.411539 0.210412
-0.14947 -0.411558 0.210845
-0.145717 -0.411818 0.209406
-0.141132 -0.411513 0.210705
-0.136995 -0.412192 0.210364
-0.133186 -0.411452 0.212175
-0.129253 -0.411453 0.210633
-0.125368 -0.411276 0.211429
-0.120983 -0.411497 0.211228
-0.117122 -0.411704 0.211683
-0.112927 -0.411362 0.21197
-0.108716 -0.410771 0.213769
-0.104579 -0.411164 0.213299
-0.100812 -0.410891 0.21386
-0.0964699 -0.410569 0.213836
-0.0927086 -0.411304 0.213376
-0.0885929 -0.410917 0.212913
-0.0847872 -0.4112 0.212898
-0.0807814 -0.4108 0.214659
-0.0766183 -0.411029 0.213747
-0.0726067 -0.411034 0.213548
-0.0685067 -0.411287 0.212689
-0.0638609 -0.411062 0.212681
-0.0604753 -0.410769 0.212976
-0.0560757 -0.411499 0.21167
-0.0521201 -0.411275 0.212442
-0.0483495 -0.411003 0.212409
-0.0444229 -0.411446 0.211861
-0.0404244 -0.411828 0.211531
-0.0360736 -0.411494 0.210428
-0.0321059 -0.4112 0.210641
-0.0284743 -0.411586 0.210747
-0.024293 -0.411737 0.210436
-0.0202532 -0.411421 0.210866
-0.0158821 -0.412112 0.209534
-0.0121088 -0.411682 0.20954
-0.00852982 -0.411839 0.209063
-0.00408002 -0.411894 0.209485
0.000231176 -0.412078 0.207722
0.0036322 -0.412316 0.207385
0.00759943 -0.412355 0.207847
0.0123767 -0.412372 0.20666
0.0160534 -0.412951 0.204573
0.0202496 -0.413182 0.204412
0.0245756 -0.413433 0.202938
0.028631 -0.41334 0.203109
0.0324104 -0.413582 0.201675
0.0366718 -0.414404 0.199703
0.0400547 -0.41405 0.199879
0.0446847 -0.414873 0.197699
0.0487621 -0.414876 0.1962
0.0529705 -0.415399 0.19531
0.056992 -0.415052 0.194173
0.0608567 -0.41571 0.192819
0.0655322 -0.416289 0.191312
0.0692623 -0.416605 0.189049
0.0735932 -0.417079 0.187989
0.0778977 -0.417332 0.186192
0.081894 -0.417819 0.183751
0.0860571 -0.418291 0.182131
0.0903293 -0.418216 0.180201
0.0943843 -0.419313 0.177319
0.0988439 -0.419362 0.176008
0.102999 -0.420252 0.173522
0.107399 -0.420947 0.171435
0.111698 -0.421021 0.169196
0.115896 -0.421808 0.167244
0.120108 -0.422115 0.165089
0.124445 -0.422815 0.161545
0.128404 -0.423068 0.159793
0.132903 -0.424427 0.156168
0.137608 -0.42493 0.151881
0.141907 -0.426082 0.148697
0.146596 -0.426838 0.144601
0.150978 -0.428038 0.139591
0.1558 -0.429336 0.133621
0.160786 -0.430737 0.127703
0.165125 -0.43162 0.123066
0.169516 -0.433075 0.117241
0.174716 -0.435135 0.109159
0.180216 -0.437369 0.0997194
0.18626 -0.440175 0.0875524
0.190988 -0.443481 0.0714991
0.198226 -0.448316 0.0506121
0.202432 -0.449618 0.0452635
0.208246 -0.451575 0.0366591
-0.241996 -0.428238 0.118615
-0.234889 -0.423808 0.13889
-0.229368 -0.420793 0.151224
-0.223291 -0.418629 0.164545
-0.218178 -0.416304 0.17437
-0.212605 -0.413777 0.182752
-0.208263 -0.412948 0.188912
-0.203818 -0.411822 0.193146
-0.199167 -0.410589 0.196666
-0.194741 -0.410192 0.199589
-0.190537 -0.409497 0.201239
-0.186662 -0.409461 0.202141
-0.182331 -0.409507 0.203408
-0.177941 -0.408576 0.204903
-0.173622 -0.408885 0.205963
-0.170107 -0.408476 0.206983
-0.166005 -0.40853 0.207628
-0.16136 -0.408193 0.209063
-0.157479 -0.407923 0.208835
-0.153487 -0.408254 0.209451
-0.149346 -0.407542 0.210205
-0.145294 -0.407559 0.210344
-0.141163 -0.407732 0.21012
-0.137198 -0.407773 0.210499
-0.133207 -0.407734 0.210862
-0.129239 -0.407813 0.210586
-0.124633 -0.407404 0.211631
-0.120767 -0.407282 0.21183
-0.116859 -0.406954 0.212628
-0.112705 -0.40699 0.212022
-0.108994 -0.407103 0.213045
-0.105023 -0.406932 0.213074
-0.100871 -0.40649 0.214342
-0.09665 -0.407145 0.213751
-0.0926556 -0.406612 0.214741
-0.0884016 -0.406714 0.21481
-0.0846087 -0.406886 0.214185
-0.0806046 -0.406571 0.2152
-0.076697 -0.406551 0.215268
-0.0724799 -0.406798 0.21417
-0.0684637 -0.407307 0.213522
-0.0643426 -0.406692 0.214768
-0.0602823 -0.407191 0.213463
-0.0563932 -0.407298 0.213767
-0.0526159 -0.406445 0.214692
-0.0483432 -0.4068 0.214027
-0.0444986 -0.406537 0.213742
-0.0402582 -0.407127 0.213185
-0.0358838 -0.406444 0.214696
-0.0323073 -0.407334 0.212834
-0.0281177 -0.40762 0.212333
-0.024362 -0.406237 0.213982
-0.0202024 -0.407471 0.212507
-0.0157702 -0.407357 0.21176
-0.0120888 -0.407617 0.211248
-0.0082995 -0.407444 0.211767
-0.00383771 -0.407343 0.211198
-0.000393621 -0.407302 0.210337
0.00397063 -0.408169 0.209531
0.00842074 -0.408661 0.207879
0.0119652 -0.4082 0.207785
0.0159336 -0.408124 0.208224
0.0203701 -0.40843 0.206014
0.0238553 -0.408532 0.206218
0.0281917 -0.408793 0.204333
0.0326616 -0.4095 0.202241
0.0364656 -0.409509 0.201691
0.0405394 -0.410029 0.199789
0.0446052 -0.41021 0.199669
0.0486521 -0.410737 0.197939
0.052745 -0.41016 0.197313
0.056745 -0.41108 0.19566
0.0609339 -0.411407 0.194415
0.0650518 -0.412047 0.192617
0.0692452 -0.412143 0.190574
0.0736454 -0.412505 0.18974
0.0779196 -0.412838 0.18777
0.081945 -0.413837 0.184615
0.086324 -0.41366 0.183163
0.0900699 -0.414294 0.180927
0.0940836 -0.414692 0.179085
0.0989399 -0.414944 0.17706
0.102733 -0.416172 0.174388
0.107236 -0.416392 0.17293
0.11148 -0.416724 0.170199
0.115598 -0.416835 0.168973
0.119972 -0.417255 0.167207
0.124188 -0.418359 0.163444
0.128294 -0.418618 0.161925
0.132867 -0.419339 0.158363
0.137128 -0.420094 0.15623
0.141906 -0.420982 0.150685
0.146262 -0.4218 0.14647
0.150694 -0.423065 0.143186
0.155368 -0.424057 0.138267
0.15981 -0.425716 0.132841
0.164653 -0.426987 0.126456
0.169689 -0.428039 0.120849
0.174237 -0.429657 0.114222
0.179129 -0.431127 0.106456
0.184747 -0.43352 0.096424
0.190552 -0.437557 0.0798025
0.197031 -0.443272 0.0554301
0.202194 -0.444855 0.047864
0.208201 -0.446802 0.0383419
0.214248 -0.451612 0.0187503
-0.242733 -0.425914 0.11158
-0.235709 -0.420433 0.133426
-0.229526 -0.417715 0.147462
-0.224009 -0.414891 0.160389
-0.218767 -0.412731 0.16991
-0.213562 -0.410603 0.178901
-0.208528 -0.409057 0.185527
-0.203969 -0.408052 0.191069
-0.199287 -0.407212 0.194625
-0.195155 -0.406434 0.197342
-0.191029 -0.405623 0.199912
-0.186466 -0.405366 0.201996
-0.182202 -0.405104 0.203085
-0.178334 -0.405131 0.204373
-0.173983 -0.404207 0.206223
-0.16985 -0.404444 0.205727
-0.16583 -0.404125 0.207123
-0.161798 -0.404682 0.20702
-0.157903 -0.403747 0.208608
-0.153636 -0.404271 0.209617
-0.149444 -0.403839 0.208859
-0.145376 -0.40404 0.208612
-0.141606 -0.403622 0.209253
-0.137169 -0.4037 0.209977
-0.133089 -0.403763 0.210104
-0.128931 -0.403436 0.210721
-0.125155 -0.403326 0.211586
-0.120862 -0.403506 0.211847
-0.117051 -0.403237 0.212086
-0.113018 -0.402729 0.212643
-0.108906 -0.402922 0.213129
-0.104676 -0.402667 0.214432
-0.100796 -0.402615 0.213964
-0.09673 -0.40259 0.2144
-0.092294 -0.401821 0.216848
-0.0887389 -0.402027 0.215918
-0.084188 -0.4026 0.215408
-0.0806463 -0.402336 0.215932
-0.0761774 -0.401805 0.2166
-0.0727743 -0.402466 0.215559
-0.0686855 -0.401982 0.216344
-0.0645618 -0.402189 0.216217
-0.0600223 -0.40223 0.216701
-0.056299 -0.402291 0.215626
-0.052221 -0.402421 0.215942
-0.0486022 -0.40248 0.215579
-0.0443313 -0.402559 0.216421
-0.0403918 -0.402109 0.216239
-0.036265 -0.402806 0.215342
-0.0321893 -0.402405 0.216219
-0.0281422 -0.402322 0.215674
-0.0240886 -0.402023 0.216252
-0.0203378 -0.402711 0.214354
-0.0160618 -0.40279 0.214349
-0.0119734 -0.402581 0.213731
-0.00774292 -0.403012 0.212698
-0.00411677 -0.402757 0.213636
-0.000258973 -0.403042 0.211996
0.00445232 -0.403224 0.211522
0.00833852 -0.403827 0.210347
0.012253 -0.403672 0.209657
0.0158939 -0.403885 0.209218
0.0200196 -0.404071 0.208272
0.0244892 -0.404327 0.206943
0.0283947 -0.404491 0.206616
0.0323651 -0.404501 0.205551
0.0364173 -0.405091 0.203239
0.0406122 -0.405512 0.201696
0.0446695 -0.405809 0.2012
0.0486334 -0.406176 0.199888
0.0527132 -0.405948 0.199178
0.0566392 -0.406765 0.19703
0.0610998 -0.406912 0.195039
0.0652975 -0.407725 0.193856
0.0693505 -0.407481 0.192058
0.0736175 -0.408108 0.190266
0.0773746 -0.408754 0.188416
0.0816412 -0.408697 0.187104
0.0860237 -0.409649 0.185144
0.0902383 -0.410102 0.182624
0.0947913 -0.410728 0.1798
0.0986322 -0.410632 0.178965
0.103024 -0.411264 0.175711
0.106748 -0.411468 0.176113
0.111192 -0.412044 0.173205
0.115006 -0.412277 0.171862
0.119609 -0.413302 0.16851
0.123943 -0.413879 0.165941
0.128191 -0.414031 0.163785
0.132621 -0.414963 0.160028
0.137089 -0.41616 0.156505
0.141537 -0.416499 0.152906
0.145729 -0.417172 0.14981
0.150732 -0.418029 0.144834
0.15485 -0.419173 0.140701
0.15982 -0.420966 0.134885
0.164291 -0.421864 0.130154
0.169258 -0.423324 0.124176
0.1738 -0.424326 0.119187
0.179091 -0.426392 0.110376
0.184118 -0.427832 0.102528
0.1896 -0.430656 0.0904138
0.196955 -0.437051 0.0600241
0.202645 -0.439952 0.0482441
0.20767 -0.441366 0.041979
0.213143 -0.444373 0.0296952
-0.236104 -0.41799 0.129187
-0.230586 -0.414762 0.142884
-0.22452 -0.411562 0.156147
-0.219411 -0.409314 0.166137
-0.213968 -0.407454 0.175554
-0.209289 -0.405787 0.181873
-0.204579 -0.404708 0.187201
-0.19926 -0.403238 0.193836
-0.19515 -0.402602 0.195752
-0.190846 -0.401939 0.198907
-0.186481 -0.401251 0.201142
-0.182176 -0.401142 0.203156
-0.178323 -0.40106 0.203423
-0.174518 -0.400728 0.204031
-0.169697 -0.400415 0.205758
-0.165481 -0.400449 0.206452
-0.162033 -0.399988 0.207291
-0.157727 -0.399772 0.208057
-0.153768 -0.400139 0.207459
-0.149561 -0.399895 0.208737
-0.145206 -0.399914 0.208332
-0.141581 -0.400091 0.208378
-0.137332 -0.399504 0.209594
-0.133684 -0.399562 0.20962
-0.129326 -0.399396 0.210693
-0.125262 -0.399392 0.210977
-0.120799 -0.39918 0.212668
-0.116963 -0.399284 0.213113
-0.112646 -0.398705 0.214339
-0.108556 -0.398524 0.214975
-0.104318 -0.398145 0.216416
-0.100369 -0.398635 0.216126
-0.0964795 -0.397896 0.217197
-0.0929411 -0.3981 0.217365
-0.0884097 -0.398225 0.217469
-0.0844614 -0.397693 0.218505
-0.0802924 -0.397619 0.218324
-0.076194 -0.397664 0.218514
-0.0721751 -0.397775 0.218655
-0.0681082 -0.397882 0.218721
-0.0641212 -0.398033 0.217876
-0.0604191 -0.39757 0.217846
-0.0566934 -0.397856 0.218032
-0.0522823 -0.398004 0.217354
-0.0481513 -0.397698 0.218457
-0.0438908 -0.398245 0.217532
-0.0401416 -0.397652 0.218548
-0.0360787 -0.397788 0.218408
-0.0325025 -0.398064 0.217104
-0.028083 -0.398075 0.217904
-0.0243073 -0.397702 0.217724
-0.0198861 -0.398416 0.216477
-0.0159017 -0.397914 0.217238
-0.0119371 -0.398233 0.216297
-0.00831027 -0.397708 0.216091
-0.00400253 -0.398417 0.214348
-8.19828e-05 -0.398905 0.213711
0.00380544 -0.399085 0.212635
0.00830104 -0.398976 0.212537
0.0119173 -0.399351 0.211826
0.0158925 -0.399355 0.211029
0.0200558 -0.399785 0.210019
0.0240345 -0.399714 0.208924
0.0287634 -0.400046 0.207608
0.0321672 -0.400791 0.206543
0.0363715 -0.400788 0.204953
0.0404245 -0.401158 0.203035
0.0445323 -0.401106 0.202222
0.0489412 -0.40127 0.201936
0.0527343 -0.40209 0.200032
0.0571131 -0.402101 0.198856
0.0610299 -0.402425 0.197414
0.0651587 -0.402753 0.195218
0.0689695 -0.403313 0.194133
0.0737399 -0.403404 0.192343
0.0775481 -0.404037 0.190531
0.081789 -0.404783 0.188048
0.0861843 -0.405253 0.185867
0.0899391 -0.405385 0.184469
0.0943678 -0.405916 0.182015
0.0987484 -0.406878 0.179533
0.102718 -0.406836 0.177858
0.107084 -0.407138 0.176078
0.111059 -0.407487 0.174357
0.115329 -0.408189 0.17165
0.119408 -0.40817 0.170505
0.124351 -0.408886 0.167249
0.128353 -0.409531 0.16479
0.132268 -0.409863 0.162194
0.137497 -0.411205 0.157948
0.141511 -0.412142 0.154817
0.145958 -0.412478 0.151565
0.150382 -0.413102 0.147994
0.154738 -0.414517 0.14311
0.15944 -0.415883 0.138552
0.164269 -0.416801 0.133391
0.168613 -0.41764 0.128155
0.173092 -0.418717 0.123606
0.178621 -0.420512 0.11613
