ply
format ascii 1.0
element vertex 1651
property float x
property float y
property float z
end_header
-0.137816 -0.229688 0.149187
-0.133068 -0.228913 0.154772
-0.128651 -0.228659 0.159984
-0.123987 -0.228128 0.163729
-0.119798 -0.227127 0.167977
-0.11503 -0.226667 0.171996
-0.11144 -0.226236 0.176082
-0.10644 -0.225993 0.181056
-0.102439 -0.225421 0.184561
-0.0979204 -0.224685 0.188216
-0.0939523 -0.224437 0.190863
-0.0894197 -0.223778 0.195244
-0.0856401 -0.22326 0.197653
-0.081213 -0.223459 0.201141
-0.0768122 -0.222535 0.204395
-0.0727316 -0.222713 0.206937
-0.0681676 -0.221773 0.210695
-0.0646581 -0.221176 0.21339
-0.0601926 -0.221335 0.216902
-0.0564829 -0.220699 0.220609
-0.0522644 -0.220733 0.222183
-0.0477921 -0.220384 0.226412
-0.0439279 -0.219509 0.230393
-0.0396197 -0.219308 0.233191
-0.0357021 -0.218669 0.236568
-0.0319592 -0.218068 0.24027
-0.0274894 -0.217849 0.244071
-0.0232247 -0.217397 0.247336
-0.0198199 -0.217039 0.250633
-0.0156345 -0.216543 0.253683
-0.0118684 -0.216223 0.256806
-0.00770746 -0.216002 0.259721
-0.00412972 -0.21543 0.262133
0.000195006 -0.215245 0.265291
0.00398563 -0.215069 0.267135
0.00813944 -0.214938 0.26915
0.0119636 -0.214117 0.271216
0.0154815 -0.213921 0.272704
0.0191922 -0.213926 0.274058
0.0236124 -0.214177 0.275058
0.0267305 -0.213877 0.274794
0.0310372 -0.213891 0.275837
0.0345156 -0.213541 0.276671
0.038537 -0.213678 0.276244
0.0429145 -0.213956 0.274919
0.0468184 -0.213995 0.273224
0.0504385 -0.214515 0.271924
0.0548653 -0.214994 0.268831
0.0587391 -0.2155 0.264092
0.0630007 -0.215726 0.260137
0.0666337 -0.216181 0.257181
0.0712072 -0.216741 0.25188
0.0749531 -0.217775 0.247819
0.0794832 -0.218091 0.241545
0.0832597 -0.218392 0.237886
0.087605 -0.219347 0.233027
0.0916781 -0.219707 0.227792
0.0961742 -0.220278 0.222896
0.100498 -0.220833 0.217658
0.10487 -0.221847 0.212059
0.10931 -0.222564 0.206253
0.113808 -0.223285 0.19863
0.118345 -0.224364 0.190503
0.126356 -0.231579 0.13574
0.131212 -0.23172 0.131591
0.134826 -0.231812 0.128595
0.139726 -0.23254 0.122485
0.143993 -0.233392 0.118407
0.149373 -0.234432 0.111746
0.153604 -0.234569 0.106583
0.158327 -0.235336 0.100759
0.16349 -0.236733 0.0916797
0.168108 -0.237298 0.0863671
0.173577 -0.238475 0.0778612
0.17822 -0.239174 0.0709877
0.183817 -0.239934 0.0613071
0.188892 -0.24192 0.0513773
0.194601 -0.243185 0.0392772
0.200191 -0.244761 0.0255897
0.206455 -0.246638 0.00989962
-0.254843 -0.241941 0.0141906
-0.24913 -0.23993 0.0270814
-0.243512 -0.23918 0.0355451
-0.238859 -0.238402 0.042534
-0.232618 -0.237102 0.0504804
-0.228098 -0.236619 0.0559568
-0.222867 -0.236018 0.0619938
-0.21781 -0.235393 0.0678062
-0.212751 -0.234611 0.0741162
-0.207888 -0.234325 0.0786194
-0.202786 -0.233269 0.084304
-0.198439 -0.232652 0.0891004
-0.193557 -0.231618 0.0942116
-0.188631 -0.231619 0.0984335
-0.183702 -0.231057 0.104574
-0.179291 -0.229818 0.107943
-0.174804 -0.229862 0.113403
-0.169916 -0.229225 0.117895
-0.164871 -0.228807 0.123247
-0.160274 -0.228118 0.127664
-0.155488 -0.227813 0.13167
-0.151753 -0.226828 0.135847
-0.146782 -0.226568 0.140698
-0.142142 -0.22565 0.146547
-0.137301 -0.225398 0.150836
-0.133072 -0.224725 0.155151
-0.128223 -0.223987 0.160103
-0.124088 -0.223396 0.164645
-0.120339 -0.222904 0.167781
-0.115352 -0.222412 0.173425
-0.110845 -0.221842 0.176638
-0.106306 -0.221475 0.180527
-0.102337 -0.221329 0.18474
-0.0981353 -0.220525 0.188554
-0.093444 -0.220494 0.191447
-0.0897427 -0.219866 0.195953
-0.0850003 -0.219311 0.19878
-0.081074 -0.218847 0.201113
-0.0765811 -0.218642 0.204664
-0.07314 -0.218358 0.207425
-0.0682628 -0.217997 0.211712
-0.0645376 -0.21694 0.214308
-0.0598797 -0.21692 0.218686
-0.0561967 -0.216499 0.220616
-0.0520538 -0.216432 0.224229
-0.0481689 -0.216122 0.227017
-0.0438579 -0.215621 0.230733
-0.0399561 -0.214948 0.233962
-0.0356191 -0.214762 0.236837
-0.0315742 -0.214277 0.24088
-0.0276828 -0.214225 0.243641
-0.0238492 -0.213244 0.248298
-0.0197482 -0.212958 0.251277
-0.0155907 -0.212492 0.254187
-0.0115924 -0.212343 0.257892
-0.00762933 -0.211656 0.260128
-0.00397785 -0.211789 0.26196
-0.000118089 -0.211326 0.265145
0.00385904 -0.211039 0.267489
0.00785189 -0.210619 0.270315
0.0118762 -0.210407 0.272677
0.0155263 -0.210883 0.272466
0.0192789 -0.210356 0.274014
0.0234105 -0.209985 0.274889
0.027285 -0.210108 0.274856
0.0308751 -0.209889 0.276683
0.0349012 -0.210284 0.275332
0.038844 -0.210084 0.275396
0.0427559 -0.209961 0.275115
0.0470079 -0.210267 0.273733
0.0505005 -0.210472 0.271332
0.0545786 -0.211027 0.268811
0.0584239 -0.211508 0.264651
0.0628213 -0.211976 0.260476
0.0671977 -0.21221 0.255278
0.0709276 -0.21313 0.251555
0.0752829 -0.213172 0.246093
0.0793633 -0.214186 0.242047
0.083727 -0.214807 0.236888
0.087467 -0.215341 0.233279
0.0918801 -0.215505 0.227388
0.0962879 -0.216447 0.222639
0.100251 -0.216854 0.216444
0.105047 -0.218014 0.210884
0.109218 -0.218462 0.204823
0.113718 -0.219551 0.197951
0.118458 -0.220415 0.188723
0.126387 -0.227051 0.134818
0.130993 -0.227671 0.130743
0.134879 -0.228085 0.127038
0.13993 -0.228699 0.122329
0.144152 -0.228814 0.11777
0.149158 -0.229896 0.111872
0.15373 -0.230617 0.106158
0.158634 -0.231535 0.0996734
0.163607 -0.23258 0.0922379
0.168333 -0.233466 0.0857341
0.173234 -0.234173 0.07863
0.178111 -0.235053 0.0706431
0.183386 -0.236133 0.0615189
0.188853 -0.236983 0.0515265
0.194949 -0.239225 0.0381045
0.200922 -0.24056 0.0251406
0.206829 -0.242399 0.00816488
-0.254743 -0.237165 0.0163008
-0.248926 -0.236104 0.0285598
-0.243292 -0.234801 0.0377508
-0.237956 -0.233763 0.0445337
-0.232633 -0.232976 0.0514596
-0.2276 -0.232142 0.0575725
-0.223152 -0.231545 0.0622848
-0.217853 -0.230761 0.0688554
-0.213059 -0.230276 0.0743965
-0.207988 -0.230006 0.0787554
-0.203093 -0.228935 0.0847948
-0.198372 -0.227798 0.0905572
-0.19304 -0.227768 0.0958084
-0.188206 -0.226754 0.100689
-0.18398 -0.226545 0.104999
-0.178752 -0.22618 0.109959
-0.174305 -0.22552 0.113754
-0.1695 -0.224609 0.119249
-0.165667 -0.224723 0.122219
-0.160133 -0.223563 0.128134
-0.155418 -0.22298 0.132826
-0.151228 -0.222364 0.13738
-0.146776 -0.222422 0.140672
-0.142142 -0.221431 0.14635
-0.137663 -0.221034 0.151639
-0.133407 -0.220596 0.155064
-0.128567 -0.219938 0.160615
-0.123775 -0.219548 0.166285
-0.119802 -0.218892 0.169467
-0.115363 -0.218391 0.173827
-0.110908 -0.217853 0.177887
-0.106319 -0.217057 0.182141
-0.102548 -0.216805 0.185092
-0.0984113 -0.216042 0.188967
-0.0938439 -0.215884 0.192497
-0.0895661 -0.215835 0.195221
-0.0854826 -0.215237 0.199887
-0.0809803 -0.215137 0.202474
-0.0769084 -0.214389 0.205602
-0.0723859 -0.213915 0.209322
-0.0688582 -0.213818 0.212501
-0.0647167 -0.21326 0.213971
-0.0606208 -0.212722 0.218931
-0.0559085 -0.212347 0.220966
-0.0518138 -0.212263 0.224539
-0.0482535 -0.212349 0.227246
-0.0437438 -0.211481 0.231303
-0.0397074 -0.211004 0.234605
-0.0359486 -0.210279 0.238239
-0.0318073 -0.21019 0.240992
-0.027547 -0.209648 0.245295
-0.0239275 -0.209371 0.247609
-0.0195279 -0.208659 0.251724
-0.015661 -0.208919 0.254117
-0.0117157 -0.208109 0.257784
-0.00763536 -0.207841 0.260928
-0.00379585 -0.207553 0.263234
-0.000242651 -0.207441 0.266182
0.00409955 -0.20685 0.268753
0.00767856 -0.206801 0.269553
0.0114439 -0.206462 0.272077
0.0156269 -0.206103 0.274027
0.0193726 -0.206209 0.274996
0.0232768 -0.206316 0.275116
0.0269669 -0.205978 0.276199
0.0307939 -0.205914 0.277089
0.0352775 -0.205665 0.276575
0.0388982 -0.205853 0.275317
0.0426781 -0.206157 0.274469
0.046538 -0.206171 0.27341
0.050534 -0.206426 0.271337
0.0541604 -0.207052 0.268315
0.0587178 -0.207504 0.264299
0.063062 -0.208173 0.25867
0.0667285 -0.208278 0.256201
0.071413 -0.209077 0.250707
0.0748727 -0.209534 0.246925
0.0793848 -0.210048 0.240228
0.0836629 -0.210809 0.235789
0.0882749 -0.21161 0.231054
0.0922197 -0.212044 0.226302
0.0959698 -0.212384 0.221788
0.100774 -0.21307 0.215593
0.104627 -0.214012 0.210939
0.109623 -0.214571 0.203448
0.113896 -0.215889 0.196817
0.118441 -0.216598 0.187504
0.125882 -0.222842 0.135795
0.130629 -0.223413 0.131084
0.135081 -0.22345 0.127267
0.140094 -0.224931 0.122165
0.144317 -0.225005 0.116992
0.149127 -0.225792 0.111582
0.153562 -0.226291 0.106657
0.158576 -0.226993 0.0997255
0.163309 -0.227897 0.0935086
0.168065 -0.228866 0.0857245
0.17344 -0.22981 0.0783417
0.178129 -0.230383 0.0708082
0.183539 -0.23168 0.0619854
0.188326 -0.232624 0.0531914
0.195238 -0.234223 0.0375103
0.200161 -0.235782 0.0253413
0.206473 -0.238143 0.00872695
-0.261791 -0.23504 -0.0042913
-0.254691 -0.232025 0.0189611
-0.249118 -0.230852 0.0296389
-0.243314 -0.230145 0.0385425
-0.237951 -0.229218 0.0466419
-0.232733 -0.228136 0.0526284
-0.227962 -0.227365 0.0580707
-0.222773 -0.227281 0.0635668
-0.217515 -0.226783 0.0693488
-0.212773 -0.225718 0.0756471
-0.207914 -0.225361 0.0805904
-0.202815 -0.22447 0.0864854
-0.198213 -0.223799 0.0909084
-0.193581 -0.223274 0.0964385
-0.188834 -0.222129 0.101389
-0.183968 -0.222154 0.105121
-0.178888 -0.221475 0.110632
-0.174653 -0.220958 0.114081
-0.16963 -0.220767 0.119492
-0.165109 -0.2197 0.123559
-0.160003 -0.219568 0.129264
-0.155876 -0.218874 0.132861
-0.151271 -0.218844 0.137363
-0.146591 -0.217987 0.142233
-0.141974 -0.217724 0.146772
-0.137616 -0.216702 0.151755
-0.133356 -0.216096 0.156307
-0.128353 -0.215487 0.161756
-0.124305 -0.214884 0.165376
-0.119649 -0.214574 0.170153
-0.115254 -0.214217 0.17438
-0.110728 -0.213296 0.177828
-0.10641 -0.212998 0.183017
-0.102064 -0.212546 0.186377
-0.0980558 -0.212238 0.190014
-0.0935277 -0.212115 0.193836
-0.0893924 -0.211415 0.196706
-0.0853169 -0.210789 0.200033
-0.0812494 -0.210342 0.203417
-0.0769821 -0.210403 0.20666
-0.0728763 -0.210077 0.209504
-0.0685273 -0.20991 0.211213
-0.0643943 -0.209597 0.214817
-0.0603683 -0.208946 0.219494
-0.0567002 -0.208362 0.221165
-0.0521317 -0.208051 0.225012
-0.0480571 -0.207655 0.22806
-0.0441438 -0.207603 0.230803
-0.0394567 -0.207104 0.234652
-0.0359247 -0.206435 0.23824
-0.0321104 -0.206129 0.242132
-0.0283603 -0.205572 0.245353
-0.0235544 -0.205427 0.247755
-0.0197545 -0.205023 0.25244
-0.0159112 -0.204776 0.25494
-0.0118211 -0.204216 0.258927
-0.00788936 -0.203907 0.261512
-0.00375784 -0.203658 0.264149
-0.000147864 -0.203325 0.267637
0.00398435 -0.202996 0.268588
0.00758139 -0.202683 0.269601
0.0114139 -0.20271 0.272441
0.0154985 -0.202504 0.273593
0.0193786 -0.202479 0.27466
0.0232509 -0.202439 0.276217
0.0268474 -0.202078 0.276373
0.0310517 -0.2022 0.276639
0.0349824 -0.201999 0.277117
0.0385425 -0.201873 0.276255
0.0425797 -0.201991 0.275489
0.0465462 -0.202533 0.273481
0.0506121 -0.202737 0.271048
0.0548552 -0.203068 0.267495
0.0588813 -0.203424 0.265025
0.0623894 -0.204019 0.259817
0.0670391 -0.204769 0.25545
0.0709154 -0.205098 0.250611
0.0748399 -0.205672 0.246005
0.0795307 -0.205926 0.239849
0.0838283 -0.207371 0.23546
0.087964 -0.207653 0.23065
0.0921065 -0.207948 0.226034
0.0963391 -0.208617 0.220653
0.100675 -0.209235 0.215676
0.104853 -0.209795 0.209732
0.10936 -0.211012 0.202921
0.114239 -0.21187 0.194066
0.118671 -0.212712 0.186517
0.125845 -0.218476 0.134299
0.130372 -0.218708 0.131828
0.135176 -0.219157 0.126078
0.139658 -0.220313 0.122409
0.144439 -0.220551 0.117608
0.148968 -0.22154 0.112068
0.154065 -0.222228 0.105051
0.158457 -0.223057 0.099097
0.163559 -0.223867 0.0925595
0.168312 -0.224051 0.0861371
0.173209 -0.224922 0.0798272
0.178462 -0.226472 0.0702888
0.183393 -0.227182 0.0619071
0.189012 -0.228545 0.0517246
0.19463 -0.229783 0.0381235
0.200119 -0.231435 0.0254133
0.207711 -0.233933 0.00321221
-0.262446 -0.23093 -0.00401449
-0.254392 -0.227092 0.0213681
-0.248464 -0.2266 0.0319442
-0.242824 -0.22567 0.0396957
-0.237689 -0.225004 0.0470992
-0.232983 -0.223705 0.0535907
-0.227299 -0.223232 0.0596673
-0.221967 -0.222835 0.066035
-0.217216 -0.221612 0.0710528
-0.212614 -0.221412 0.0766438
-0.207293 -0.220536 0.0828125
-0.202647 -0.220183 0.0874711
-0.197588 -0.219155 0.0934486
-0.193196 -0.219171 0.097262
-0.188466 -0.218208 0.101118
-0.184416 -0.217957 0.106109
-0.179182 -0.217336 0.110693
-0.174068 -0.217069 0.115262
-0.169749 -0.216666 0.119702
-0.164605 -0.215812 0.124344
-0.160546 -0.215196 0.129133
-0.155365 -0.214737 0.133493
-0.151147 -0.213897 0.138307
-0.14669 -0.213222 0.143107
-0.141854 -0.212769 0.148004
-0.137478 -0.212959 0.151994
-0.13266 -0.211741 0.157678
-0.128365 -0.211397 0.162344
-0.124303 -0.211034 0.165936
-0.119501 -0.210251 0.17038
-0.114928 -0.209778 0.175057
-0.110837 -0.20932 0.178223
-0.106857 -0.208715 0.182186
-0.102194 -0.208508 0.187301
-0.0983689 -0.208454 0.190113
-0.0934716 -0.207707 0.194935
-0.0893083 -0.207282 0.197315
-0.0853859 -0.207065 0.200948
-0.0809608 -0.206506 0.204033
-0.0769183 -0.206476 0.206253
-0.0720872 -0.205951 0.209886
-0.0683174 -0.20522 0.213066
-0.0645636 -0.20559 0.216355
-0.0601608 -0.204814 0.218945
-0.0558674 -0.204588 0.2218
-0.0522182 -0.203905 0.225223
-0.0476594 -0.204078 0.228773
-0.0438586 -0.203349 0.232084
-0.0392882 -0.203263 0.236122
-0.0358642 -0.202597 0.238602
-0.031786 -0.202227 0.242796
-0.0277641 -0.201807 0.245626
-0.0236787 -0.201509 0.248619
-0.0194312 -0.200675 0.252694
-0.0161026 -0.200598 0.255475
-0.0113081 -0.200253 0.25917
-0.00789345 -0.199827 0.261706
-0.00396097 -0.199901 0.26391
-0.000224403 -0.199354 0.266642
0.00411862 -0.199357 0.268978
0.0078629 -0.198683 0.27161
0.0123415 -0.198895 0.27359
0.0157254 -0.198362 0.274613
0.0191284 -0.198555 0.275065
0.0234497 -0.197956 0.275893
0.0270663 -0.197954 0.277457
0.0308409 -0.197876 0.277408
0.0350365 -0.198349 0.277272
0.0387212 -0.197998 0.276898
0.0428975 -0.198571 0.275612
0.0466025 -0.198777 0.273309
0.0508559 -0.198909 0.270985
0.0545733 -0.199389 0.267684
0.0588195 -0.199612 0.263503
0.0627119 -0.200244 0.259106
0.0665064 -0.20038 0.254923
0.0714021 -0.20124 0.249108
0.0750594 -0.201869 0.244901
0.0791521 -0.202117 0.241151
0.0836225 -0.202273 0.235484
0.0875957 -0.203605 0.230888
0.0919649 -0.204125 0.22551
0.0965438 -0.204643 0.219839
0.100652 -0.205503 0.214746
0.105231 -0.206087 0.208412
0.109932 -0.206952 0.201809
0.114367 -0.207641 0.193897
0.118951 -0.208863 0.18462
0.126464 -0.214289 0.134996
0.130767 -0.214989 0.129789
0.135065 -0.2154 0.127179
0.139782 -0.216231 0.121695
0.144375 -0.216584 0.116742
0.148545 -0.217056 0.113243
0.153965 -0.217635 0.105679
0.158577 -0.218751 0.0999705
0.163124 -0.219223 0.0935401
0.168184 -0.219872 0.0876033
0.173318 -0.220966 0.0784725
0.17874 -0.221813 0.0708338
0.183612 -0.2229 0.0627908
0.189339 -0.224314 0.0509508
0.194109 -0.225599 0.0404441
0.200592 -0.227226 0.0236294
0.206735 -0.229629 0.00531018
-0.260456 -0.224728 0.00725079
-0.253966 -0.223052 0.024232
-0.248521 -0.22145 0.0332845
-0.242811 -0.220827 0.0413319
-0.237656 -0.219998 0.0493392
-0.232479 -0.219135 0.0552336
-0.227613 -0.218744 0.0599902
-0.222742 -0.218362 0.0653465
-0.217181 -0.217053 0.0724567
-0.21288 -0.216826 0.0764992
-0.207133 -0.215948 0.0833637
-0.202498 -0.215485 0.0890471
-0.197656 -0.214833 0.0929408
-0.192952 -0.214399 0.0987476
-0.188243 -0.213692 0.102639
-0.183705 -0.213259 0.106804
-0.178966 -0.21304 0.111785
-0.174321 -0.212525 0.115951
-0.169805 -0.212034 0.120395
-0.164554 -0.2113 0.125568
-0.160584 -0.211017 0.13
-0.155959 -0.210278 0.134778
-0.151121 -0.210005 0.138905
-0.146324 -0.209843 0.143884
-0.141974 -0.208836 0.148258
-0.137433 -0.208477 0.152399
-0.132826 -0.207975 0.157894
-0.128429 -0.207414 0.162823
-0.123814 -0.206768 0.167018
-0.119483 -0.206143 0.170949
-0.114875 -0.205779 0.175735
-0.110809 -0.205388 0.179353
-0.106858 -0.204682 0.183125
-0.102395 -0.204155 0.186561
-0.0976994 -0.204072 0.190553
-0.0937918 -0.203466 0.194393
-0.0892814 -0.202867 0.197781
-0.0850854 -0.203327 0.201068
-0.0808639 -0.202415 0.204389
-0.0766727 -0.202077 0.207677
-0.0727635 -0.201648 0.209959
-0.0688264 -0.201561 0.213467
-0.0643013 -0.20137 0.215957
-0.0604108 -0.200687 0.218816
-0.0562604 -0.200193 0.22209
-0.0521547 -0.200407 0.225352
-0.0476523 -0.199826 0.229462
-0.0439764 -0.199316 0.232642
-0.0397897 -0.19924 0.235367
-0.0358261 -0.198438 0.238747
-0.0318149 -0.198207 0.242506
-0.0273912 -0.197855 0.245828
-0.0241449 -0.197531 0.249145
-0.019805 -0.196759 0.253566
-0.0159122 -0.196683 0.256449
-0.0116828 -0.196545 0.259094
-0.00775302 -0.195876 0.261785
-0.00388827 -0.195537 0.264119
2.12723e-05 -0.195787 0.267522
0.00404682 -0.195207 0.26959
0.00786796 -0.194786 0.272309
0.0113507 -0.194475 0.273618
0.0157022 -0.194614 0.273793
0.0193857 -0.19431 0.274729
0.0230542 -0.194596 0.276988
0.0270768 -0.194183 0.27769
0.0311057 -0.194164 0.277882
0.0348236 -0.194351 0.277512
0.0387292 -0.194366 0.277437
0.0425522 -0.194078 0.276037
0.046732 -0.194842 0.272788
0.0505585 -0.195074 0.270266
0.054386 -0.195249 0.266967
0.058701 -0.195995 0.263443
0.0627391 -0.196472 0.259669
0.067114 -0.197112 0.254389
0.0706707 -0.197469 0.2499
0.0752816 -0.19786 0.244988
0.0796529 -0.198386 0.239888
0.0835896 -0.199275 0.234864
0.0877779 -0.199951 0.230209
0.0920431 -0.200178 0.225148
0.0965766 -0.201124 0.21813
0.100929 -0.20139 0.213245
0.105153 -0.202192 0.207745
0.109645 -0.202857 0.200468
0.114199 -0.203335 0.194136
0.11882 -0.205023 0.183528
0.126439 -0.210458 0.135044
0.130761 -0.211043 0.130904
0.135198 -0.211485 0.126621
0.139638 -0.211685 0.121762
0.1442 -0.212282 0.117411
0.148968 -0.2128 0.112938
0.153987 -0.213532 0.105768
0.158708 -0.214401 0.099149
0.163579 -0.215185 0.0922388
0.168123 -0.215276 0.0858124
0.173121 -0.216666 0.0794519
0.177844 -0.217797 0.072204
0.182953 -0.218456 0.0632422
0.18814 -0.219073 0.0541673
0.194246 -0.221316 0.0391775
0.20052 -0.222979 0.0234221
0.207231 -0.225708 0.0027051
-0.261292 -0.220077 0.00628543
-0.253855 -0.218025 0.0252146
-0.248566 -0.217013 0.0339483
-0.242722 -0.216228 0.0423403
-0.237603 -0.215581 0.0491225
-0.232656 -0.215342 0.0551548
-0.22741 -0.214096 0.0615981
-0.222435 -0.213857 0.0674895
-0.217476 -0.212749 0.0730879
-0.212371 -0.212179 0.0785601
-0.207524 -0.211593 0.083462
-0.202521 -0.211157 0.0881511
-0.197442 -0.210734 0.0941249
-0.193151 -0.210156 0.0991558
-0.188018 -0.209622 0.104389
-0.183063 -0.208665 0.108939
-0.178681 -0.208311 0.112972
-0.174083 -0.20786 0.117059
-0.169343 -0.207618 0.121527
-0.164409 -0.207089 0.126363
-0.160105 -0.206524 0.130539
-0.155469 -0.206269 0.1352
-0.151183 -0.20565 0.139057
-0.146726 -0.205361 0.144258
-0.141611 -0.204501 0.14951
-0.137351 -0.204178 0.153629
-0.132977 -0.203833 0.158303
-0.128512 -0.202946 0.162951
-0.123851 -0.202035 0.167778
-0.119665 -0.202016 0.171927
-0.114995 -0.201844 0.175599
-0.110927 -0.201238 0.179606
-0.106617 -0.200756 0.183969
-0.102148 -0.200102 0.187083
-0.0981975 -0.199486 0.191176
-0.0933997 -0.199582 0.194879
-0.0897124 -0.198726 0.197322
-0.0855483 -0.199101 0.200582
-0.0810558 -0.198305 0.204594
-0.0767361 -0.198133 0.207078
-0.0727576 -0.197884 0.210381
-0.068903 -0.197287 0.214269
-0.0645494 -0.196896 0.216858
-0.0601789 -0.196737 0.21932
-0.0560197 -0.196791 0.222954
-0.0521264 -0.195942 0.225811
-0.0477695 -0.195553 0.230404
-0.0439297 -0.195064 0.232874
-0.0400412 -0.194499 0.236401
-0.0356881 -0.194386 0.239684
-0.0319366 -0.194058 0.243726
-0.0274669 -0.193723 0.247931
-0.0238732 -0.19311 0.250215
-0.0197107 -0.193074 0.253826
-0.0161141 -0.192566 0.256015
-0.0115852 -0.192216 0.259641
-0.00764414 -0.192065 0.262418
-0.00370812 -0.191638 0.264465
5.57346e-05 -0.191386 0.268387
0.00358492 -0.191183 0.269209
0.0076915 -0.191212 0.272484
0.0114568 -0.190972 0.272701
0.0157765 -0.190672 0.274877
0.0195291 -0.190401 0.276791
0.0234599 -0.190396 0.276755
0.0271439 -0.19021 0.278444
0.0308725 -0.190282 0.278121
0.0349596 -0.190659 0.277967
0.0391344 -0.190172 0.277279
0.043129 -0.19071 0.275383
0.0465407 -0.190793 0.274011
0.0507718 -0.190965 0.269849
0.0551548 -0.191579 0.266212
0.0586968 -0.192028 0.263434
0.0629028 -0.193119 0.258164
0.0669676 -0.193204 0.253843
0.0711946 -0.193696 0.247855
0.0754973 -0.193902 0.242675
0.0792275 -0.194444 0.239686
0.0836669 -0.19522 0.233992
0.0877397 -0.195705 0.229229
0.0919393 -0.196413 0.224419
0.0962459 -0.196743 0.217771
0.100867 -0.197696 0.212232
0.105336 -0.198014 0.206946
0.109628 -0.198722 0.201086
0.114314 -0.199849 0.192172
0.119072 -0.201266 0.181078
0.125862 -0.206039 0.135766
0.130338 -0.206233 0.13184
0.135431 -0.207688 0.126044
0.139609 -0.207244 0.123074
0.144245 -0.208069 0.117119
0.148943 -0.209 0.112521
0.154307 -0.20952 0.104875
0.158799 -0.210078 0.0995049
0.163187 -0.210938 0.0934643
0.168404 -0.211569 0.0862463
0.173323 -0.212155 0.0784576
0.178599 -0.212824 0.0715412
0.182832 -0.214344 0.0639545
0.18888 -0.215557 0.0517905
0.194968 -0.21705 0.0374053
0.200558 -0.218511 0.0221668
0.207816 -0.221516 -0.0042603
-0.259496 -0.214584 0.0139533
-0.254023 -0.213751 0.0253853
-0.248179 -0.21232 0.0357747
-0.242054 -0.21114 0.0449436
-0.237561 -0.210972 0.0511898
-0.231945 -0.210494 0.0575926
-0.227243 -0.209802 0.0630322
-0.22222 -0.209189 0.0685606
-0.216806 -0.208227 0.0744908
-0.21218 -0.208069 0.0787468
-0.207487 -0.207821 0.084414
-0.202466 -0.206609 0.0894322
-0.197864 -0.205773 0.0945696
-0.192607 -0.20572 0.0999637
-0.188573 -0.204856 0.104621
-0.183304 -0.204693 0.109522
-0.178451 -0.204171 0.114385
-0.174101 -0.20372 0.117696
-0.169702 -0.203491 0.121233
-0.164728 -0.202288 0.126913
-0.159459 -0.202043 0.132184
-0.155437 -0.20194 0.136001
-0.150954 -0.201275 0.140922
-0.146382 -0.200622 0.144701
-0.141989 -0.200347 0.14897
-0.137692 -0.199562 0.154069
-0.132847 -0.199249 0.159026
-0.128568 -0.198515 0.162945
-0.124187 -0.198379 0.167346
-0.119807 -0.197601 0.172081
-0.114915 -0.197159 0.176238
-0.110917 -0.196794 0.180468
-0.106998 -0.196868 0.183336
-0.101991 -0.195998 0.188344
-0.0976281 -0.195464 0.192401
-0.0936206 -0.195156 0.195278
-0.0893701 -0.194936 0.199464
-0.0850804 -0.194627 0.201889
-0.0812631 -0.194246 0.204833
-0.0769592 -0.194159 0.207562
-0.072731 -0.193745 0.211037
-0.0685536 -0.193177 0.214053
-0.0641458 -0.192974 0.217092
-0.0602051 -0.192822 0.220034
-0.0561124 -0.191987 0.222554
-0.05213 -0.192292 0.2269
-0.0480354 -0.191518 0.229297
-0.0439101 -0.19118 0.233165
-0.0400118 -0.190957 0.23638
-0.0355765 -0.190441 0.240294
-0.0315285 -0.190139 0.24351
-0.0273992 -0.189991 0.247024
-0.0235977 -0.189931 0.250137
-0.0193029 -0.188673 0.253882
-0.0156982 -0.188628 0.256709
-0.0120956 -0.188214 0.260588
-0.00805588 -0.188018 0.263501
-0.00391802 -0.187476 0.265517
0.000100306 -0.187338 0.268672
0.00389601 -0.186669 0.272253
0.00791464 -0.186756 0.272461
0.0114901 -0.187126 0.273957
0.015929 -0.186727 0.275226
0.0193594 -0.186475 0.276247
0.0232784 -0.186379 0.27774
0.0275982 -0.186513 0.277795
0.0311878 -0.186422 0.278574
0.0347925 -0.186525 0.277631
0.0391286 -0.186424 0.277372
0.0428813 -0.186525 0.275529
0.046745 -0.187009 0.273702
0.0505578 -0.186827 0.27151
0.05455 -0.188038 0.266758
0.058916 -0.187841 0.262872
0.0627208 -0.188476 0.258328
0.0666497 -0.189082 0.25417
0.0708139 -0.18956 0.249012
0.0750857 -0.190241 0.243556
0.0795601 -0.19049 0.238175
0.0839081 -0.191458 0.232928
0.0878452 -0.191563 0.228408
0.0920647 -0.192575 0.223184
0.0964572 -0.193045 0.216803
0.100748 -0.193746 0.211874
0.105412 -0.194092 0.204509
0.10957 -0.195013 0.199657
0.114109 -0.195678 0.192572
0.119298 -0.197239 0.179195
0.126009 -0.201843 0.136518
0.13083 -0.202375 0.131137
0.135214 -0.203186 0.126834
0.140048 -0.203499 0.121384
0.144097 -0.203771 0.118378
0.149187 -0.204611 0.11263
0.153291 -0.205195 0.106633
0.15832 -0.205592 0.0997003
0.163655 -0.206292 0.0934776
0.168343 -0.206857 0.0870388
0.173179 -0.207618 0.0796515
0.178068 -0.208847 0.0722657
0.183461 -0.209987 0.0626272
0.189271 -0.211141 0.050301
0.194285 -0.212028 0.0383956
0.201444 -0.214505 0.018979
-0.260054 -0.210613 0.0138003
-0.254135 -0.209198 0.0263115
-0.247906 -0.207931 0.037587
-0.242777 -0.207289 0.0441631
-0.237345 -0.206638 0.0514661
-0.232378 -0.20627 0.056688
-0.226959 -0.205286 0.0633528
-0.221931 -0.204856 0.0694735
-0.217343 -0.204332 0.0740615
-0.211812 -0.203275 0.0807562
-0.207318 -0.202866 0.0855271
-0.202071 -0.202647 0.0905304
-0.197188 -0.202183 0.0954978
-0.192842 -0.201244 0.100495
-0.188257 -0.201262 0.105164
-0.183309 -0.200306 0.110667
-0.178706 -0.199851 0.114522
-0.174261 -0.199391 0.118619
-0.169373 -0.199262 0.122603
-0.164315 -0.198285 0.127453
-0.159778 -0.198103 0.132107
-0.155384 -0.197639 0.136226
-0.150862 -0.197191 0.140573
-0.146609 -0.196717 0.143929
-0.141995 -0.195892 0.149436
-0.137503 -0.19554 0.153379
-0.132574 -0.195306 0.159396
-0.128066 -0.195045 0.163453
-0.123515 -0.194401 0.168546
-0.119283 -0.19353 0.171997
-0.115075 -0.193205 0.176247
-0.111074 -0.192823 0.179998
-0.106467 -0.19245 0.184312
-0.102601 -0.192126 0.187599
-0.0976893 -0.191608 0.191223
-0.0933326 -0.191358 0.195335
-0.0893648 -0.190616 0.198507
-0.0850676 -0.190448 0.202712
-0.0804761 -0.190235 0.205651
-0.0767583 -0.189597 0.20842
-0.0729442 -0.189652 0.210786
-0.0685875 -0.189364 0.213698
-0.0643742 -0.189236 0.217888
-0.060219 -0.188606 0.220538
-0.056079 -0.188404 0.223498
-0.0523369 -0.187825 0.226577
-0.0477405 -0.187484 0.230307
-0.0441787 -0.187268 0.233701
-0.0399722 -0.186628 0.237368
-0.0358782 -0.186585 0.240993
-0.0317352 -0.186767 0.244135
-0.0281007 -0.185618 0.247484
-0.0237229 -0.18555 0.251129
-0.0192906 -0.184831 0.25454
-0.01583 -0.184744 0.258016
-0.0116749 -0.184168 0.26111
-0.00768095 -0.183941 0.263183
-0.00392734 -0.183824 0.265508
0.000221666 -0.183398 0.268647
0.0037634 -0.183338 0.270154
0.00753929 -0.183128 0.272631
0.0117116 -0.182986 0.275149
0.0154632 -0.182622 0.276449
0.019751 -0.182789 0.277971
0.0232981 -0.182066 0.277849
0.0271618 -0.182485 0.277989
0.0310504 -0.182514 0.278444
0.0349272 -0.182165 0.278917
0.0389725 -0.182637 0.277237
0.042583 -0.182817 0.276551
0.0469163 -0.182604 0.274137
0.0505272 -0.182839 0.271343
0.0547646 -0.183806 0.266094
0.0590033 -0.184013 0.262075
0.0626386 -0.184331 0.25754
0.067011 -0.185452 0.252412
0.0710647 -0.186106 0.247573
0.0752935 -0.186017 0.242996
0.0794987 -0.186594 0.238252
0.0837416 -0.187087 0.233677
0.0877942 -0.187877 0.228146
0.0921722 -0.188181 0.222475
0.0965779 -0.188551 0.217071
0.101119 -0.189834 0.210158
0.105608 -0.190601 0.205284
0.109877 -0.191222 0.199356
0.11417 -0.191482 0.191029
0.11903 -0.192888 0.180285
0.126361 -0.197519 0.134968
0.131305 -0.198033 0.129788
0.135006 -0.198672 0.127082
0.13938 -0.199029 0.122325
0.144302 -0.199046 0.117694
0.148699 -0.200126 0.112235
0.153233 -0.200871 0.107165
0.158674 -0.20122 0.100023
0.163275 -0.201929 0.0936773
0.16811 -0.202631 0.0874923
0.17336 -0.203966 0.0790436
0.17858 -0.204794 0.0708746
0.183111 -0.205365 0.0638754
0.189149 -0.206687 0.0505713
0.194566 -0.207464 0.0371863
0.200995 -0.209817 0.0186898
-0.259368 -0.206227 0.016613
-0.253715 -0.204404 0.0288627
-0.247853 -0.203162 0.0381496
-0.24223 -0.202813 0.0457001
-0.237809 -0.202208 0.0519181
-0.232109 -0.20158 0.0583892
-0.226499 -0.200955 0.0651083
-0.222163 -0.200744 0.0697289
-0.217054 -0.199838 0.0758709
-0.212028 -0.199348 0.0814767
-0.207438 -0.198644 0.0868055
-0.201968 -0.197914 0.0916575
-0.197163 -0.197637 0.0973288
-0.1929 -0.197107 0.10136
-0.187916 -0.196595 0.105895
-0.183815 -0.196372 0.110102
-0.17873 -0.195465 0.115293
-0.174134 -0.195465 0.118962
-0.16946 -0.194258 0.12377
-0.164597 -0.194194 0.128821
-0.160279 -0.193683 0.132027
-0.155493 -0.193521 0.136264
-0.150923 -0.192873 0.140972
-0.146435 -0.191949 0.144861
-0.141978 -0.192221 0.149497
-0.137262 -0.191282 0.154713
-0.133179 -0.191246 0.157962
-0.128553 -0.190756 0.163657
-0.124171 -0.190234 0.168139
-0.119553 -0.189459 0.171927
-0.115285 -0.189282 0.176718
-0.11075 -0.188518 0.181327
-0.10631 -0.188499 0.184681
-0.10201 -0.18786 0.189284
-0.0981117 -0.187413 0.19262
-0.093704 -0.187459 0.195234
-0.0894649 -0.186785 0.199237
-0.0852156 -0.186585 0.202564
-0.0808424 -0.186182 0.206286
-0.0765779 -0.185638 0.209428
-0.0724879 -0.185277 0.212077
-0.0686514 -0.185317 0.214992
-0.0645919 -0.184871 0.217023
-0.0600408 -0.184377 0.220589
-0.0560552 -0.184053 0.224103
-0.0518005 -0.183808 0.226949
-0.047685 -0.183455 0.230497
-0.0436252 -0.183326 0.234712
-0.0396812 -0.182715 0.237962
-0.0357985 -0.182468 0.241392
-0.0317926 -0.182203 0.243993
-0.0276778 -0.182012 0.247855
-0.0238482 -0.181856 0.251616
-0.0192436 -0.181394 0.254935
-0.0157016 -0.181014 0.2574
-0.0118522 -0.180421 0.261469
-0.00772673 -0.179743 0.263736
-0.0040852 -0.179813 0.266698
0.000374323 -0.179676 0.269947
0.00389597 -0.179325 0.271448
0.00781297 -0.179241 0.272355
0.0115488 -0.178944 0.274958
0.0155316 -0.178969 0.275675
0.0194452 -0.178872 0.277404
0.0230385 -0.178731 0.277224
0.0276423 -0.179014 0.278455
0.0307824 -0.178465 0.278937
0.0350411 -0.178717 0.278196
0.0389487 -0.178678 0.278447
0.042819 -0.178855 0.275795
0.04691 -0.178891 0.272589
0.0506352 -0.179446 0.27035
0.0548484 -0.179733 0.265226
0.0588161 -0.180697 0.261687
0.0627257 -0.181002 0.257313
0.0670324 -0.181268 0.252028
0.071166 -0.181407 0.247613
0.0753742 -0.182524 0.242009
0.0793623 -0.182831 0.23752
0.083569 -0.183405 0.233012
0.087503 -0.183607 0.228418
0.0920766 -0.184564 0.221711
0.0961752 -0.184647 0.21621
0.101307 -0.185524 0.209822
0.105254 -0.186465 0.204571
0.109824 -0.187008 0.198015
0.11418 -0.187664 0.190703
0.119199 -0.189184 0.178023
0.126067 -0.19335 0.13599
0.130622 -0.19394 0.131942
0.135312 -0.194607 0.126728
0.139606 -0.194659 0.12318
0.144644 -0.19548 0.117015
0.149091 -0.195984 0.111867
0.153904 -0.19656 0.107199
0.158286 -0.197177 0.100392
0.163242 -0.197776 0.0939833
0.168167 -0.198589 0.0876449
0.173591 -0.199014 0.079536
0.178376 -0.200085 0.0713342
0.183543 -0.200896 0.0616711
0.189272 -0.202493 0.0493808
0.194767 -0.203612 0.0351692
0.201114 -0.205843 0.017097
-0.259742 -0.201277 0.0169408
-0.253108 -0.199748 0.0300422
-0.247719 -0.198685 0.0393705
-0.242329 -0.198629 0.0470268
-0.237473 -0.197609 0.0519575
-0.231911 -0.196615 0.0596684
-0.22671 -0.196197 0.0653986
-0.221971 -0.195723 0.0713353
-0.216768 -0.195207 0.0768446
-0.212142 -0.195015 0.0814717
-0.207198 -0.194366 0.0874999
-0.202409 -0.193551 0.091839
-0.197142 -0.192869 0.0977812
-0.19237 -0.192912 0.102062
-0.187487 -0.192259 0.106617
-0.183274 -0.191781 0.110999
-0.178644 -0.190866 0.115909
-0.174358 -0.190763 0.119622
-0.16868 -0.189941 0.124915
-0.164553 -0.189738 0.12931
-0.160396 -0.189616 0.132704
-0.155005 -0.189251 0.138326
-0.150872 -0.188675 0.14283
-0.146176 -0.188288 0.146142
-0.141849 -0.187852 0.149921
-0.136917 -0.187406 0.155165
-0.132632 -0.186897 0.160142
-0.128384 -0.186491 0.164412
-0.124313 -0.185742 0.167972
-0.119386 -0.185574 0.172845
-0.115083 -0.185133 0.176161
-0.111002 -0.184326 0.181468
-0.10648 -0.183831 0.184937
-0.10257 -0.183954 0.188325
-0.098213 -0.183086 0.191946
-0.093224 -0.182905 0.196117
-0.0891665 -0.182562 0.19925
-0.0850243 -0.182149 0.203301
-0.0807476 -0.182266 0.205412
-0.0763455 -0.181913 0.208806
-0.0725106 -0.181542 0.211506
-0.0682471 -0.181379 0.215634
-0.0643443 -0.180951 0.217612
-0.060095 -0.180587 0.220863
-0.0556405 -0.180468 0.224571
-0.0515436 -0.180046 0.227672
-0.0475017 -0.179268 0.231282
-0.0438397 -0.179136 0.233949
-0.0397014 -0.178998 0.237861
-0.0356906 -0.178173 0.241721
-0.0317139 -0.177848 0.244406
-0.0277219 -0.177759 0.248067
-0.0236772 -0.1775 0.251165
-0.0197292 -0.177032 0.25513
-0.0156033 -0.176968 0.257865
-0.0118376 -0.176499 0.261053
-0.00786252 -0.176404 0.263457
-0.00411395 -0.176005 0.267117
-3.27885e-05 -0.176114 0.270125
0.00378255 -0.175484 0.272237
0.00753184 -0.175302 0.274009
0.0118213 -0.174966 0.275282
0.0156717 -0.17481 0.276472
0.0192726 -0.17447 0.278035
0.023244 -0.174667 0.278799
0.0272153 -0.174685 0.278632
0.030895 -0.175011 0.279166
0.0350747 -0.174886 0.278183
0.0390055 -0.175072 0.278408
0.0426276 -0.175118 0.276404
0.0465572 -0.175191 0.272352
0.0504213 -0.175296 0.270436
0.0547636 -0.175842 0.265129
0.0588299 -0.17652 0.26085
0.0626322 -0.17676 0.257088
0.0670628 -0.177599 0.251313
0.0712113 -0.177865 0.246533
0.0754157 -0.178657 0.241251
0.0795802 -0.178698 0.23693
0.083543 -0.179693 0.23103
0.0883738 -0.179876 0.22561
0.0921328 -0.180355 0.221378
0.0965453 -0.181052 0.215968
0.100658 -0.181617 0.209462
0.105417 -0.182131 0.203274
0.10979 -0.182985 0.19724
0.113889 -0.18362 0.190443
0.121385 -0.188476 0.141899
0.126292 -0.189061 0.136111
0.130815 -0.18915 0.131719
0.135259 -0.190104 0.127791
0.13943 -0.190549 0.123011
0.144939 -0.190986 0.116782
0.149097 -0.191488 0.112186
0.153591 -0.191948 0.107072
0.158858 -0.192552 0.100013
0.163187 -0.193332 0.0944296
0.168837 -0.193872 0.0865831
0.173054 -0.194431 0.0809867
0.178584 -0.195932 0.0717695
0.183709 -0.196749 0.0612048
0.188897 -0.197773 0.0498846
0.195076 -0.199459 0.0339059
0.202197 -0.202029 0.0124896
-0.259294 -0.19667 0.0188466
-0.253262 -0.195486 0.0311016
-0.247334 -0.194138 0.040488
-0.242361 -0.193973 0.0471722
-0.236889 -0.192811 0.0542241
-0.23244 -0.192561 0.0590602
-0.226884 -0.192107 0.0669086
-0.221529 -0.190992 0.0720458
-0.216592 -0.191235 0.0775818
-0.211789 -0.190362 0.0834082
-0.206732 -0.18966 0.0880346
-0.202119 -0.188954 0.0936385
-0.197223 -0.188717 0.0985148
-0.192481 -0.188276 0.103507
-0.188012 -0.187766 0.107899
-0.182908 -0.187286 0.112609
-0.178569 -0.187222 0.11651
-0.174021 -0.186316 0.120565
-0.169435 -0.185935 0.125238
-0.164632 -0.185537 0.129613
-0.160133 -0.185281 0.133846
-0.155497 -0.1843 0.137762
-0.150413 -0.184396 0.143405
-0.146513 -0.184182 0.146389
-0.141765 -0.183564 0.151056
-0.137147 -0.183282 0.15566
-0.132853 -0.182729 0.159756
-0.128533 -0.182569 0.163943
-0.123786 -0.181915 0.167939
-0.119527 -0.181075 0.172915
-0.115085 -0.18057 0.176907
-0.111073 -0.180466 0.180593
-0.106475 -0.180268 0.184104
-0.102254 -0.179695 0.188956
-0.0978288 -0.179528 0.192538
-0.0937104 -0.179073 0.195413
-0.0890526 -0.178626 0.200234
-0.0853474 -0.178124 0.202162
-0.080991 -0.178181 0.205447
-0.0768941 -0.177219 0.209015
-0.0726811 -0.177412 0.212074
-0.0683696 -0.177035 0.215239
-0.064161 -0.177248 0.218252
-0.059876 -0.176819 0.222012
-0.0559622 -0.176423 0.225222
-0.0521961 -0.175266 0.228029
-0.048013 -0.175292 0.231084
-0.0436898 -0.175333 0.234568
-0.0398571 -0.175106 0.237979
-0.0355306 -0.17449 0.241478
-0.0315791 -0.17387 0.245639
-0.0277641 -0.173836 0.247986
-0.0236994 -0.173702 0.251558
-0.0195064 -0.172928 0.25534
-0.0158609 -0.172794 0.258502
-0.0117926 -0.172612 0.261506
-0.00773575 -0.172088 0.265332
-0.00343879 -0.171931 0.267574
0.000137168 -0.171804 0.269698
0.00366982 -0.171545 0.272075
0.00773735 -0.171447 0.273006
0.011449 -0.171155 0.275127
0.0152984 -0.171185 0.2767
0.0193105 -0.170831 0.278367
0.0232589 -0.170929 0.278955
0.0269955 -0.170432 0.279611
0.030963 -0.170823 0.27906
0.0349238 -0.170778 0.278142
0.0388646 -0.170779 0.278133
0.0428224 -0.171124 0.275648
0.0467653 -0.171349 0.272853
0.0507924 -0.171902 0.268983
0.0547953 -0.172141 0.26476
0.0586016 -0.172662 0.26073
0.0626498 -0.173115 0.255818
0.0672411 -0.173631 0.250676
0.0712609 -0.174129 0.246014
0.0754442 -0.174624 0.240938
0.0794981 -0.175085 0.235397
0.0835266 -0.17566 0.230926
0.0879988 -0.176552 0.225051
0.0924287 -0.176592 0.220222
0.0969694 -0.177333 0.214445
0.101043 -0.177836 0.208698
0.105527 -0.178591 0.202179
0.10941 -0.178925 0.197138
0.114502 -0.180122 0.188138
0.121395 -0.184453 0.142243
0.126224 -0.185079 0.137526
0.130545 -0.185525 0.131541
0.135173 -0.185711 0.126812
0.139871 -0.186467 0.122007
0.144252 -0.186553 0.118196
0.148773 -0.187519 0.113048
0.153778 -0.188244 0.106867
0.158314 -0.188176 0.100307
0.163456 -0.189232 0.0929381
0.16818 -0.189692 0.0871989
0.173029 -0.190707 0.0799134
0.178631 -0.191508 0.0701571
0.183937 -0.19229 0.0605555
0.18845 -0.193662 0.0497768
0.195917 -0.195769 0.0305136
0.201226 -0.196879 0.0143436
-0.258879 -0.191933 0.0209099
-0.252651 -0.19098 0.0333042
-0.246578 -0.189653 0.0427907
-0.242208 -0.189403 0.0487353
-0.236441 -0.188924 0.0557362
-0.231928 -0.188498 0.0607507
-0.226546 -0.187795 0.0673887
-0.221713 -0.186901 0.0727552
-0.217079 -0.186281 0.0779033
-0.211384 -0.186076 0.0842668
-0.207067 -0.184945 0.0895821
-0.201813 -0.185375 0.0933653
-0.197345 -0.1842 0.0988109
-0.192475 -0.183945 0.103217
-0.188293 -0.183106 0.10779
-0.183103 -0.183422 0.112358
-0.178429 -0.182266 0.117321
-0.173838 -0.182294 0.121364
-0.168581 -0.182095 0.126568
-0.164137 -0.182036 0.130522
-0.159648 -0.180762 0.134901
-0.15496 -0.180339 0.138857
-0.150914 -0.180429 0.142405
-0.146121 -0.179618 0.147611
-0.141422 -0.179183 0.151368
-0.13714 -0.178906 0.15538
-0.1329 -0.178458 0.159757
-0.12843 -0.178152 0.16352
-0.123865 -0.178043 0.168082
-0.119843 -0.177181 0.173411
-0.114997 -0.176946 0.177376
-0.111089 -0.176145 0.180222
-0.106323 -0.175786 0.185481
-0.101889 -0.175612 0.188974
-0.097966 -0.174765 0.191569
-0.0937201 -0.175009 0.195554
-0.0896417 -0.175025 0.198972
-0.0852687 -0.174309 0.202936
-0.0809528 -0.173904 0.20588
-0.0767813 -0.173998 0.20881
-0.0727564 -0.173368 0.211937
-0.0684888 -0.172915 0.215538
-0.0642753 -0.172898 0.218345
-0.0601122 -0.172392 0.221697
-0.0561964 -0.17201 0.225002
-0.0523529 -0.172218 0.227426
-0.0476346 -0.171394 0.231246
-0.0438785 -0.170996 0.235577
-0.0393345 -0.170638 0.238784
-0.0358166 -0.170879 0.241103
-0.0315728 -0.170483 0.245897
-0.0278336 -0.169807 0.248518
-0.023682 -0.169459 0.252009
-0.0198716 -0.169195 0.255413
-0.0157683 -0.168783 0.258888
-0.0117974 -0.168641 0.262973
-0.00813945 -0.168697 0.263735
-0.00380939 -0.168231 0.266961
-0.000297395 -0.167882 0.269952
0.00380494 -0.167696 0.272361
0.00747343 -0.167407 0.27386
0.0115508 -0.166908 0.276477
0.0156063 -0.167344 0.27712
0.0194512 -0.166969 0.278033
0.0231951 -0.166524 0.279047
0.0271678 -0.166919 0.279856
0.0313373 -0.166958 0.279325
0.0347273 -0.167162 0.278581
0.0389831 -0.167334 0.277476
0.042765 -0.167357 0.274929
0.0469216 -0.167966 0.271789
0.0508406 -0.167901 0.269541
0.0548448 -0.168432 0.264662
0.0590083 -0.168499 0.259649
0.063012 -0.169236 0.255163
0.0667611 -0.16962 0.250499
0.0712423 -0.17003 0.245122
0.0749101 -0.170545 0.240444
0.0794582 -0.171197 0.235948
0.0836298 -0.171367 0.23079
0.0881479 -0.17221 0.224375
0.0921713 -0.172909 0.219378
0.0967612 -0.173243 0.214209
0.100934 -0.173637 0.208168
0.105673 -0.174095 0.201973
0.110308 -0.174979 0.195415
0.114024 -0.17573 0.188816
0.121447 -0.179956 0.142148
0.125927 -0.180489 0.13757
0.13065 -0.180943 0.132258
0.135165 -0.181478 0.127146
0.139954 -0.181661 0.122961
0.143991 -0.18268 0.118449
0.149342 -0.182784 0.11217
0.153787 -0.184046 0.106283
0.158315 -0.18399 0.100089
0.163392 -0.184844 0.0942068
0.167583 -0.185393 0.0887232
0.172801 -0.186366 0.0803727
0.178134 -0.187443 0.0710425
0.1836 -0.188329 0.0609947
0.189718 -0.189399 0.045622
0.195395 -0.19096 0.0297223
0.202275 -0.193163 0.0096997
-0.258933 -0.187919 0.0202399
-0.252675 -0.186225 0.0331887
-0.247245 -0.185391 0.0420098
-0.24189 -0.185118 0.0496953
-0.236467 -0.184371 0.056268
-0.23136 -0.183595 0.0621175
-0.226399 -0.183082 0.0679498
-0.221653 -0.182613 0.0733421
-0.216662 -0.182433 0.0788769
-0.211464 -0.181461 0.0844655
-0.206359 -0.180722 0.0903957
-0.201617 -0.180214 0.0951861
-0.197122 -0.180166 0.0997472
-0.192513 -0.179598 0.103974
-0.187875 -0.178776 0.109339
-0.183098 -0.178732 0.112847
-0.178244 -0.178722 0.117128
-0.173541 -0.177679 0.122015
-0.168886 -0.177293 0.127091
-0.164269 -0.176907 0.130967
-0.159591 -0.176654 0.135129
-0.155608 -0.176315 0.1382
-0.150798 -0.175719 0.14292
-0.146198 -0.175777 0.147522
-0.1417 -0.175153 0.151192
-0.137644 -0.175054 0.15459
-0.132756 -0.174263 0.159558
-0.128245 -0.173746 0.165178
-0.123622 -0.17319 0.168824
-0.119372 -0.17279 0.174195
-0.114574 -0.172547 0.177819
-0.110508 -0.172207 0.180523
-0.106586 -0.171853 0.184536
-0.101752 -0.171527 0.188813
-0.0982321 -0.171147 0.192091
-0.0937416 -0.170854 0.196465
-0.0894094 -0.170376 0.199577
-0.0850058 -0.170215 0.203543
-0.0808028 -0.169882 0.205446
-0.0771163 -0.169773 0.209005
-0.0726204 -0.16932 0.212499
-0.0687316 -0.16934 0.215491
-0.0641923 -0.168779 0.218656
-0.0597484 -0.168025 0.222271
-0.0557854 -0.167861 0.22602
-0.0518922 -0.16775 0.228789
-0.0478775 -0.167727 0.231922
-0.0440536 -0.16684 0.234244
-0.039645 -0.166699 0.238319
-0.0358013 -0.166695 0.242088
-0.0313932 -0.166306 0.245091
-0.0273739 -0.165687 0.249754
-0.0237281 -0.165495 0.252301
-0.0195657 -0.165234 0.256044
-0.015842 -0.164977 0.259729
-0.0119035 -0.164894 0.261236
-0.00752669 -0.164529 0.265427
-0.00404255 -0.164123 0.26744
-0.000196727 -0.163945 0.270166
0.00396301 -0.163631 0.271863
0.00827573 -0.163632 0.274203
0.0115762 -0.163369 0.276971
0.0156446 -0.163464 0.277622
0.0198831 -0.162996 0.27794
0.0233356 -0.162994 0.279081
0.0274337 -0.163229 0.279438
0.0314277 -0.163103 0.279516
0.034751 -0.162911 0.27813
0.0388214 -0.163114 0.277291
0.0428137 -0.163293 0.275567
0.0466562 -0.163466 0.2725
0.050626 -0.164059 0.269458
0.0548773 -0.16434 0.263985
0.0588012 -0.164693 0.259456
0.0632969 -0.165309 0.25394
0.067197 -0.165699 0.249544
0.0711627 -0.166484 0.244356
0.0751176 -0.166938 0.240469
0.079504 -0.167011 0.234562
0.0835207 -0.167964 0.230054
0.0878183 -0.167952 0.224293
0.0926551 -0.168919 0.217253
0.0966999 -0.16897 0.21293
0.100896 -0.170154 0.207518
0.105555 -0.170666 0.200859
0.110113 -0.1706 0.194935
0.114553 -0.172032 0.186554
0.121492 -0.17586 0.142103
0.126083 -0.176464 0.136821
0.130453 -0.176957 0.132385
0.134794 -0.1776 0.128346
0.139663 -0.17804 0.123045
0.143616 -0.178279 0.11823
0.149066 -0.178704 0.111515
0.153657 -0.179155 0.107134
0.158851 -0.179806 0.100875
0.163512 -0.180738 0.0935339
0.168603 -0.181483 0.0869523
0.173048 -0.181866 0.0790659
0.178374 -0.182732 0.0703683
0.1837 -0.18362 0.0596399
0.189623 -0.185406 0.045437
0.195429 -0.186826 0.029563
0.202539 -0.188574 0.00520611
-0.265615 -0.184786 0.00360394
-0.259502 -0.18306 0.0202678
-0.252232 -0.181809 0.0347432
-0.247237 -0.180674 0.0424408
-0.242195 -0.179901 0.0492582
-0.236896 -0.17989 0.0564965
-0.231495 -0.179469 0.0620558
-0.226342 -0.178451 0.0683475
-0.222203 -0.178226 0.0726681
-0.216651 -0.177529 0.079589
-0.211885 -0.176998 0.0844759
-0.206552 -0.176786 0.0899664
-0.202013 -0.176362 0.0951254
-0.197049 -0.175624 0.0994645
-0.192407 -0.175476 0.10355
-0.18768 -0.174987 0.109275
-0.182904 -0.174003 0.113623
-0.178053 -0.174076 0.118283
-0.173526 -0.173486 0.122168
-0.169057 -0.173084 0.126833
-0.164686 -0.172569 0.130011
-0.159964 -0.172322 0.135061
-0.155284 -0.172178 0.140039
-0.150502 -0.171794 0.144357
-0.146203 -0.171381 0.148571
-0.142158 -0.17084 0.151146
-0.137351 -0.170886 0.156024
-0.132954 -0.170371 0.160433
-0.128336 -0.169647 0.164918
-0.123773 -0.169621 0.168866
-0.119598 -0.168921 0.172922
-0.115405 -0.168391 0.177183
-0.110957 -0.168048 0.181178
-0.106676 -0.167691 0.184944
-0.102269 -0.167589 0.189217
-0.0975965 -0.167219 0.192818
-0.0934231 -0.166388 0.196504
-0.0893732 -0.166741 0.199419
-0.0852937 -0.166306 0.201984
-0.0813881 -0.165749 0.205591
-0.0770771 -0.165515 0.208342
-0.0724869 -0.165115 0.212006
-0.068584 -0.165268 0.214298
-0.0638537 -0.164517 0.219158
-0.060107 -0.164186 0.22195
-0.0561606 -0.164258 0.224942
-0.0519982 -0.163654 0.227983
-0.0479922 -0.163711 0.230079
-0.0437471 -0.163328 0.235119
-0.039732 -0.162924 0.239062
-0.0358177 -0.162129 0.241026
-0.0315286 -0.162619 0.244985
-0.027657 -0.16201 0.249476
-0.0235738 -0.161703 0.253
-0.0198332 -0.161264 0.255957
-0.015743 -0.161392 0.25925
-0.0117354 -0.160585 0.26213
-0.00776838 -0.16008 0.265665
-0.00413318 -0.160191 0.26763
-0.000144288 -0.15988 0.270896
0.00367773 -0.159766 0.272326
0.00796911 -0.159522 0.275068
0.0115387 -0.159361 0.276287
0.0154717 -0.159583 0.276549
0.0195135 -0.158897 0.27933
0.0233446 -0.159216 0.279034
0.0271497 -0.159241 0.278404
0.031045 -0.159315 0.278972
0.0350216 -0.158808 0.278178
0.0389254 -0.159105 0.277213
0.0427551 -0.159693 0.27522
0.0466692 -0.15973 0.271806
0.0507115 -0.159822 0.268822
0.0549764 -0.160404 0.262115
0.0588996 -0.161011 0.258642
0.0628662 -0.161385 0.254175
0.0671249 -0.162055 0.248495
0.0709338 -0.162264 0.24457
0.0753972 -0.16295 0.239033
0.0792082 -0.163261 0.234231
0.0838858 -0.16353 0.22765
0.0879541 -0.16466 0.2232
0.091997 -0.164592 0.218185
0.0969607 -0.165513 0.212305
0.101131 -0.16583 0.206597
0.105601 -0.16639 0.200849
0.10991 -0.16679 0.194283
0.114474 -0.168058 0.186349
0.121628 -0.171687 0.141638
0.126177 -0.172309 0.136359
0.130596 -0.172975 0.131659
0.134998 -0.173244 0.128215
0.139945 -0.173322 0.122941
0.144724 -0.174078 0.11691
0.149581 -0.174917 0.111092
0.154316 -0.175139 0.105284
0.158083 -0.175724 0.100658
0.163089 -0.176591 0.0934143
0.168631 -0.176389 0.0859684
0.173566 -0.17723 0.0785143
0.178507 -0.178187 0.0702785
0.183812 -0.179262 0.0590533
0.189925 -0.18089 0.0421951
0.195544 -0.182448 0.0279508
0.20277 -0.18459 0.00119567
-0.266045 -0.179628 0.00205517
-0.258582 -0.178267 0.0231211
-0.252685 -0.177198 0.0341507
-0.247356 -0.176589 0.042769
-0.241764 -0.175326 0.0507814
-0.236916 -0.175569 0.055761
-0.231541 -0.174815 0.0625919
-0.226619 -0.174441 0.0683326
-0.221347 -0.173955 0.0741695
-0.21684 -0.173123 0.0786262
-0.211614 -0.172983 0.0856245
-0.206969 -0.172698 0.0900602
-0.201733 -0.172004 0.0961039
-0.197321 -0.171379 0.100133
-0.192154 -0.171116 0.105309
-0.187904 -0.170578 0.108975
-0.182994 -0.170507 0.113884
-0.17864 -0.169714 0.11819
-0.173601 -0.169079 0.122892
-0.168979 -0.168892 0.127372
-0.164327 -0.1683 0.131019
-0.159477 -0.168236 0.136115
-0.155241 -0.167961 0.138756
-0.150562 -0.167409 0.144287
-0.146328 -0.167171 0.148347
-0.141921 -0.166502 0.152046
-0.136847 -0.165833 0.157536
-0.133008 -0.166191 0.16004
-0.128539 -0.1653 0.164951
-0.124216 -0.165188 0.168446
-0.1197 -0.164333 0.173215
-0.115241 -0.164615 0.177068
-0.111254 -0.163948 0.180956
-0.106472 -0.163627 0.184876
-0.101984 -0.163725 0.188826
-0.0975579 -0.163035 0.193165
-0.0936006 -0.162627 0.195944
-0.089356 -0.162138 0.199044
-0.0850801 -0.162183 0.202996
-0.0805455 -0.161647 0.206044
-0.076972 -0.161641 0.208905
-0.0723823 -0.161837 0.21192
-0.0683189 -0.161174 0.215479
-0.064008 -0.160461 0.218462
-0.0604061 -0.160468 0.221826
-0.0558543 -0.160019 0.225725
-0.0518735 -0.159726 0.229601
-0.0477658 -0.159376 0.232982
-0.0437121 -0.158987 0.236029
-0.0397874 -0.158572 0.239538
-0.0355611 -0.158911 0.242145
-0.0321118 -0.158141 0.245252
-0.0274397 -0.157518 0.249018
-0.0234851 -0.157507 0.252161
-0.0196613 -0.157062 0.256065
-0.0157875 -0.15682 0.259407
-0.0121433 -0.156932 0.261472
-0.00794547 -0.156531 0.266226
-0.00389455 -0.156242 0.269237
0.000257415 -0.155909 0.271134
0.00382791 -0.155608 0.273518
0.00805256 -0.155963 0.275295
0.0114479 -0.155252 0.275687
0.0153141 -0.155308 0.277042
0.019361 -0.155415 0.278476
0.0235954 -0.154924 0.279174
0.0270262 -0.154711 0.279535
0.0314803 -0.155021 0.279165
0.0346004 -0.155383 0.277033
0.0390957 -0.15518 0.27639
0.0426721 -0.155966 0.27525
0.0469589 -0.156079 0.270993
0.050566 -0.156324 0.267938
0.0545845 -0.156602 0.263134
0.0589619 -0.156844 0.259003
0.0628862 -0.157176 0.253567
0.0672441 -0.158078 0.248358
0.0712154 -0.158688 0.242989
0.0755797 -0.158827 0.237954
0.0793822 -0.159294 0.233112
0.0839567 -0.159745 0.228694
0.088403 -0.16027 0.222216
0.0924395 -0.160818 0.216046
0.0966948 -0.161347 0.211943
0.101108 -0.161834 0.206078
0.105999 -0.162569 0.198925
0.110029 -0.162728 0.19272
0.114763 -0.16364 0.185152
0.121481 -0.167831 0.142123
0.125614 -0.167862 0.136657
0.130676 -0.168758 0.131524
0.134852 -0.168634 0.128764
0.139765 -0.169074 0.122703
0.144486 -0.170015 0.117274
0.149103 -0.17014 0.110714
0.15373 -0.170467 0.106178
0.15886 -0.171498 0.0994158
0.163455 -0.172016 0.0935341
0.168922 -0.172626 0.0850422
0.173096 -0.173466 0.0794044
0.178582 -0.17425 0.0693855
0.183871 -0.175141 0.0575055
0.190051 -0.176731 0.0407619
0.196155 -0.178138 0.0239153
-0.264441 -0.174943 0.010496
-0.258355 -0.17364 0.024279
-0.253139 -0.172888 0.0339922
-0.247252 -0.172478 0.0427513
-0.241802 -0.171223 0.0508344
-0.236459 -0.170835 0.0574652
