ply
format ascii 1.0
element vertex 1698
property float x
property float y
property float z
end_header
0.134475 0.151143 0.19094
0.139338 0.15125 0.186468
0.143288 0.15172 0.183516
0.147619 0.151768 0.180436
0.152217 0.152112 0.176167
0.156827 0.15237 0.172624
0.161364 0.152483 0.167401
0.165731 0.153263 0.161836
0.170809 0.154123 0.155713
0.1752 0.154032 0.150796
0.180318 0.155344 0.142686
0.185252 0.155789 0.135313
0.190566 0.156507 0.124039
-0.168523 0.177797 -0.0768476
-0.16237 0.176167 -0.0598388
-0.156624 0.175557 -0.0449109
-0.151447 0.174678 -0.0338845
-0.145697 0.173071 -0.0203619
-0.140634 0.172105 -0.00853419
-0.135108 0.170683 0.00398469
-0.129571 0.169598 0.0182837
-0.124469 0.168941 0.029965
-0.119596 0.168127 0.0408884
-0.114598 0.167199 0.0513978
-0.109223 0.166198 0.0623631
-0.104529 0.165339 0.0712748
-0.0997022 0.164423 0.0819093
-0.0948068 0.163393 0.0908155
-0.0896654 0.162711 0.103374
-0.0851053 0.161886 0.11158
-0.0808174 0.161398 0.120431
-0.0755908 0.160088 0.13075
-0.0713211 0.159418 0.139825
-0.0667023 0.158808 0.148979
-0.0621571 0.157666 0.158228
-0.0574673 0.156883 0.169287
-0.0534662 0.155975 0.175704
-0.0491307 0.155644 0.184255
-0.0452428 0.155154 0.18906
-0.040345 0.154232 0.194463
-0.0363412 0.154369 0.200775
-0.0323147 0.153917 0.204359
-0.0283164 0.1534 0.207014
-0.0242006 0.152732 0.210737
-0.0199375 0.153167 0.212053
-0.0163189 0.153044 0.213701
-0.012111 0.152945 0.215111
-0.00828745 0.15274 0.21679
-0.00406275 0.152738 0.216223
0.000237592 0.15274 0.21729
0.0039354 0.152745 0.218236
0.00861601 0.152424 0.219357
0.0116895 0.15236 0.219959
0.0159215 0.152415 0.219728
0.0201268 0.15271 0.21918
0.0240923 0.152695 0.219844
0.0280013 0.152779 0.220073
0.0321744 0.152322 0.220619
0.035932 0.152888 0.219887
0.0397161 0.152136 0.220274
0.0438751 0.152887 0.219928
0.0481602 0.152581 0.218913
0.0523006 0.152863 0.219319
0.0556791 0.152518 0.218547
0.0606799 0.152834 0.217667
0.0639964 0.152823 0.21743
0.0683069 0.152828 0.218124
0.0727072 0.153106 0.215964
0.0765902 0.152522 0.215701
0.0805132 0.153014 0.214661
0.0846403 0.152548 0.213432
0.0888923 0.153215 0.212338
0.0926151 0.152956 0.212044
0.0967743 0.153207 0.21025
0.100942 0.153682 0.208588
0.105263 0.153726 0.206154
0.10935 0.153701 0.204731
0.113739 0.153782 0.202292
0.117597 0.153978 0.200494
0.122144 0.154182 0.198881
0.12598 0.154819 0.195067
0.1302 0.155096 0.192727
0.135072 0.155295 0.188228
0.139234 0.155653 0.185035
0.14373 0.155958 0.181162
0.148036 0.156237 0.178099
0.152524 0.156814 0.172811
0.15666 0.157126 0.169413
0.161568 0.157267 0.16491
0.16564 0.157605 0.159828
0.170608 0.158329 0.154441
0.175827 0.15883 0.14642
0.18051 0.159486 0.139692
0.185355 0.160304 0.13153
0.190434 0.161243 0.120216
-0.168426 0.182383 -0.0753226
-0.162416 0.181283 -0.0581195
-0.156929 0.179788 -0.0452974
-0.151376 0.178768 -0.0322845
-0.145306 0.177359 -0.0180581
-0.139697 0.176279 -0.00548148
-0.134625 0.175064 0.00764728
-0.129561 0.174352 0.0186878
-0.124161 0.172754 0.030899
-0.119014 0.172203 0.0424992
-0.113799 0.171031 0.0531919
-0.109658 0.170564 0.0615168
-0.104517 0.169082 0.0726572
-0.0993482 0.169021 0.0824487
-0.0946117 0.167645 0.0909324
-0.0899292 0.167055 0.101428
-0.0851524 0.166298 0.111694
-0.0802165 0.165134 0.122287
-0.0758102 0.164454 0.131071
-0.0710091 0.16355 0.140452
-0.0662881 0.162733 0.149548
-0.0622407 0.161824 0.159059
-0.0577733 0.160806 0.169099
-0.0536109 0.160345 0.176301
-0.048838 0.15954 0.184956
-0.0448865 0.159277 0.190317
-0.0408002 0.15875 0.195084
-0.0362501 0.158357 0.200014
-0.0320764 0.157935 0.20344
-0.0277962 0.157295 0.207956
-0.0243425 0.157544 0.209072
-0.0200033 0.15678 0.211454
-0.0163219 0.157218 0.212443
-0.0124691 0.156994 0.213069
-0.00829248 0.156842 0.21351
-0.00408376 0.15725 0.215871
0.000398511 0.156908 0.217094
0.00386419 0.157083 0.215907
0.00752798 0.157132 0.217381
0.0121612 0.156631 0.21767
0.0162188 0.157193 0.21843
0.0199537 0.156991 0.218108
0.0243093 0.156359 0.218438
0.027622 0.156393 0.218914
0.0324582 0.156309 0.218464
0.0363495 0.15687 0.217677
0.0399051 0.156742 0.218449
0.0441459 0.157051 0.218479
0.048251 0.156618 0.218663
0.0522074 0.15673 0.217813
0.0562142 0.156808 0.217855
0.0602466 0.156926 0.216197
0.0643561 0.156739 0.216876
0.0684919 0.156883 0.214662
0.0722308 0.156838 0.215581
0.0767797 0.157118 0.214078
0.0805117 0.157276 0.213343
0.0845814 0.15709 0.212755
0.0884646 0.15729 0.211777
0.0928811 0.157508 0.209973
0.0969654 0.157673 0.208524
0.10124 0.157742 0.206626
0.10531 0.157955 0.204856
0.109149 0.157968 0.204321
0.113531 0.157906 0.2012
0.117725 0.158516 0.199722
0.12219 0.158752 0.197663
0.126173 0.158967 0.194301
0.130543 0.159199 0.190884
0.13498 0.159554 0.186711
0.139505 0.159783 0.182953
0.143517 0.159761 0.179596
0.148038 0.160451 0.175593
0.152332 0.160851 0.1712
0.157504 0.161493 0.165236
0.161427 0.161587 0.161987
0.166178 0.1622 0.156954
0.171256 0.162729 0.149609
0.175922 0.162957 0.144283
0.180351 0.164062 0.136139
0.186357 0.164835 0.126071
-0.168447 0.187169 -0.0734015
-0.162701 0.18558 -0.0576651
-0.156501 0.184109 -0.0426471
-0.151625 0.183253 -0.0317056
-0.145874 0.181669 -0.019582
-0.140408 0.180992 -0.00661635
-0.135015 0.179673 0.00734937
-0.129441 0.178374 0.0193781
-0.124096 0.177163 0.0329845
-0.119427 0.176419 0.0423528
-0.114457 0.175713 0.0521772
-0.10925 0.174959 0.0623559
-0.104136 0.173743 0.0737592
-0.0989567 0.173063 0.0837343
-0.0949199 0.172242 0.091874
-0.0899115 0.171115 0.102106
-0.0850179 0.170265 0.112186
-0.0802173 0.1694 0.122405
-0.0759349 0.168579 0.131286
-0.0712773 0.16765 0.140665
-0.0667131 0.167168 0.14999
-0.0620952 0.166318 0.159591
-0.0581477 0.165571 0.168177
-0.0534063 0.164867 0.177081
-0.0494662 0.163899 0.184245
-0.0445685 0.16355 0.191421
-0.0404909 0.162575 0.195454
-0.0366136 0.162598 0.19978
-0.0324962 0.161988 0.203603
-0.0281636 0.161878 0.207742
-0.0240769 0.161521 0.209615
-0.0197786 0.161387 0.209096
-0.0166461 0.161456 0.211218
-0.0121313 0.161335 0.211237
-0.00798978 0.161096 0.213527
-0.00395879 0.161276 0.213817
7.87558e-05 0.160821 0.214455
0.00412015 0.160645 0.215678
0.00805268 0.161061 0.214596
0.011961 0.160817 0.215962
0.0160011 0.160862 0.21727
0.0204774 0.161111 0.216323
0.0240086 0.161028 0.216383
0.0283094 0.160756 0.216302
0.0321701 0.161008 0.217092
0.0361057 0.160558 0.217397
0.040413 0.160589 0.217336
0.0440993 0.161145 0.216189
0.0481613 0.160631 0.216546
0.0523656 0.160987 0.214593
0.0560453 0.160916 0.215223
0.060339 0.160573 0.215948
0.0647924 0.161122 0.214877
0.0688838 0.16101 0.213861
0.0725334 0.160899 0.214069
0.0759485 0.160992 0.212902
0.0808769 0.161537 0.210688
0.0847598 0.161482 0.21096
0.0889554 0.161857 0.209484
0.0926316 0.161163 0.209203
0.0972686 0.161584 0.20777
0.101046 0.161535 0.206408
0.105207 0.161858 0.204938
0.109595 0.162326 0.202029
0.113416 0.162551 0.200034
0.117961 0.163074 0.196256
0.122079 0.162931 0.194643
0.126386 0.163221 0.191588
0.130804 0.163421 0.187527
0.135209 0.163631 0.183096
0.139332 0.164317 0.180321
0.144053 0.164718 0.176457
0.148097 0.165088 0.173162
0.152943 0.165246 0.168164
0.157344 0.165649 0.163676
0.162271 0.165841 0.158824
0.166699 0.166312 0.154305
0.171305 0.166801 0.147945
0.176319 0.16774 0.139909
0.181127 0.168604 0.131959
0.187202 0.169388 0.119169
-0.174108 0.193366 -0.0902998
-0.168174 0.191498 -0.070941
-0.162234 0.189718 -0.0552888
-0.156568 0.188849 -0.0413389
-0.15097 0.187582 -0.0297914
-0.145804 0.186992 -0.0186353
-0.140282 0.185441 -0.00541258
-0.135241 0.184244 0.00665534
-0.129319 0.183237 0.0190225
-0.124439 0.181964 0.0309362
-0.118864 0.180753 0.0442681
-0.114042 0.180147 0.0536711
-0.109412 0.17898 0.0629109
-0.104482 0.178326 0.0736443
-0.0989787 0.177167 0.0844364
-0.0953206 0.176356 0.0915064
-0.0902271 0.175682 0.101959
-0.0851682 0.174064 0.112491
-0.0804891 0.173833 0.122591
-0.076209 0.172854 0.131219
-0.0714012 0.172418 0.140972
-0.0665776 0.171176 0.151252
-0.0619001 0.169862 0.161966
-0.0576774 0.169177 0.169642
-0.0537405 0.168878 0.177116
-0.0491738 0.168006 0.184059
-0.0448813 0.167022 0.190378
-0.0403833 0.166935 0.196024
-0.0366612 0.166541 0.198621
-0.0328629 0.166338 0.202251
-0.0284487 0.16605 0.20541
-0.0244189 0.165926 0.206846
-0.0200849 0.165771 0.209047
-0.0160688 0.165233 0.210988
-0.0119982 0.165361 0.210417
-0.0079789 0.165575 0.211478
-0.00388551 0.165568 0.211775
4.34423e-05 0.165107 0.213624
0.00405572 0.165415 0.213793
0.00788552 0.16489 0.214759
0.0123073 0.165127 0.214319
0.0160665 0.165131 0.215535
0.0201509 0.164667 0.215618
0.0243965 0.165244 0.215356
0.0278655 0.164881 0.215848
0.0319592 0.164829 0.215887
0.0359601 0.165201 0.214888
0.0402593 0.165036 0.214945
0.0445797 0.165042 0.214434
0.0482037 0.165295 0.213745
0.0524034 0.165394 0.212912
0.0563872 0.165084 0.212946
0.0601119 0.164966 0.213242
0.0644572 0.165272 0.213468
0.0683738 0.165396 0.211561
0.0724308 0.165638 0.211104
0.0766837 0.165463 0.210116
0.0809018 0.165749 0.209088
0.0844343 0.165554 0.208418
0.0890149 0.165621 0.206689
0.0927773 0.165444 0.206721
0.0971883 0.166121 0.204024
0.101366 0.165728 0.20412
0.105558 0.16642 0.200888
0.109958 0.166383 0.199226
0.114005 0.166973 0.196464
0.118138 0.167292 0.193725
0.122608 0.166995 0.190505
0.126535 0.167413 0.188634
0.130942 0.167896 0.185089
0.13502 0.168195 0.181207
0.140002 0.168123 0.17739
0.144352 0.169015 0.173329
0.149195 0.169238 0.168571
0.152955 0.16982 0.16578
0.157406 0.170005 0.161224
0.162329 0.170707 0.156285
0.166921 0.170962 0.150548
0.171184 0.171199 0.145351
0.176278 0.1722 0.136881
0.18177 0.173154 0.126595
0.187654 0.174633 0.11231
-0.173438 0.197166 -0.0791087
-0.167876 0.195847 -0.0673137
-0.162112 0.1946 -0.0534594
-0.156314 0.193345 -0.0406168
-0.151414 0.192419 -0.0310893
-0.145807 0.190979 -0.0170367
-0.139762 0.189354 -0.00277424
-0.134995 0.188449 0.00814474
-0.128668 0.187532 0.0224768
-0.124151 0.185862 0.032849
-0.118919 0.185252 0.043969
-0.114032 0.184213 0.0546629
-0.108913 0.183141 0.0647476
-0.104008 0.182201 0.0737538
-0.0994 0.18135 0.0839778
-0.0941844 0.180547 0.0943896
-0.0904102 0.179739 0.101953
-0.0850748 0.178598 0.113271
-0.0803081 0.177713 0.123697
-0.0759102 0.176612 0.132142
-0.0710134 0.175692 0.142762
-0.0669848 0.174978 0.150782
-0.0625379 0.174416 0.160483
-0.0578202 0.173498 0.16961
-0.053599 0.17286 0.177361
-0.0489178 0.172115 0.184498
-0.0451016 0.171359 0.189527
-0.0409316 0.170653 0.194698
-0.0365262 0.170342 0.198177
-0.032493 0.170458 0.201614
-0.0284144 0.16972 0.204897
-0.0245006 0.170134 0.205377
-0.0199618 0.170005 0.207517
-0.0161287 0.169316 0.209122
-0.0119499 0.169539 0.208864
-0.007969 0.1698 0.209918
-0.00411338 0.169476 0.2102
-0.00011984 0.169351 0.211219
0.00392067 0.16949 0.212166
0.00803958 0.168887 0.212966
0.0117611 0.168942 0.213468
0.0159525 0.169227 0.214003
0.020184 0.169255 0.212972
0.024078 0.169143 0.214632
0.027998 0.16913 0.213676
0.0321481 0.169182 0.214018
0.0362193 0.169551 0.212696
0.0401842 0.169251 0.213416
0.0442353 0.169371 0.212214
0.0481291 0.169574 0.212822
0.0523388 0.169311 0.211121
0.05652 0.169128 0.211311
0.0608898 0.169682 0.210858
0.0645697 0.169731 0.209534
0.0688274 0.169945 0.209578
0.0722702 0.169646 0.208571
0.0768599 0.169803 0.207431
0.0809692 0.170148 0.205679
0.0845737 0.169906 0.205563
0.0895847 0.170522 0.203197
0.0933596 0.170548 0.201759
0.0974206 0.170165 0.201162
0.101366 0.170636 0.199512
0.105937 0.17104 0.196687
0.109599 0.170737 0.194944
0.113949 0.171205 0.193032
0.118554 0.171406 0.190028
0.122528 0.172102 0.187707
0.126617 0.17162 0.185876
0.131071 0.172132 0.182222
0.135601 0.172629 0.179095
0.139818 0.172753 0.175155
0.144672 0.173268 0.172067
0.148956 0.173728 0.167585
0.153209 0.174086 0.163316
0.157668 0.174087 0.159625
0.162119 0.174947 0.154616
0.167137 0.175526 0.147623
0.171667 0.1763 0.141693
0.17727 0.177017 0.131688
0.182059 0.177481 0.122491
0.187633 0.179339 0.106354
-0.178815 0.202273 -0.0870857
-0.17336 0.201132 -0.0733895
-0.167673 0.200147 -0.0626426
-0.162007 0.199175 -0.0515711
-0.156856 0.197575 -0.0414274
-0.150795 0.196679 -0.0278008
-0.145345 0.195378 -0.0152171
-0.1397 0.194121 -0.00112581
-0.134904 0.192928 0.00880861
-0.129392 0.192089 0.0214537
-0.124466 0.190584 0.0319502
-0.118893 0.189709 0.0449629
-0.114241 0.18901 0.0536051
-0.109348 0.187567 0.0641657
-0.104053 0.186679 0.0754598
-0.0991941 0.18586 0.0839578
-0.0940308 0.184694 0.0955396
-0.0897567 0.184158 0.103895
-0.0853071 0.182713 0.113366
-0.0802199 0.181892 0.123558
-0.0755595 0.18107 0.133413
-0.0711609 0.18016 0.142124
-0.0669832 0.179239 0.150808
-0.0616811 0.17816 0.16278
-0.0575624 0.177563 0.170599
-0.0531 0.176396 0.178023
-0.0493063 0.175912 0.183247
-0.0449712 0.175501 0.188765
-0.0403367 0.175176 0.194231
-0.0364568 0.175154 0.197686
-0.0325534 0.174748 0.199576
-0.0282628 0.174488 0.201988
-0.0239923 0.174073 0.204762
-0.0203338 0.174113 0.205525
-0.0161888 0.173345 0.206868
-0.0117687 0.173862 0.206889
-0.00812364 0.17413 0.207108
-0.00379871 0.173764 0.209381
-9.72695e-05 0.173724 0.210624
0.00411752 0.17358 0.211182
0.0080146 0.173703 0.211458
0.0121016 0.173353 0.211208
0.0165885 0.173377 0.211424
0.0202555 0.173487 0.212623
0.0241447 0.173796 0.211735
0.0278577 0.173341 0.211949
0.0325619 0.173672 0.212588
0.0363261 0.173517 0.211693
0.0403683 0.17322 0.212012
0.0447058 0.17309 0.21123
0.0487088 0.173623 0.210599
0.0523718 0.173831 0.209352
0.0568439 0.173722 0.208987
0.0606133 0.173748 0.208452
0.0644876 0.173972 0.208696
0.0685543 0.174281 0.20698
0.07292 0.174002 0.205539
0.076809 0.174518 0.204386
0.0811184 0.174269 0.204174
0.0854528 0.174376 0.201938
0.08931 0.174712 0.201527
0.0928977 0.174985 0.200073
0.0976585 0.175156 0.197682
0.101764 0.175173 0.195972
0.105952 0.174996 0.194495
0.110119 0.175158 0.192238
0.113996 0.175413 0.190865
0.1185 0.175552 0.188887
0.122513 0.175968 0.186326
0.127074 0.176448 0.182745
0.131523 0.176662 0.180462
0.135859 0.176308 0.177423
0.139856 0.176882 0.174064
0.144459 0.177423 0.170321
0.148954 0.177689 0.165998
0.153498 0.178236 0.161639
0.158021 0.178741 0.156709
0.162122 0.179791 0.151146
0.167635 0.180042 0.144137
0.172834 0.180972 0.135697
0.177267 0.181955 0.127296
0.182546 0.182595 0.115322
-0.183206 0.206717 -0.0849903
-0.177731 0.205714 -0.0747957
-0.172811 0.205243 -0.0663822
-0.166915 0.204182 -0.0580854
-0.161909 0.203185 -0.0495374
-0.156475 0.202422 -0.0396879
-0.150918 0.200724 -0.0283306
-0.145907 0.19993 -0.0170188
-0.139957 0.198495 -0.00159287
-0.134837 0.197854 0.00957525
-0.129271 0.196357 0.0216075
-0.124464 0.195336 0.0328462
-0.119205 0.194127 0.0442533
-0.114119 0.193124 0.0544108
-0.109155 0.191838 0.0645137
-0.104458 0.190966 0.0736346
-0.0990525 0.189979 0.0852611
-0.0952729 0.18935 0.0921429
-0.0898667 0.18793 0.104759
-0.0851835 0.187309 0.113348
-0.0802838 0.185789 0.123136
-0.0759366 0.185253 0.132533
-0.0709611 0.184458 0.14333
-0.066894 0.183014 0.151908
-0.0624935 0.182804 0.160449
-0.0576912 0.181495 0.16993
-0.0532245 0.181191 0.177514
-0.0489709 0.180425 0.183678
-0.0446682 0.180239 0.188523
-0.040821 0.179371 0.192763
-0.0363775 0.178754 0.196494
-0.0322499 0.178821 0.198724
-0.0284058 0.178395 0.201297
-0.0243094 0.178555 0.20233
-0.0204886 0.178123 0.203392
-0.0165487 0.178209 0.204917
-0.0120972 0.177933 0.206136
-0.0080268 0.17824 0.206779
-0.00425201 0.177715 0.207163
-0.000303464 0.177782 0.208559
0.00403372 0.177596 0.209002
0.00790262 0.17736 0.209969
0.0124293 0.177764 0.210764
0.0160604 0.177616 0.20969
0.02021 0.177604 0.209967
0.0243786 0.177196 0.211123
0.0282595 0.177574 0.211557
0.0321562 0.177433 0.2105
0.036401 0.177795 0.210676
0.0400141 0.177446 0.209744
0.0443543 0.177512 0.210328
0.0486068 0.177498 0.209326
0.0522688 0.177736 0.20918
0.0567534 0.177803 0.207286
0.0609382 0.177818 0.207431
0.064471 0.177739 0.207275
0.0687464 0.178267 0.206023
0.0728191 0.177952 0.204468
0.0770169 0.178081 0.204114
0.0814008 0.178115 0.201559
0.0851093 0.17849 0.201291
0.089241 0.17878 0.199951
0.0933572 0.17879 0.197946
0.0971604 0.178687 0.195942
0.101694 0.179132 0.194442
0.105939 0.179261 0.191952
0.110052 0.178965 0.190445
0.114594 0.179504 0.189096
0.11871 0.180184 0.186422
0.122932 0.179996 0.184527
0.126741 0.180682 0.182327
0.131492 0.180238 0.178782
0.135731 0.180904 0.175459
0.140076 0.18115 0.171699
0.144396 0.181752 0.168033
0.149361 0.182188 0.16349
0.153456 0.182441 0.158979
0.158307 0.183139 0.153871
0.162639 0.183777 0.147128
0.167498 0.184524 0.141039
0.17227 0.185251 0.132933
0.177852 0.186694 0.120885
0.183792 0.18834 0.104199
-0.19415 0.212973 -0.0985856
-0.187634 0.211212 -0.0809269
-0.182153 0.210288 -0.0733342
-0.177111 0.209189 -0.0670335
-0.171772 0.208887 -0.0588896
-0.166409 0.208044 -0.0537088
-0.161427 0.207788 -0.0473866
-0.15608 0.207583 -0.0377791
-0.150674 0.205446 -0.0260644
-0.145492 0.204043 -0.0145886
-0.140303 0.203203 -0.0027411
-0.134264 0.201796 0.0115359
-0.129812 0.201037 0.0207222
-0.124285 0.199694 0.0328916
-0.11868 0.19787 0.0455167
-0.114004 0.197344 0.0552988
-0.109194 0.196545 0.0639884
-0.104549 0.195339 0.0744308
-0.0988777 0.194244 0.0867316
-0.0946326 0.193389 0.0949745
-0.0903905 0.192554 0.103197
-0.0851757 0.191301 0.114274
-0.0807169 0.189865 0.122607
-0.0753778 0.18933 0.134181
-0.0716986 0.18823 0.141943
-0.0670511 0.187216 0.152284
-0.0626498 0.186624 0.160927
-0.0577867 0.185855 0.170453
-0.0534803 0.184958 0.177141
-0.049265 0.184401 0.182806
-0.0449673 0.184086 0.18788
-0.0408399 0.183484 0.191768
-0.0367986 0.182924 0.194704
-0.0323189 0.183019 0.197581
-0.0282688 0.182611 0.199782
-0.0246667 0.182742 0.20095
-0.0202595 0.182874 0.202032
-0.0161128 0.18239 0.202724
-0.0120394 0.18264 0.204101
-0.00820154 0.182186 0.204839
-0.00421513 0.18168 0.206398
-0.000247154 0.181703 0.206504
0.00435559 0.182035 0.206931
0.00804816 0.181748 0.208163
0.0126302 0.181664 0.208974
0.0159176 0.181915 0.209116
0.0201178 0.181666 0.209577
0.0242338 0.181767 0.209547
0.0283839 0.181519 0.209118
0.0321833 0.181978 0.209242
0.0363611 0.181861 0.208784
0.0400879 0.182276 0.207846
0.0443137 0.181795 0.208037
0.0483987 0.181835 0.208338
0.0524931 0.181832 0.207974
0.05711 0.182008 0.207108
0.060807 0.182088 0.206172
0.0647691 0.182513 0.206413
0.0690493 0.182204 0.204013
0.0730494 0.182288 0.202404
0.0771507 0.182266 0.203591
0.0810416 0.182715 0.201576
0.0852924 0.18276 0.200795
0.0892519 0.182765 0.199464
0.0937241 0.183194 0.196048
0.0975882 0.183417 0.194083
0.101906 0.183278 0.192917
0.106266 0.183284 0.190722
0.110412 0.184062 0.189357
0.114482 0.184148 0.187529
0.118707 0.184187 0.184291
0.122718 0.184749 0.183068
0.127383 0.18518 0.180046
0.131554 0.184574 0.178325
0.13605 0.185325 0.173164
0.140339 0.186303 0.169632
0.144513 0.186027 0.166466
0.149356 0.186617 0.160739
0.153948 0.187286 0.156468
0.158312 0.187422 0.150699
0.163135 0.188146 0.145143
0.167927 0.188976 0.136663
0.173561 0.190234 0.126093
0.179243 0.191806 0.11182
-0.19741 0.216933 -0.0873225
-0.19253 0.2158 -0.0809126
-0.186873 0.214979 -0.0705094
-0.181778 0.213832 -0.0644619
-0.176186 0.213561 -0.0585134
-0.171094 0.213376 -0.0527992
-0.166411 0.212644 -0.0501027
-0.161332 0.211659 -0.0441363
-0.156514 0.211464 -0.0362933
-0.151118 0.210062 -0.0261483
-0.145336 0.20872 -0.0135698
-0.139868 0.207492 -0.000246286
-0.133519 0.205874 0.013105
-0.129269 0.205139 0.0230321
-0.124412 0.203957 0.0327631
-0.118975 0.20278 0.0451655
-0.113879 0.201671 0.0550321
-0.109147 0.200758 0.0643779
-0.104272 0.199545 0.0746297
-0.0992189 0.198802 0.0851295
-0.0941611 0.197374 0.0963945
-0.0898544 0.196848 0.104675
-0.0852013 0.195841 0.114538
-0.0798452 0.194183 0.12535
-0.0755827 0.193508 0.134103
-0.0708104 0.192414 0.144982
-0.0665896 0.191719 0.152902
-0.0621866 0.190806 0.161398
-0.0577807 0.189799 0.169737
-0.0537824 0.189116 0.176167
-0.0493567 0.188395 0.183518
-0.0447379 0.188473 0.187414
-0.0407504 0.187437 0.191137
-0.0366101 0.187279 0.193199
-0.0324753 0.18713 0.194837
-0.0288372 0.187181 0.197141
-0.0244895 0.186832 0.198746
-0.0203701 0.186648 0.201123
-0.0161097 0.186876 0.201399
-0.0119124 0.186462 0.203986
-0.00849812 0.18643 0.203216
-0.00440537 0.186365 0.204938
-0.000325278 0.186348 0.20485
0.00409721 0.186021 0.206164
0.00802609 0.185858 0.206842
0.0121994 0.186114 0.207616
0.0158834 0.186101 0.207935
0.0205009 0.185647 0.2078
0.0239721 0.185762 0.207714
0.0287392 0.18625 0.20744
0.0321754 0.185812 0.208787
0.0366086 0.185784 0.207739
0.0403222 0.18589 0.20759
0.0445895 0.185992 0.205871
0.048537 0.18628 0.206329
0.0525376 0.186215 0.206489
0.0565151 0.186455 0.204878
0.0609101 0.186356 0.20503
0.0652931 0.18659 0.204131
0.0688479 0.186091 0.203764
0.0729588 0.186767 0.202645
0.0767134 0.186216 0.201939
0.0811343 0.186927 0.199494
0.085377 0.186963 0.197814
0.0898191 0.186729 0.198552
0.0938167 0.186942 0.195978
0.0980215 0.187312 0.194696
0.101654 0.187638 0.192595
0.10598 0.187547 0.190614
0.110166 0.187886 0.189903
0.1148 0.188402 0.18727
0.118696 0.18856 0.184825
0.122921 0.188193 0.183334
0.127245 0.188577 0.180074
0.131446 0.1892 0.176979
0.135608 0.189784 0.173731
0.140253 0.189648 0.168763
0.144651 0.190532 0.164604
0.149175 0.190722 0.158821
0.154414 0.191719 0.152246
0.159332 0.192802 0.144896
0.163963 0.193289 0.138062
0.16863 0.194031 0.129962
0.174139 0.195287 0.119985
0.179562 0.196418 0.104395
-0.202418 0.221885 -0.0884418
-0.196894 0.220664 -0.0781231
-0.191681 0.219311 -0.0707874
-0.18557 0.218202 -0.0633819
-0.180815 0.218078 -0.0574853
-0.176123 0.217812 -0.0526984
-0.17094 0.217174 -0.0489824
-0.166266 0.217074 -0.0452156
-0.161189 0.216249 -0.0412514
-0.155718 0.215444 -0.03508
-0.150673 0.214946 -0.0251663
-0.145589 0.21363 -0.0132904
-0.139811 0.212057 -0.000813961
-0.134333 0.210741 0.0113039
-0.129352 0.209985 0.022249
-0.124459 0.208527 0.032456
-0.119059 0.207248 0.0443864
-0.114232 0.206136 0.0543349
-0.108833 0.205074 0.0656458
-0.103848 0.203981 0.0759832
-0.0992071 0.202944 0.0852687
-0.0945625 0.201832 0.0948628
-0.0895132 0.200912 0.10491
-0.0846232 0.199781 0.115194
-0.0805461 0.198666 0.12402
-0.0752636 0.197539 0.135764
-0.0709803 0.196953 0.143865
-0.0663973 0.195367 0.153803
-0.0620309 0.194617 0.161693
-0.0575572 0.194073 0.170611
-0.0536975 0.19297 0.176799
-0.0492109 0.192649 0.182172
-0.0451169 0.191916 0.186189
-0.0408726 0.191869 0.189361
-0.0368611 0.191813 0.191554
-0.0323247 0.191126 0.194172
-0.028382 0.191428 0.195241
-0.0247569 0.191234 0.197429
-0.0201175 0.190978 0.197629
-0.0163849 0.1907 0.200302
-0.011803 0.19044 0.201186
-0.00824304 0.190316 0.202464
-0.00415493 0.190303 0.203028
-0.000110093 0.190335 0.203263
0.00454159 0.190021 0.204806
0.00819102 0.190645 0.204003
0.0120403 0.189912 0.206242
0.0158853 0.190216 0.205939
0.0203116 0.190082 0.206709
0.0243389 0.190012 0.206219
0.0288564 0.189892 0.206422
0.0323396 0.190402 0.205687
0.0363649 0.190279 0.205637
0.040479 0.190419 0.205271
0.044243 0.190247 0.206279
0.0483638 0.1899 0.204957
0.052548 0.190396 0.20412
0.0568733 0.190429 0.203432
0.0606038 0.190119 0.204468
0.0650302 0.190591 0.203358
0.069155 0.190309 0.202033
0.0727914 0.190491 0.201746
0.0769947 0.190921 0.200725
0.0810245 0.191212 0.198446
0.085263 0.191627 0.197076
0.089438 0.191182 0.1973
0.0933519 0.191028 0.196687
0.0976427 0.191274 0.194303
0.101843 0.191528 0.193309
0.106141 0.191884 0.190997
0.110281 0.191971 0.188866
0.114398 0.191985 0.18675
0.118452 0.192473 0.185224
0.123033 0.192563 0.182323
0.127497 0.193418 0.177829
0.13162 0.193573 0.174161
0.13626 0.194383 0.167577
0.140764 0.195263 0.162298
0.145572 0.195695 0.15669
0.150344 0.195941 0.151732
0.15484 0.196713 0.145907
0.159217 0.196982 0.14026
0.164693 0.197794 0.132491
0.168883 0.198547 0.124843
0.17428 0.200002 0.11269
0.181011 0.202148 0.0912719
-0.20723 0.226565 -0.0905318
-0.202008 0.22513 -0.0799782
-0.196256 0.224341 -0.0711102
-0.190958 0.223398 -0.0636706
-0.185941 0.223004 -0.0588374
-0.180926 0.222313 -0.0526712
-0.175706 0.222119 -0.0488291
-0.170169 0.221608 -0.0435832
-0.165517 0.220944 -0.0419691
-0.161096 0.220249 -0.0381553
-0.156116 0.220418 -0.0341809
-0.150855 0.219581 -0.0249071
-0.144452 0.21752 -0.0104597
-0.139968 0.216556 -0.000822783
-0.134686 0.215469 0.0113151
-0.129464 0.214162 0.023257
-0.124525 0.212514 0.032977
-0.119435 0.211736 0.0436373
-0.114011 0.210793 0.0548978
-0.109156 0.209645 0.0651894
-0.104077 0.208238 0.0759199
-0.099157 0.207408 0.0858302
-0.0945697 0.206621 0.0942562
-0.0900076 0.204972 0.104662
-0.0854609 0.204499 0.113933
-0.0804046 0.203264 0.124869
-0.0758006 0.202208 0.133102
-0.0712522 0.201038 0.143924
-0.0668293 0.20033 0.152241
-0.0621009 0.199129 0.162696
-0.0577573 0.198401 0.169164
-0.0536565 0.197637 0.176714
-0.0493773 0.19703 0.1809
-0.0447088 0.196269 0.185937
-0.0408175 0.196061 0.18854
-0.0371988 0.195622 0.191299
-0.0324634 0.195819 0.191746
-0.0283635 0.1959 0.194159
-0.0244474 0.195386 0.194914
-0.0201351 0.19544 0.196549
-0.0161465 0.194925 0.198871
-0.0123192 0.194919 0.199538
-0.00823362 0.194439 0.201105
-0.00433285 0.195227 0.201197
-0.000194218 0.194708 0.201742
0.0043267 0.194954 0.202506
0.00798813 0.194652 0.20365
0.0122008 0.194699 0.203298
0.0162885 0.194122 0.204353
0.020433 0.19424 0.204232
0.0242046 0.194609 0.204573
0.0284819 0.194413 0.203667
0.0323542 0.194365 0.20364
0.0366841 0.194388 0.203464
0.0405353 0.194506 0.203961
0.0449469 0.194346 0.20428
0.0486673 0.194835 0.202677
0.0527933 0.194871 0.201305
0.0568305 0.195031 0.200092
0.0605687 0.194762 0.200856
0.0651162 0.19467 0.200739
0.0688951 0.194965 0.198989
0.073394 0.195557 0.197307
0.0769805 0.195001 0.19818
0.0812932 0.195194 0.197242
0.0855862 0.195882 0.194494
0.0897369 0.195557 0.193688
0.0940099 0.196149 0.191468
0.0981953 0.195889 0.189945
0.101867 0.19594 0.189694
0.106581 0.196693 0.185361
0.110611 0.196617 0.184264
0.114598 0.197221 0.181086
0.118879 0.19699 0.178433
0.124035 0.198069 0.17285
0.12816 0.198291 0.169261
0.132775 0.198625 0.1652
0.137201 0.198623 0.161404
0.141243 0.1998 0.154811
0.145999 0.200222 0.149721
0.150944 0.200676 0.145057
0.155227 0.201251 0.139122
0.160202 0.202101 0.134288
0.164575 0.202494 0.127804
0.169735 0.203832 0.117501
0.175578 0.205487 0.102009
-0.207189 0.230334 -0.0852075
-0.200962 0.22946 -0.0737581
-0.196001 0.228315 -0.0653007
-0.19003 0.227316 -0.057523
-0.185222 0.226844 -0.0516956
-0.180113 0.22656 -0.0472767
-0.174837 0.225721 -0.04478
-0.170581 0.225651 -0.0421073
-0.165939 0.22524 -0.0391469
-0.16057 0.224926 -0.0355816
-0.155423 0.224654 -0.0320599
-0.150853 0.223768 -0.0242002
-0.145036 0.221907 -0.0116887
-0.139688 0.220496 0.00121021
-0.13473 0.219738 0.0123676
-0.12924 0.218516 0.0231856
-0.124107 0.216786 0.0342126
-0.119055 0.216078 0.0457246
-0.113904 0.214734 0.0551383
-0.109034 0.213656 0.0653358
-0.103918 0.212573 0.0754026
-0.099278 0.211502 0.0856657
-0.0946817 0.210253 0.0951604
-0.0900845 0.209382 0.104075
-0.0848389 0.20859 0.115409
-0.0803489 0.207281 0.124088
-0.0756507 0.206421 0.134285
-0.070853 0.204995 0.146089
-0.0664906 0.204054 0.153682
-0.0623687 0.203452 0.160799
-0.0579722 0.202386 0.169496
-0.0534993 0.201206 0.174938
-0.0490882 0.200892 0.17981
-0.045058 0.200492 0.184102
-0.0410658 0.200244 0.187015
-0.0370183 0.200228 0.189468
-0.0326221 0.200296 0.191007
-0.0286673 0.199492 0.193017
-0.024452 0.199734 0.193284
-0.0205703 0.199236 0.196038
-0.0162334 0.199481 0.196808
-0.0118507 0.19928 0.197019
-0.00798512 0.198928 0.197367
-0.00408656 0.199175 0.199552
-0.000149755 0.198993 0.200237
0.00383171 0.198464 0.201
0.007727 0.198404 0.202176
0.012307 0.198759 0.201194
0.0158854 0.198744 0.201017
0.0204228 0.198399 0.200999
0.0243395 0.19836 0.20218
0.0282115 0.199076 0.201091
0.0325536 0.19907 0.200704
0.036316 0.198769 0.200141
0.0403086 0.1993 0.198442
0.0448144 0.19917 0.197592
0.0489239 0.19881 0.197683
0.0531053 0.199359 0.196505
0.0569089 0.199391 0.196337
0.0612045 0.199678 0.194298
0.0653208 0.199774 0.192453
0.0693586 0.200315 0.191291
0.0735806 0.199947 0.190583
0.0773845 0.199772 0.190362
0.0822921 0.200605 0.186861
0.0859932 0.20047 0.186239
0.0900793 0.200124 0.186021
0.0941848 0.200392 0.184185
0.0983432 0.200906 0.18172
0.102489 0.200892 0.180776
0.106882 0.201378 0.177509
0.111216 0.201686 0.173509
0.11591 0.202139 0.17001
0.120223 0.203029 0.165309
0.124254 0.203385 0.162092
0.128796 0.203469 0.159436
0.13306 0.203741 0.154332
0.137618 0.204706 0.150707
0.142054 0.204688 0.146426
0.146534 0.20553 0.142132
0.150977 0.205489 0.138437
0.155859 0.206338 0.133424
0.160604 0.206762 0.12828
0.165276 0.207841 0.122112
0.170484 0.209378 0.110102
0.176749 0.211433 0.0894527
-0.212456 0.236033 -0.0940948
-0.206105 0.234512 -0.0787637
-0.200745 0.233416 -0.0693879
-0.195354 0.232452 -0.0604219
-0.189609 0.231655 -0.0536199
-0.184668 0.230984 -0.0481319
-0.179917 0.230643 -0.0440555
-0.174697 0.229845 -0.0414042
-0.170278 0.229659 -0.0383441
-0.165605 0.229468 -0.0375161
-0.160955 0.229306 -0.0347321
-0.155817 0.228827 -0.0318675
-0.150478 0.228047 -0.0231705
-0.144985 0.226907 -0.0117934
-0.139842 0.225623 0.000673771
-0.134542 0.224041 0.0116706
-0.129153 0.222508 0.0237243
-0.124054 0.221565 0.034294
-0.118686 0.220795 0.0456709
-0.114203 0.219595 0.0541228
-0.109599 0.2183 0.0637518
-0.104267 0.217422 0.0755869
-0.0992629 0.215906 0.0849538
-0.094866 0.214823 0.0941908
-0.0893774 0.213045 0.105518
-0.0851146 0.212857 0.113989
-0.0802201 0.21104 0.124438
-0.0758103 0.210053 0.134194
-0.0714765 0.209344 0.143972
-0.0662018 0.208318 0.153939
-0.0623271 0.207304 0.160558
-0.0578748 0.206544 0.168817
-0.053422 0.206144 0.174561
-0.0492193 0.205451 0.179438
-0.0451137 0.204705 0.183112
-0.0409353 0.204805 0.184956
-0.0370793 0.204502 0.18737
-0.0327557 0.204558 0.18853
-0.0286086 0.203975 0.190569
-0.0243024 0.203929 0.191768
-0.0205755 0.203448 0.19418
-0.016087 0.203625 0.19543
-0.0120792 0.20346 0.195083
-0.00826326 0.20366 0.196649
-0.00403354 0.203356 0.197924
-2.79287e-06 0.203437 0.197825
0.00397921 0.203563 0.197622
0.0080424 0.203107 0.198495
0.0120749 0.20337 0.197721
0.0161858 0.203374 0.197656
0.0205759 0.20324 0.198206
0.0243477 0.203155 0.197845
0.028613 0.203636 0.195533
0.0324714 0.203569 0.194848
0.0363849 0.203484 0.194999
0.0407221 0.203718 0.193321
0.0450871 0.204253 0.191669
0.0489611 0.204025 0.190688
0.05305 0.204404 0.189196
0.0574012 0.204261 0.187547
0.0614865 0.204354 0.187312
0.0653975 0.20452 0.185885
0.0696094 0.204822 0.183914
0.073926 0.205172 0.181188
0.0778953 0.205374 0.179801
0.0823941 0.205431 0.178702
0.0864624 0.205815 0.177155
0.0903545 0.205424 0.175864
0.0948483 0.206132 0.172595
0.0995606 0.206474 0.169705
0.103496 0.206714 0.167287
0.107156 0.206831 0.166007
0.111591 0.207121 0.163601
0.115645 0.207679 0.159979
0.120764 0.207845 0.157258
0.125027 0.208622 0.152756
0.129147 0.20901 0.149343
0.133799 0.208737 0.14735
0.138494 0.210035 0.141598
0.142914 0.210033 0.138454
0.147302 0.210104 0.135922
0.151754 0.210595 0.132538
0.156288 0.210875 0.128834
0.160544 0.211542 0.123456
0.165202 0.212586 0.116955
0.171223 0.214537 0.100541
0.177383 0.215969 0.0811749
-0.212783 0.240737 -0.0941784
-0.206084 0.238848 -0.0780113
-0.200663 0.238054 -0.0683644
-0.194959 0.236577 -0.0581303
-0.189472 0.235912 -0.0508149
-0.184334 0.235201 -0.0446393
-0.179834 0.234751 -0.0416121
-0.174737 0.234748 -0.0382843
-0.170354 0.234088 -0.0368402
-0.165164 0.234066 -0.0352056
-0.160898 0.23403 -0.0329952
-0.155998 0.233843 -0.0304797
-0.150527 0.232854 -0.0235088
-0.144855 0.231741 -0.0107994
-0.140176 0.229825 -0.00053668
-0.134663 0.228809 0.012498
-0.129287 0.227757 0.0232192
-0.123798 0.226004 0.0356663
-0.118883 0.224993 0.04489
-0.114067 0.223725 0.0559808
-0.109293 0.222434 0.0645102
-0.104497 0.221436 0.0751121
-0.0990012 0.219719 0.0860412
-0.0942305 0.218918 0.0956962
-0.0899577 0.217825 0.104055
-0.0851426 0.216767 0.114115
-0.0807495 0.215721 0.122811
-0.0756124 0.214725 0.135065
-0.0713045 0.213541 0.142992
-0.0665041 0.212411 0.153281
-0.0623938 0.21139 0.160233
-0.0579521 0.210777 0.167309
-0.0537843 0.209827 0.172715
-0.0491001 0.209674 0.177292
-0.045302 0.209348 0.18023
-0.040889 0.208997 0.183361
-0.0368191 0.208973 0.18558
-0.0325001 0.208502 0.187019
-0.0284965 0.208476 0.188329
-0.0245994 0.208013 0.190779
-0.0205849 0.207789 0.191945
-0.016165 0.207895 0.192072
-0.0123505 0.207708 0.193738
-0.00770917 0.207614 0.194103
-0.00380591 0.207567 0.194829
-0.00018117 0.207689 0.195058
0.00422913 0.207633 0.19504
0.0081805 0.207708 0.194416
0.0122966 0.2078 0.195176
0.0164963 0.207622 0.194217
0.0199934 0.207981 0.19304
0.0245331 0.207988 0.191082
0.0285836 0.208154 0.190489
0.0327049 0.208434 0.18833
0.0368342 0.208675 0.187492
0.0412312 0.208682 0.186103
0.0448921 0.208706 0.184988
0.0491381 0.2092 0.182826
0.0529709 0.208841 0.182989
0.0572211 0.209269 0.181785
0.0614809 0.209718 0.179066
0.0656537 0.209607 0.177838
0.0698445 0.209936 0.176744
0.0741309 0.210038 0.175287
0.0783981 0.209856 0.173243
0.0821933 0.210201 0.172163
0.0862363 0.210968 0.16957
0.0908212 0.210666 0.168435
0.0950021 0.211084 0.165962
0.0989274 0.210979 0.164251
0.103754 0.210995 0.163167
0.108114 0.211635 0.159132
0.111944 0.212302 0.155919
0.116815 0.212159 0.153237
0.12076 0.213278 0.149795
0.12524 0.213325 0.147203
0.129563 0.213333 0.145042
0.134482 0.213659 0.142109
0.138238 0.213943 0.140257
0.142725 0.214493 0.137263
0.147417 0.21473 0.134901
0.151741 0.214569 0.131127
0.156102 0.215383 0.127289
0.16144 0.216247 0.119225
0.166086 0.217157 0.110112
0.17276 0.22013 0.0881066
-0.212494 0.245014 -0.0918305
-0.205695 0.243417 -0.0760605
-0.200546 0.242465 -0.0672276
-0.194904 0.24161 -0.0566454
-0.188947 0.240416 -0.0475302
-0.184525 0.239509 -0.0430362
-0.179939 0.239049 -0.0391061
-0.174241 0.238838 -0.0364363
-0.170062 0.23864 -0.0353856
-0.164994 0.238885 -0.034102
-0.160295 0.237975 -0.0313621
-0.155888 0.238266 -0.0296841
-0.150599 0.237325 -0.0221393
-0.144734 0.236003 -0.0109134
-0.139971 0.234214 -0.000123501
-0.134665 0.232716 0.0123962
-0.1292 0.232265 0.0235804
-0.124305 0.230323 0.034214
-0.119111 0.229137 0.0458162
-0.1143 0.228031 0.0558432
-0.109132 0.226561 0.0655599
-0.104122 0.226086 0.0748814
-0.0995253 0.224901 0.0847979
-0.094484 0.223865 0.0955435
-0.0898585 0.222269 0.103541
-0.0845427 0.221127 0.115386
-0.0802482 0.220353 0.123277
-0.0755266 0.218764 0.134418
-0.0711108 0.217658 0.144432
-0.0663421 0.2165 0.153017
-0.0621866 0.215514 0.161514
-0.0582041 0.215219 0.165923
-0.0537861 0.214234 0.172475
-0.0491555 0.213569 0.17733
-0.0452569 0.213331 0.179025
-0.0408666 0.213218 0.181608
-0.037095 0.213054 0.183499
-0.0329837 0.212898 0.184225
-0.0288316 0.212641 0.186217
-0.0245292 0.212488 0.187786
-0.0201683 0.212281 0.189516
-0.0160739 0.211815 0.191699
-0.0125664 0.211925 0.191081
-0.00809334 0.212119 0.191576
-0.00435174 0.212063 0.191836
9.46327e-05 0.21219 0.191716
0.00433214 0.211531 0.192098
0.0081586 0.211965 0.191875
0.0124377 0.212306 0.190256
0.0162438 0.212475 0.188549
0.020428 0.212578 0.187693
0.0244263 0.212826 0.185691
0.028478 0.212942 0.18378
0.0328785 0.213018 0.182563
0.0370204 0.212803 0.181688
0.0408878 0.213283 0.180687
0.0452145 0.213366 0.179411
0.0489495 0.213346 0.17911
0.0536034 0.213708 0.176857
0.0571803 0.213597 0.176796
0.0616535 0.214173 0.174901
0.0660381 0.214107 0.172809
0.0703013 0.214069 0.171828
0.0740684 0.214194 0.17132
0.0783092 0.214454 0.170848
0.0829015 0.214769 0.169508
0.0867701 0.214582 0.167975
0.0909356 0.215288 0.166366
0.0953085 0.215567 0.164032
0.0996286 0.215602 0.161298
0.103662 0.215884 0.160336
0.107836 0.216011 0.157019
0.112505 0.216528 0.153323
0.116613 0.216433 0.151243
0.120766 0.217303 0.147548
0.12561 0.217542 0.144662
0.130237 0.218018 0.141554
0.13421 0.218087 0.140397
0.138796 0.218172 0.139362
0.143102 0.218715 0.135798
0.147068 0.218977 0.134446
0.151684 0.219274 0.130654
0.15644 0.219955 0.126845
0.160779 0.220189 0.120372
0.166753 0.222123 0.10641
0.173091 0.225424 0.0799447
-0.212449 0.250146 -0.0912819
-0.20674 0.248245 -0.0798957
-0.20035 0.247125 -0.0683095
-0.195335 0.246356 -0.0602267
-0.18917 0.244757 -0.046279
-0.184464 0.243899 -0.0414011
-0.179201 0.243691 -0.0383091
-0.174107 0.24338 -0.035496
-0.169716 0.243283 -0.0333226
-0.164981 0.243344 -0.0324144
-0.16048 0.242854 -0.0312676
-0.15549 0.242573 -0.0297341
-0.150803 0.241918 -0.0235782
-0.145102 0.240628 -0.0120857
-0.140004 0.238857 -0.000125885
-0.134697 0.237751 0.012587
-0.129355 0.236185 0.0232114
-0.124092 0.235192 0.0355244
-0.118977 0.233892 0.046098
-0.113481 0.232778 0.0573063
-0.109317 0.231421 0.0653571
-0.104218 0.230131 0.0753704
-0.0993025 0.228891 0.0852557
-0.0946437 0.227843 0.0946537
-0.0895654 0.226494 0.10471
-0.0848811 0.225404 0.114516
-0.080175 0.224283 0.12407
-0.0758214 0.223348 0.1331
-0.0711525 0.222033 0.143533
-0.0666483 0.220441 0.15238
-0.0624705 0.220119 0.158612
-0.0581729 0.219483 0.164506
-0.0534123 0.218529 0.170332
-0.0489228 0.218227 0.175116
-0.0452029 0.218106 0.177685
-0.0409196 0.217424 0.179089
-0.037198 0.217331 0.181431
-0.0327832 0.217126 0.183005
-0.0287992 0.217223 0.183953
-0.024393 0.21651 0.185737
-0.0205155 0.216628 0.187502
-0.0160437 0.216753 0.18681
-0.0121964 0.216612 0.188166
-0.00835684 0.216127 0.188713
-0.0040053 0.216972 0.189519
-6.73698e-05 0.216951 0.188658
0.00433589 0.216855 0.188101
0.00791477 0.216211 0.189225
0.0120541 0.216319 0.18725
0.0161189 0.21705 0.186297
0.0207451 0.216984 0.185658
0.0244885 0.21712 0.18316
0.0283755 0.217066 0.183816
0.032959 0.217517 0.182394
0.0369922 0.217519 0.1809
0.0411262 0.217845 0.179232
0.0453056 0.217995 0.176671
0.0490181 0.218116 0.176098
0.0533259 0.218006 0.174273
0.0580905 0.218357 0.173093
0.0616272 0.218121 0.172832
0.0658725 0.218528 0.172339
0.0705884 0.218685 0.171453
0.0747586 0.218802 0.170769
0.0782758 0.218534 0.171094
0.0826977 0.218335 0.168844
0.0867268 0.219174 0.16767
0.0909078 0.219213 0.16723
0.0952197 0.219634 0.164465
0.0993671 0.219408 0.162956
0.103944 0.219724 0.160592
0.107894 0.220248 0.157589
0.112485 0.220327 0.154066
0.116736 0.221031 0.151405
0.12144 0.221234 0.1488
0.1252 0.221415 0.146011
0.129545 0.221787 0.144644
0.134006 0.221625 0.143615
0.138597 0.222559 0.140198
0.142503 0.222545 0.138499
0.146665 0.2227 0.135753
0.151462 0.223403 0.132561
0.156355 0.223909 0.127197
0.160827 0.224924 0.120895
0.166782 0.226608 0.102674
0.173926 0.230406 0.0713575
-0.212021 0.254681 -0.0911124
-0.206008 0.253476 -0.0808582
-0.201249 0.252648 -0.0731709
-0.19488 0.250758 -0.0589027
-0.190123 0.249129 -0.0471218
-0.183884 0.248512 -0.0397091
-0.179579 0.248016 -0.036263
-0.174805 0.247752 -0.0355334
-0.169804 0.24746 -0.0334334
-0.164939 0.247368 -0.0307505
-0.160467 0.247163 -0.0295758
-0.155535 0.247307 -0.0283427
-0.150291 0.246122 -0.0228419
-0.145529 0.245339 -0.0135415
-0.139569 0.243401 0.000710249
-0.134496 0.242034 0.0124809
-0.129554 0.240897 0.0232352
-0.124299 0.239403 0.034871
-0.118419 0.237635 0.0479673
-0.113965 0.236891 0.0575176
-0.109236 0.235322 0.0662221
-0.104139 0.234509 0.0762827
-0.0993305 0.233082 0.0856398
-0.0947569 0.232056 0.0935971
-0.0895225 0.23065 0.104901
-0.0847992 0.229426 0.114258
-0.0804146 0.228736 0.123348
-0.0756068 0.227144 0.133872
-0.0712753 0.225876 0.142352
-0.0664276 0.225104 0.151962
-0.0624868 0.224091 0.157523
-0.0576569 0.223545 0.164927
-0.0539134 0.223492 0.169277
-0.0490622 0.222084 0.173311
-0.0452453 0.222251 0.175806
-0.0406624 0.222322 0.177473
-0.0368012 0.221784 0.179558
-0.0325667 0.221471 0.180754
-0.0291327 0.22146 0.182026
-0.0250619 0.221395 0.183184
-0.0206855 0.221235 0.184684
-0.0163098 0.221046 0.185699
-0.011908 0.221278 0.186068
-0.00812345 0.220886 0.1876
-0.0039858 0.220552 0.188571
8.80554e-05 0.220752 0.189553
0.0039924 0.220851 0.187931
0.00829936 0.220455 0.188203
0.0121148 0.22085 0.187352
0.0163096 0.220992 0.187357
0.0204881 0.220825 0.185628
0.0244653 0.220882 0.184662
0.0287228 0.22126 0.184498
0.0326027 0.221349 0.183228
0.0367623 0.221389 0.182156
0.0408064 0.221335 0.182186
0.0455208 0.221594 0.180024
0.0494936 0.221451 0.178368
0.053251 0.222042 0.176437
0.0574378 0.222115 0.174975
0.0618018 0.22264 0.172777
0.0659235 0.222502 0.172743
0.0700835 0.222551 0.17179
0.0739671 0.222524 0.17389
0.0782649 0.22253 0.172459
0.0825288 0.222845 0.171865
0.0866891 0.222636 0.170661
0.0907556 0.223138 0.170084
0.0947488 0.222908 0.167445
0.0992416 0.223342 0.165659
0.10312 0.223576 0.162896
0.107922 0.223851 0.16043
0.112038 0.224279 0.157536
0.116334 0.224495 0.154473
0.120665 0.225298 0.151378
0.125161 0.225325 0.149613
0.129848 0.225515 0.146823
0.133824 0.225625 0.146254
0.138396 0.22591 0.143799
0.142782 0.226356 0.14139
0.146958 0.226651 0.138379
0.151421 0.227468 0.134714
0.155999 0.227706 0.130898
0.160706 0.228639 0.122597
0.169375 0.233881 0.0782839
-0.213068 0.259359 -0.0935717
-0.207091 0.257876 -0.084022
-0.200978 0.257312 -0.0754035
-0.195975 0.256248 -0.0677931
-0.18894 0.253455 -0.0446758
-0.18389 0.252554 -0.0395794
-0.179264 0.252469 -0.0366049
-0.174206 0.252425 -0.0343199
-0.169862 0.251781 -0.0322158
-0.16478 0.251916 -0.0310309
-0.16066 0.251251 -0.0298619
-0.155746 0.251819 -0.028336
-0.150302 0.250568 -0.0224369
-0.145675 0.250041 -0.0139577
-0.13964 0.248312 0.000171781
-0.134232 0.246362 0.0130883
-0.128876 0.244512 0.0253437
-0.124167 0.243967 0.0354667
-0.11882 0.242068 0.0469317
-0.113392 0.240681 0.0588995
-0.109329 0.239749 0.0651966
-0.103934 0.238668 0.0762656
-0.098802 0.23688 0.0869464
-0.0945117 0.236185 0.0949248
-0.0899037 0.235616 0.102573
-0.0851561 0.23428 0.113068
-0.0803742 0.232882 0.123282
-0.075743 0.231798 0.133051
-0.0715977 0.23062 0.141469
-0.0666335 0.229162 0.150669
-0.062162 0.227989 0.1581
-0.0582533 0.228112 0.16309
-0.0538521 0.227535 0.167078
-0.0494257 0.226991 0.170013
-0.0454631 0.226661 0.173793
-0.0409841 0.22646 0.175376
-0.0373442 0.226556 0.176384
-0.0326289 0.22601 0.177858
-0.028583 0.225621 0.178979
-0.0250901 0.22566 0.18075
-0.0203093 0.225525 0.182603
-0.0159045 0.225031 0.183695
-0.0127246 0.225063 0.18494
-0.00808816 0.224858 0.185921
-0.00405248 0.224652 0.187726
-7.427e-05 0.224572 0.188891
0.00425965 0.224754 0.18828
0.00822636 0.224573 0.189581
0.0120094 0.2245 0.189854
0.0164349 0.224516 0.189447
0.0203653 0.224717 0.187887
0.0244996 0.224917 0.187004
0.0289808 0.224728 0.187311
0.0328973 0.225116 0.186164
0.0369391 0.224815 0.185043
0.0405656 0.225405 0.18434
0.0451511 0.225547 0.18396
0.0493974 0.225631 0.180953
0.0534935 0.225444 0.178515
0.0574737 0.226308 0.177906
0.062001 0.226027 0.176442
0.0656776 0.226208 0.176033
0.0698346 0.226169 0.175828
0.0744234 0.226585 0.175314
0.0780855 0.227002 0.174619
0.0824882 0.2263 0.174182
0.086783 0.226631 0.173633
0.0906697 0.226792 0.173093
0.0947768 0.227089 0.17054
0.0991324 0.226801 0.168707
0.103798 0.227451 0.16529
0.107942 0.228032 0.16341
0.111894 0.228345 0.161354
0.115858 0.228569 0.158712
0.12079 0.229084 0.154728
0.124961 0.22923 0.152011
0.129645 0.229143 0.149429
0.133946 0.229772 0.148359
0.137792 0.229634 0.146
0.142557 0.23051 0.143022
0.146161 0.230603 0.140976
0.151086 0.231104 0.137398
0.156025 0.231283 0.132512
0.160833 0.232805 0.125876
0.169966 0.239629 0.0702951
-0.212333 0.264314 -0.0934811
-0.206768 0.263338 -0.0848505
-0.201337 0.262441 -0.0776684
-0.197104 0.261471 -0.0726454
-0.188848 0.258526 -0.0454652
-0.18425 0.257836 -0.0401981
-0.179302 0.25726 -0.0365171
-0.174776 0.256335 -0.0331929
-0.169501 0.256856 -0.0319495
-0.164505 0.25655 -0.0306847
-0.160127 0.256456 -0.0306876
-0.15539 0.256307 -0.0282474
-0.150473 0.255451 -0.0234134
-0.144802 0.254592 -0.0123632
-0.139773 0.25282 -0.000298738
-0.134248 0.250988 0.0131996
-0.129497 0.249689 0.0243946
-0.123987 0.247938 0.0360852
-0.119073 0.24662 0.046348
-0.1142 0.245724 0.0561517
-0.108724 0.24401 0.0663431
-0.103895 0.24285 0.0765146
-0.099479 0.242093 0.08346
-0.0944809 0.240696 0.0947992
-0.0903763 0.239916 0.101885
-0.0849754 0.238305 0.112827
-0.0802562 0.236811 0.123772
-0.0757265 0.23569 0.132383
-0.071476 0.234567 0.140536
-0.0666229 0.233534 0.15005
-0.0622157 0.232727 0.156099
-0.0578897 0.231705 0.16166
-0.0536371 0.232054 0.164976
-0.0495849 0.230892 0.169498
-0.0451848 0.23086 0.170836
-0.0413384 0.231114 0.172268
-0.0371177 0.23037 0.175048
-0.0329293 0.230157 0.17568
-0.0283865 0.230292 0.176878
-0.0246865 0.229754 0.1788
-0.0204579 0.229843 0.17952
-0.0161897 0.229542 0.182016
-0.012216 0.229178 0.184035
-0.00823883 0.229024 0.186551
-0.00386862 0.229239 0.187123
-0.000278534 0.229259 0.188749
0.00421581 0.228623 0.190688
0.00800625 0.228592 0.191672
0.0122701 0.228463 0.192861
0.0163648 0.228391 0.191209
0.0203574 0.22839 0.190071
0.0244467 0.228574 0.19108
0.0286896 0.228262 0.188837
0.0328298 0.228624 0.18948
0.0367573 0.228785 0.187828
0.0407907 0.228562 0.188102
0.0450875 0.228935 0.186667
0.0490031 0.229167 0.185869
0.0533168 0.229426 0.183055
0.0578914 0.229517 0.180949
0.0622967 0.229578 0.179217
0.0657119 0.229435 0.179662
0.0695594 0.229955 0.179274
0.0738539 0.229886 0.177885
0.0779163 0.229955 0.177082
0.0817965 0.230023 0.177031
0.0863217 0.230436 0.176422
0.090564 0.230211 0.175644
0.0947487 0.230322 0.173585
0.0987364 0.230543 0.17184
0.103125 0.231288 0.169816
0.107836 0.230919 0.167428
0.111413 0.231777 0.165209
0.115946 0.232045 0.162642
0.120559 0.232753 0.158395
0.125014 0.232942 0.156005
0.128978 0.233132 0.153291
0.133412 0.233318 0.150917
0.137905 0.233816 0.148463
0.14239 0.23428 0.145197
0.14632 0.234638 0.143227
0.151174 0.234814 0.138072
0.155232 0.235352 0.134664
0.160743 0.236626 0.128014
0.170766 0.244878 0.0598565
-0.212041 0.268802 -0.0927041
-0.206946 0.267903 -0.0852201
-0.201507 0.267439 -0.0787907
-0.196304 0.266646 -0.0733464
-0.189603 0.264084 -0.0535498
-0.184355 0.262661 -0.0407147
-0.17939 0.261755 -0.0357087
-0.1743 0.262238 -0.0348306
-0.169819 0.261085 -0.0323808
-0.164964 0.260832 -0.031126
-0.160187 0.260482 -0.0297177
-0.155642 0.260712 -0.0285249
-0.150665 0.259657 -0.0235224
-0.145847 0.259218 -0.0146422
-0.140051 0.25709 -0.0011189
-0.135108 0.255776 0.0102952
-0.128565 0.253956 0.0259084
-0.123911 0.252256 0.0363047
-0.119098 0.251277 0.0467951
-0.114014 0.250107 0.0569026
-0.108903 0.248615 0.0667998
-0.104087 0.247265 0.075989
-0.0992666 0.246294 0.086256
-0.094408 0.245431 0.0939935
-0.0894433 0.243776 0.10429
-0.0852186 0.242873 0.112143
-0.0806903 0.241496 0.120521
-0.0764224 0.240702 0.129214
-0.0717329 0.239337 0.13956
-0.0665474 0.23813 0.148103
-0.0624307 0.237397 0.155007
-0.0582086 0.23694 0.159336
-0.0536552 0.236141 0.163951
-0.0499048 0.235706 0.166365
-0.0448385 0.235621 0.16794
-0.0416234 0.235431 0.169595
-0.0366267 0.234971 0.172564
-0.0332565 0.234893 0.172543
-0.0285719 0.234795 0.173919
-0.0243838 0.234318 0.175779
-0.0204422 0.234306 0.178497
-0.0166405 0.233779 0.181392
-0.0121047 0.233422 0.183936
-0.00809583 0.2331 0.186915
-0.00405382 0.232869 0.19002
-0.000306019 0.232567 0.192202
0.00368049 0.232742 0.192906
0.00793063 0.231878 0.193527
0.0124623 0.232146 0.19539
0.0163082 0.232213 0.194498
0.0204026 0.232121 0.194059
0.0243975 0.232132 0.192746
0.028309 0.232282 0.193159
0.0324795 0.232145 0.193045
0.0363148 0.232625 0.192649
0.0410032 0.232625 0.191463
0.0453001 0.232503 0.190162
0.0492733 0.233175 0.189218
0.0535106 0.233052 0.187291
0.0573253 0.233097 0.184696
0.0611787 0.233351 0.183638
0.0653483 0.233597 0.183036
0.0699739 0.233558 0.181239
0.0739999 0.23394 0.181221
0.0783379 0.233919 0.179858
0.0824109 0.234373 0.179318
0.0858224 0.233997 0.179249
0.0901201 0.234477 0.178028
0.0949823 0.234507 0.176432
0.0989082 0.234893 0.174689
0.103324 0.234788 0.172496
0.107235 0.23525 0.171193
0.111351 0.235252 0.167688
0.116077 0.23561 0.16464
0.120428 0.236307 0.162178
0.124718 0.236492 0.159463
0.128812 0.236969 0.157213
0.133274 0.237213 0.153929
0.137579 0.237714 0.150689
0.141844 0.23839 0.148834
0.146733 0.238467 0.144461
0.150868 0.238801 0.140431
0.155378 0.239883 0.135683
0.159731 0.240292 0.131453
0.165325 0.241386 0.121348
