ply
format ascii 1.0
element vertex 1703
property float x
property float y
property float z
end_header
-0.0203224 0.146268 0.201077
-0.0164748 0.146211 0.19756
-0.0120712 0.146469 0.193582
-0.00824716 0.146991 0.18947
-0.00423891 0.147051 0.186344
5.20407e-05 0.1475 0.181044
0.00431076 0.148368 0.177077
0.00843134 0.148008 0.173225
0.0124214 0.148255 0.169706
0.0161552 0.148781 0.166792
0.020838 0.148821 0.161978
0.0246011 0.149458 0.15916
0.0292737 0.149837 0.155359
0.0332546 0.150302 0.150624
0.0375304 0.150178 0.147536
0.0423698 0.150914 0.142468
0.0460219 0.150946 0.139193
0.0505774 0.151138 0.135182
0.055074 0.151424 0.130813
0.0589222 0.151934 0.12785
0.0635886 0.152454 0.122563
0.0674077 0.152806 0.120414
0.072139 0.152892 0.115344
0.0763648 0.153246 0.111512
0.0808889 0.153926 0.106996
0.0857304 0.154058 0.102483
0.0905193 0.154571 0.0973966
0.0943099 0.154903 0.0940504
0.0992571 0.154928 0.0899552
0.103683 0.155193 0.0859324
0.108308 0.156253 0.0809317
0.112531 0.156547 0.0766667
0.11752 0.156469 0.0707361
0.122242 0.1572 0.0664045
0.126493 0.157494 0.0621586
0.131375 0.157633 0.0571315
0.135853 0.158361 0.052972
0.141274 0.158751 0.0483227
0.146098 0.159312 0.0427166
0.150585 0.159176 0.0385963
0.156031 0.159876 0.0325506
0.159752 0.16004 0.0286976
0.164796 0.16068 0.0235666
0.169945 0.161166 0.0177497
0.174955 0.161039 0.0113537
0.179587 0.161758 0.00710535
0.184762 0.162636 0.000376463
0.189857 0.163276 -0.00539684
0.195221 0.163208 -0.0123324
0.200003 0.164213 -0.0191715
0.206138 0.164896 -0.0324566
-0.198299 0.159322 0.0917097
-0.191281 0.157102 0.114025
-0.18575 0.156453 0.125556
-0.18063 0.155593 0.136992
-0.175614 0.154659 0.145401
-0.17094 0.15435 0.153301
-0.166034 0.153463 0.159487
-0.161467 0.152838 0.165573
-0.156685 0.15316 0.170124
-0.151917 0.15243 0.176595
-0.147617 0.152032 0.18015
-0.143344 0.151315 0.184271
-0.139023 0.151209 0.18688
-0.134586 0.151098 0.190042
-0.130309 0.150912 0.192591
-0.126298 0.150869 0.195046
-0.121668 0.150591 0.198134
-0.117752 0.15004 0.200729
-0.113466 0.149737 0.203687
-0.1093 0.149989 0.205265
-0.104987 0.149363 0.207814
-0.100683 0.149365 0.209759
-0.0970411 0.149179 0.21179
-0.0926744 0.14875 0.213653
-0.0886369 0.149227 0.214837
-0.0845736 0.14892 0.216536
-0.0804441 0.148916 0.217648
-0.0766952 0.148622 0.219328
-0.0722579 0.148331 0.220935
-0.0677887 0.148672 0.220885
-0.0641527 0.148154 0.222508
-0.0599179 0.148552 0.222057
-0.0559465 0.14832 0.222183
-0.0522311 0.148282 0.22207
-0.0479775 0.148542 0.221012
-0.0441013 0.14879 0.218609
-0.0402371 0.14875 0.216422
-0.0362261 0.148988 0.214482
-0.0320646 0.149568 0.211288
-0.0285365 0.149485 0.209042
-0.0241102 0.149988 0.205294
-0.0202027 0.149826 0.200773
-0.0163888 0.150255 0.198832
-0.0121357 0.150689 0.193404
-0.00842243 0.151234 0.190439
-0.00437228 0.15141 0.185997
-5.52566e-05 0.151749 0.18225
0.00417573 0.152045 0.17863
0.0081107 0.15235 0.174127
0.0124246 0.152811 0.169688
0.0165096 0.153094 0.166506
0.0208533 0.153607 0.162827
0.0251319 0.153366 0.158653
0.0288827 0.153929 0.15441
0.0330207 0.154202 0.151672
0.0374081 0.154321 0.147406
0.0418258 0.154635 0.143349
0.046165 0.155558 0.139191
0.0507473 0.155402 0.135908
0.0545358 0.155795 0.132646
0.0591302 0.156321 0.127845
0.0634271 0.156422 0.123248
0.0680343 0.156593 0.120428
0.0720511 0.157427 0.116003
0.0766005 0.157594 0.111267
0.0808538 0.157763 0.107828
0.085272 0.158085 0.103397
0.0899907 0.158756 0.0996513
0.094746 0.158792 0.0935109
0.0987461 0.159378 0.0911621
0.103678 0.159205 0.0857096
0.108289 0.160406 0.081866
0.112963 0.160283 0.0752549
0.117577 0.160892 0.0717764
0.122444 0.160964 0.0674328
0.126762 0.161539 0.0626879
0.13102 0.161839 0.0582469
0.136146 0.16245 0.0542308
0.140495 0.162803 0.0490004
0.14598 0.163124 0.0427539
0.150543 0.163276 0.0384402
0.15511 0.163613 0.0348458
0.159922 0.16453 0.0286167
0.164677 0.164784 0.0238856
0.169822 0.165236 0.0181985
0.174484 0.165826 0.013083
0.179853 0.166278 0.00669527
0.185309 0.16659 0.000227809
0.189842 0.167467 -0.00513005
0.194635 0.167833 -0.0114591
0.200318 0.168318 -0.0194013
0.20569 0.168898 -0.030072
-0.199349 0.16498 0.0801965
-0.192422 0.162504 0.104124
-0.18664 0.161468 0.119457
-0.181197 0.160377 0.132094
-0.176462 0.159034 0.141185
-0.170953 0.158324 0.151579
-0.165821 0.158026 0.158733
-0.16143 0.15702 0.163991
-0.157146 0.156821 0.169185
-0.151928 0.156235 0.175031
-0.147892 0.156357 0.178871
-0.143669 0.156305 0.182274
-0.139188 0.155595 0.18605
-0.134553 0.154902 0.188419
-0.130452 0.155063 0.191601
-0.126323 0.15489 0.194137
-0.122051 0.154983 0.197108
-0.117849 0.154149 0.199311
-0.113447 0.154383 0.201865
-0.109343 0.154312 0.203597
-0.105413 0.153893 0.205866
-0.101034 0.153591 0.208243
-0.0967057 0.153085 0.209585
-0.0926997 0.152879 0.2119
-0.088698 0.153103 0.212541
-0.0844988 0.152739 0.215718
-0.080531 0.152845 0.216008
-0.0761317 0.152618 0.217605
-0.0722344 0.152813 0.218865
-0.0684708 0.152528 0.218954
-0.0640621 0.152571 0.220545
-0.0601265 0.152443 0.220822
-0.0566913 0.152529 0.22127
-0.0520116 0.152482 0.220549
-0.0482932 0.152573 0.220082
-0.0445462 0.152469 0.218149
-0.0403615 0.152825 0.216882
-0.0360233 0.152844 0.213159
-0.0326123 0.153377 0.211376
-0.0280381 0.153828 0.209935
-0.0241102 0.153647 0.205023
-0.0201451 0.154092 0.202201
-0.0161497 0.154345 0.198802
-0.0121614 0.154686 0.1942
-0.00849078 0.154668 0.191274
-0.00387559 0.155654 0.186491
-0.000420968 0.155782 0.18347
0.00422806 0.15629 0.178069
0.00799559 0.156423 0.175461
0.0123662 0.15635 0.171103
0.0164639 0.15701 0.167654
0.0205001 0.157086 0.162897
0.0245765 0.157659 0.159127
0.0289978 0.158028 0.155356
0.0332374 0.158679 0.151166
0.0375757 0.158789 0.148166
0.0419811 0.159061 0.14439
0.0458519 0.159659 0.140878
0.0503396 0.159581 0.136497
0.054761 0.160217 0.132328
0.0589351 0.160694 0.128603
0.0632519 0.160845 0.125025
0.0675835 0.160984 0.120921
0.0720887 0.161338 0.116372
0.076583 0.161733 0.111161
0.0806871 0.162226 0.107891
0.0856562 0.162545 0.102773
0.0897293 0.163137 0.0995394
0.0941957 0.16314 0.0956521
0.0991801 0.163949 0.0903364
0.103377 0.164463 0.086156
0.108025 0.164098 0.0823023
0.112798 0.16474 0.076913
0.116832 0.165219 0.0731374
0.122166 0.165426 0.0675091
0.12664 0.166164 0.0625221
0.131374 0.16621 0.0581251
0.136046 0.16726 0.0537258
0.140639 0.167505 0.0489582
0.145439 0.166951 0.0447423
0.150313 0.168008 0.0403382
0.154902 0.168429 0.0352843
0.160119 0.168582 0.0290914
0.165096 0.169484 0.0240371
0.169441 0.170058 0.0197545
0.174502 0.170299 0.0133852
0.17968 0.170604 0.00791109
0.18466 0.171225 0.00148809
0.189443 0.171394 -0.00408268
0.194738 0.172509 -0.0106983
0.200219 0.173081 -0.0188534
0.206359 0.174293 -0.0315094
-0.192889 0.167362 0.0975121
-0.187026 0.165787 0.113675
-0.181835 0.16455 0.126305
-0.176723 0.163926 0.136994
-0.171139 0.162909 0.148345
-0.16638 0.162316 0.155566
-0.161661 0.161959 0.162587
-0.156751 0.161413 0.167926
-0.152369 0.160538 0.174005
-0.147976 0.159918 0.177493
-0.144007 0.15993 0.180321
-0.139275 0.15966 0.18349
-0.134857 0.159223 0.187506
-0.13056 0.159011 0.190055
-0.126647 0.159159 0.191797
-0.122009 0.15886 0.194871
-0.117961 0.158467 0.197526
-0.113584 0.158189 0.19997
-0.10936 0.157773 0.202769
-0.105494 0.157685 0.204718
-0.101094 0.157799 0.206506
-0.0969011 0.157293 0.208336
-0.0927796 0.157603 0.210284
-0.0883855 0.157043 0.212195
-0.084463 0.157287 0.213245
-0.0806418 0.157063 0.214887
-0.0765719 0.156834 0.216746
-0.0723917 0.156656 0.216893
-0.0684355 0.156985 0.21738
-0.0640549 0.156882 0.218863
-0.060097 0.156771 0.219642
-0.0561346 0.156631 0.22017
-0.0524685 0.156782 0.219084
-0.0483268 0.156695 0.219039
-0.0440794 0.156785 0.21733
-0.0398627 0.156774 0.21647
-0.0363724 0.157281 0.214548
-0.0322596 0.157434 0.210739
-0.0281914 0.157303 0.208722
-0.0241481 0.157966 0.205304
-0.0203328 0.158167 0.202359
-0.0161735 0.158444 0.198972
-0.0118511 0.158393 0.195133
-0.00831545 0.159253 0.19189
-0.00386358 0.159588 0.186848
-0.000121242 0.159735 0.183831
0.00401764 0.160003 0.179333
0.00817723 0.160637 0.174435
0.0125434 0.160797 0.171174
0.0162841 0.161476 0.16732
0.0205078 0.161671 0.164307
0.0249699 0.161921 0.160782
0.0288998 0.162237 0.156615
0.032768 0.162221 0.152852
0.0375786 0.162733 0.148582
0.0418578 0.163063 0.146219
0.0459002 0.163464 0.140923
0.0504082 0.163854 0.136138
0.0549368 0.164136 0.132779
0.0588603 0.164386 0.129875
0.0634818 0.165017 0.12508
0.0677702 0.165568 0.120009
0.0720472 0.165976 0.116874
0.0767172 0.165779 0.111969
0.0810652 0.166248 0.107696
0.085318 0.166527 0.104846
0.0901999 0.167045 0.0994899
0.0941929 0.167883 0.0961316
0.0991374 0.167847 0.0911063
0.103424 0.16832 0.0867665
0.108622 0.168689 0.0818274
0.112582 0.168959 0.0775769
0.117498 0.169655 0.0722891
0.121574 0.169611 0.0689803
0.126668 0.170337 0.0640135
0.131383 0.17113 0.0588889
0.135866 0.171302 0.0537121
0.140635 0.171375 0.0495853
0.145854 0.17195 0.0448136
0.150438 0.172484 0.0400008
0.155176 0.173014 0.0353833
0.160147 0.173443 0.0303191
0.164865 0.173798 0.0243335
0.169672 0.174375 0.0195004
0.174691 0.17487 0.0138263
0.179639 0.175102 0.00688672
0.184972 0.175738 0.00189745
0.189863 0.176736 -0.00439692
0.195398 0.176949 -0.0112202
0.200141 0.17754 -0.0175054
0.206455 0.178358 -0.0314579
-0.19388 0.172469 0.0887733
-0.187653 0.17071 0.107484
-0.182035 0.169631 0.11951
-0.177019 0.168596 0.130869
-0.171969 0.168218 0.140048
-0.166554 0.166315 0.151733
-0.161848 0.165816 0.15878
-0.157447 0.166029 0.163863
-0.152954 0.16522 0.168435
-0.147954 0.164533 0.173838
-0.144083 0.16464 0.176904
-0.139599 0.164178 0.180451
-0.134543 0.163674 0.185282
-0.130559 0.163275 0.1871
-0.126638 0.163326 0.189349
-0.121842 0.163128 0.193196
-0.118304 0.16266 0.195399
-0.113817 0.162599 0.197626
-0.109461 0.162349 0.20074
-0.105255 0.16215 0.203531
-0.100879 0.161711 0.205089
-0.0969692 0.16181 0.206254
-0.0929234 0.161697 0.208458
-0.0888765 0.161385 0.209662
-0.0849191 0.161644 0.211834
-0.0800846 0.161176 0.21419
-0.0764386 0.160688 0.215174
-0.072312 0.160762 0.215508
-0.0679829 0.160714 0.216045
-0.0642105 0.161166 0.216352
-0.0604416 0.161351 0.218424
-0.0566301 0.160827 0.21812
-0.0524049 0.160538 0.219244
-0.0481387 0.160831 0.218081
-0.0441906 0.160703 0.21708
-0.0404135 0.161094 0.216002
-0.0362357 0.161246 0.214289
-0.0319838 0.161114 0.211765
-0.0281637 0.161755 0.208963
-0.0241968 0.161529 0.205868
-0.0204282 0.162376 0.202828
-0.0159331 0.162446 0.198698
-0.0123999 0.162614 0.195206
-0.00799669 0.163476 0.191251
-0.00413495 0.16354 0.187843
-0.000152025 0.16383 0.18337
0.00426365 0.164175 0.180123
0.00826699 0.164308 0.175614
0.012557 0.164919 0.171481
0.0166102 0.165057 0.168436
0.0205499 0.165724 0.163381
0.0251005 0.166367 0.159518
0.0289565 0.16629 0.156505
0.0335863 0.166422 0.1524
0.0376262 0.167343 0.148158
0.041562 0.167312 0.145344
0.0462237 0.167443 0.141283
0.0502798 0.168065 0.13834
0.0547815 0.168362 0.133127
0.0591265 0.168782 0.129726
0.0638867 0.169059 0.125188
0.0678443 0.169156 0.120646
0.0722615 0.170052 0.11611
0.0764315 0.170126 0.11265
0.0808024 0.170409 0.109152
0.0857482 0.170868 0.104305
0.0901561 0.17136 0.0994825
0.0944982 0.171588 0.0956694
0.0989758 0.172263 0.090752
0.103583 0.172028 0.0877581
0.108074 0.173026 0.0815167
0.112763 0.173123 0.0784607
0.117683 0.173692 0.0738235
0.121512 0.17401 0.0692931
0.126642 0.174798 0.0647632
0.131196 0.174979 0.0597583
0.136434 0.175379 0.0539572
0.14097 0.176084 0.0498067
0.145188 0.17636 0.0461608
0.150636 0.176301 0.0399228
0.155088 0.177051 0.0357031
0.15975 0.177264 0.0307841
0.164844 0.178309 0.0249088
0.17015 0.178717 0.0189489
0.174492 0.179432 0.0144987
0.179515 0.179341 0.00852537
0.184313 0.180255 0.00249982
0.189512 0.18103 -0.00258207
0.194705 0.181245 -0.00929761
0.200204 0.181911 -0.0174141
0.206043 0.182825 -0.028944
-0.195561 0.177772 0.0752039
-0.188187 0.176128 0.0998825
-0.183014 0.174219 0.113446
-0.177677 0.174055 0.12366
-0.17252 0.171763 0.135541
-0.168013 0.171967 0.142012
-0.162558 0.171129 0.150786
-0.157789 0.170363 0.158144
-0.15291 0.169298 0.165596
-0.148766 0.169362 0.169048
-0.144171 0.169328 0.173494
-0.139681 0.168409 0.1776
-0.135307 0.168409 0.180855
-0.131501 0.168105 0.183502
-0.126599 0.16803 0.186527
-0.122621 0.167392 0.190258
-0.118299 0.166981 0.19323
-0.113798 0.166913 0.195778
-0.109751 0.166388 0.198353
-0.10578 0.166741 0.200287
-0.101662 0.166098 0.203371
-0.0971735 0.165806 0.205261
-0.0929241 0.165714 0.206144
-0.0893117 0.165821 0.207277
-0.084473 0.1659 0.209267
-0.0803646 0.165311 0.21156
-0.0764701 0.165143 0.212606
-0.0723454 0.165405 0.213885
-0.0684644 0.165167 0.213931
-0.0645353 0.164973 0.215879
-0.0603593 0.164548 0.217347
-0.056212 0.16505 0.216348
-0.0520455 0.165011 0.216387
-0.0480278 0.164929 0.21727
-0.0444006 0.164843 0.216361
-0.0403927 0.165098 0.215145
-0.0359311 0.165187 0.214149
-0.0321117 0.165353 0.21225
-0.0283098 0.165595 0.208821
-0.0245156 0.165916 0.205779
-0.0199805 0.166294 0.202417
-0.016096 0.166562 0.199668
-0.0118929 0.166579 0.196066
-0.00803632 0.1673 0.192765
-0.00376586 0.167457 0.187589
0.000228332 0.168185 0.184464
0.00423599 0.168569 0.179981
0.00803276 0.16884 0.176108
0.0124196 0.169255 0.172356
0.0165255 0.169952 0.167754
0.0205704 0.169804 0.164096
0.025219 0.170039 0.16043
0.0292619 0.170748 0.157517
0.033438 0.170628 0.152856
0.0374667 0.171061 0.148393
0.0417729 0.171148 0.14616
0.0464588 0.172012 0.141273
0.0502128 0.17193 0.139016
0.054829 0.172671 0.135406
0.0588733 0.173031 0.129937
0.0634876 0.173217 0.125762
0.0676319 0.173463 0.121897
0.0722569 0.17424 0.117687
0.0766822 0.174486 0.111871
0.081141 0.174832 0.108846
0.085613 0.175256 0.104993
0.0904714 0.175499 0.100284
0.094403 0.176233 0.095675
0.0990736 0.176435 0.0912656
0.103675 0.1772 0.0872411
0.107669 0.177241 0.0844358
0.112664 0.177485 0.0780548
0.117037 0.178173 0.0742029
0.121987 0.178538 0.0695463
0.126444 0.178873 0.0642823
0.131275 0.179404 0.0599853
0.135286 0.180175 0.0554684
0.1406 0.180047 0.0503297
0.145263 0.180827 0.0458086
0.150023 0.181068 0.0411359
0.155216 0.181896 0.0361773
0.15968 0.181839 0.0307368
0.164663 0.18301 0.0256312
0.169765 0.182973 0.0196456
0.174706 0.183929 0.0139555
0.179749 0.184316 0.00878274
0.184224 0.184595 0.00408041
0.189693 0.185221 -0.00341058
0.194815 0.185728 -0.00953937
0.200352 0.186355 -0.0175753
0.205924 0.187607 -0.0282779
-0.189556 0.18105 0.0919346
-0.183438 0.179196 0.108704
-0.177795 0.177879 0.121026
-0.173064 0.177201 0.129823
-0.168423 0.176505 0.137839
-0.162885 0.175632 0.146811
-0.158303 0.175485 0.152414
-0.153982 0.174003 0.159343
-0.149129 0.173852 0.164966
-0.144736 0.173431 0.16951
-0.139888 0.172999 0.174453
-0.135817 0.172503 0.177931
-0.131261 0.172668 0.180906
-0.127132 0.171941 0.184151
-0.122443 0.171659 0.188461
-0.118532 0.171403 0.190488
-0.114057 0.170741 0.194029
-0.109935 0.17053 0.196668
-0.10597 0.170535 0.198868
-0.101441 0.170308 0.200339
-0.0972307 0.170193 0.202603
-0.0932446 0.169986 0.204848
-0.0891069 0.169868 0.205732
-0.0851269 0.169956 0.207761
-0.0805618 0.169658 0.209892
-0.0767185 0.16932 0.210829
-0.0729925 0.169198 0.211756
-0.0682567 0.169428 0.213109
-0.064355 0.169275 0.213107
-0.0605252 0.169536 0.214031
-0.0562174 0.168987 0.214846
-0.052287 0.169168 0.216178
-0.0483632 0.16899 0.215479
-0.044113 0.169414 0.214465
-0.0406063 0.169029 0.21437
-0.0363026 0.16931 0.212117
-0.0322855 0.169197 0.21111
-0.0284003 0.16973 0.209256
-0.0242682 0.169777 0.206231
-0.0203952 0.170177 0.202615
-0.0163697 0.170716 0.199686
-0.0117002 0.170609 0.196034
-0.00818974 0.1713 0.192567
-0.00394308 0.171661 0.188257
-0.000182657 0.172205 0.18455
0.00377196 0.172096 0.180475
0.00818604 0.172737 0.177029
0.0120901 0.17317 0.173159
0.01676 0.1735 0.16848
0.02047 0.173846 0.164757
0.0247324 0.174049 0.161047
0.0294127 0.174464 0.156931
0.0333041 0.174919 0.153847
0.0375202 0.175054 0.150871
0.0418066 0.175856 0.145879
0.0461603 0.175804 0.142246
0.0508264 0.176069 0.137901
0.0549351 0.176564 0.133992
0.0588836 0.177092 0.131384
0.0633969 0.177251 0.126308
0.0678648 0.178182 0.122398
0.0720954 0.178441 0.117164
0.0767495 0.178697 0.11403
0.081469 0.179184 0.10858
0.0853707 0.179476 0.105746
0.0900463 0.179918 0.101006
0.0941266 0.180266 0.0968065
0.0995895 0.180937 0.0912811
0.103803 0.180848 0.0878359
0.108026 0.181337 0.083663
0.112834 0.182216 0.0788556
0.116916 0.182547 0.074479
0.121904 0.182636 0.0701411
0.126578 0.182869 0.0643206
0.131496 0.184094 0.0596339
0.135589 0.183954 0.0566258
0.14081 0.184636 0.0501931
0.145693 0.185517 0.0455983
0.150434 0.18598 0.0408645
0.154579 0.186142 0.0368483
0.159936 0.186277 0.0303034
0.164744 0.187263 0.0253636
0.170118 0.18764 0.0188428
0.174566 0.188512 0.0145276
0.179704 0.188678 0.00911117
0.184314 0.189137 0.00454128
0.189697 0.189544 -0.00212884
0.194868 0.190336 -0.00897098
0.199688 0.190875 -0.0158312
0.205429 0.191925 -0.0269043
-0.190162 0.186257 0.0837368
-0.183654 0.183818 0.104171
-0.17825 0.182539 0.117453
-0.173071 0.181628 0.127479
-0.1678 0.180691 0.137192
-0.163151 0.180212 0.143562
-0.15855 0.179499 0.149381
-0.153836 0.179073 0.154773
-0.149458 0.178187 0.161221
-0.144531 0.177894 0.1669
-0.140391 0.177185 0.170816
-0.135715 0.177265 0.17531
-0.131085 0.176458 0.179385
-0.127178 0.176282 0.183543
-0.122553 0.17586 0.185667
-0.118663 0.175747 0.18898
-0.114025 0.175161 0.191351
-0.110012 0.175253 0.193718
-0.105916 0.174972 0.196169
-0.101522 0.174697 0.198239
-0.0974369 0.174712 0.20097
-0.0929761 0.174415 0.204231
-0.0891511 0.174359 0.20429
-0.0850156 0.173541 0.206566
-0.0810026 0.173922 0.207912
-0.0767113 0.173658 0.208492
-0.0728635 0.173534 0.211044
-0.0685092 0.173072 0.210669
-0.0644732 0.173561 0.211792
-0.0602648 0.173179 0.212852
-0.0562043 0.172892 0.213958
-0.0524204 0.172939 0.213879
-0.0481683 0.17315 0.213817
-0.0443151 0.17369 0.213164
-0.0403263 0.173516 0.212618
-0.0358317 0.173338 0.212442
-0.0321891 0.1733 0.211174
-0.0280139 0.173825 0.208748
-0.0242813 0.174108 0.206416
-0.0201315 0.17434 0.202689
-0.0160604 0.174486 0.200316
-0.012244 0.174659 0.197215
-0.00801369 0.174884 0.193397
-0.00420231 0.175472 0.189164
0.000103222 0.176224 0.184721
0.00439404 0.176492 0.180568
0.00820298 0.176811 0.176694
0.0122796 0.177209 0.173636
0.0165504 0.177087 0.169469
0.0206803 0.178087 0.164708
0.0250926 0.178253 0.161597
0.029488 0.17844 0.157196
0.0333378 0.179004 0.154683
0.0380241 0.179246 0.149518
0.0416998 0.179626 0.1477
0.0459129 0.180149 0.142444
0.0500636 0.181091 0.138316
0.0548169 0.18087 0.134715
0.0589894 0.181012 0.130885
0.0635872 0.18178 0.125485
0.0677483 0.182087 0.121779
0.0720071 0.18215 0.118434
0.0767359 0.182907 0.113407
0.0810834 0.18303 0.109649
0.0857584 0.183576 0.104803
0.089959 0.184022 0.101074
0.0940833 0.184414 0.0979992
0.0993923 0.184932 0.0921226
0.103415 0.18525 0.0876361
0.107732 0.185444 0.0841398
0.112547 0.186322 0.0790299
0.117166 0.186533 0.0745255
0.12208 0.187145 0.0689006
0.126667 0.187487 0.0660077
0.130827 0.188023 0.0610994
0.135777 0.188459 0.0564817
0.141149 0.189075 0.0509773
0.145073 0.189567 0.0476838
0.150439 0.190357 0.0411309
0.155384 0.190405 0.0360833
0.159934 0.190856 0.0308418
0.164747 0.191561 0.0269526
0.169414 0.191645 0.0204635
0.174369 0.192457 0.0169189
0.179505 0.193449 0.0105021
0.185054 0.193715 0.00379241
0.18977 0.193758 -0.00186396
0.194757 0.194202 -0.00827765
0.200015 0.195597 -0.0158849
0.205184 0.196431 -0.0245597
-0.191428 0.19114 0.070421
-0.184446 0.188795 0.0990311
-0.178661 0.187168 0.113614
-0.173107 0.186224 0.125013
-0.167747 0.184987 0.135778
-0.163747 0.184586 0.140768
-0.158701 0.183718 0.147291
-0.154156 0.183176 0.152247
-0.149464 0.182679 0.157273
-0.145311 0.182556 0.162604
-0.140216 0.181798 0.169275
-0.136084 0.181411 0.172945
-0.131265 0.180574 0.178375
-0.127046 0.180304 0.181673
-0.122998 0.180278 0.184409
-0.118341 0.179782 0.18778
-0.114335 0.17969 0.189359
-0.110466 0.179515 0.19219
-0.106042 0.179178 0.195085
-0.101498 0.178895 0.1969
-0.0973643 0.178589 0.199819
-0.0932634 0.178603 0.201117
-0.0894742 0.178024 0.203249
-0.0852049 0.177835 0.205091
-0.0808276 0.177907 0.206334
-0.0770079 0.178136 0.206562
-0.0726018 0.177651 0.20855
-0.0684319 0.177802 0.209723
-0.0643884 0.177797 0.209679
-0.0605678 0.177352 0.210888
-0.0565894 0.177386 0.212413
-0.05266 0.178094 0.210916
-0.047818 0.17753 0.212974
-0.0445393 0.177636 0.211962
-0.0403339 0.177182 0.212132
-0.0362366 0.177396 0.211473
-0.0320906 0.177619 0.210184
-0.0281456 0.177876 0.208017
-0.0241216 0.178071 0.205572
-0.0200252 0.177893 0.203901
-0.016228 0.178626 0.198957
-0.0120189 0.179403 0.196459
-0.00789084 0.179392 0.193418
-0.00418663 0.179459 0.189692
-4.34926e-05 0.179864 0.184863
0.00427157 0.180307 0.180442
0.00785643 0.180681 0.177168
0.0129043 0.181165 0.173229
0.0163803 0.181881 0.169681
0.0202893 0.181963 0.165881
0.0247097 0.182168 0.162333
0.0295549 0.182478 0.157956
0.0330631 0.183234 0.155293
0.0377467 0.183597 0.150542
0.0418936 0.183654 0.146519
0.0462678 0.184106 0.142892
0.0503945 0.184532 0.139529
0.0543109 0.184982 0.135827
0.0587547 0.185638 0.131234
0.0632085 0.186163 0.127392
0.0676631 0.186745 0.123267
0.0724464 0.186858 0.117661
0.0769378 0.187417 0.114049
0.0810356 0.187461 0.110857
0.0852467 0.188304 0.106294
0.0895571 0.188323 0.101428
0.0945686 0.188233 0.0978425
0.0985729 0.189 0.0935997
0.103603 0.19 0.0884103
0.108286 0.19015 0.0838376
0.11234 0.19066 0.0800879
0.117126 0.19094 0.0758396
0.121488 0.191336 0.0713345
0.126172 0.192316 0.0666242
0.130867 0.19232 0.0621109
0.135716 0.192925 0.0573958
0.140371 0.193314 0.0520916
0.145213 0.193854 0.0477046
0.150184 0.19466 0.0420209
0.154946 0.1949 0.0376883
0.159912 0.195915 0.0321888
0.164973 0.195892 0.0266874
0.169036 0.195898 0.0221112
0.174336 0.196644 0.0164537
0.179522 0.197165 0.0104005
0.184699 0.197744 0.00493133
0.189656 0.198387 -0.000311375
0.194706 0.198979 -0.00705123
0.199682 0.200027 -0.0128412
0.205539 0.200692 -0.0231793
-0.185329 0.194171 0.0884947
-0.179197 0.192101 0.107275
-0.174161 0.190811 0.117827
-0.168704 0.189583 0.130101
-0.16337 0.188812 0.139535
-0.158746 0.188017 0.146853
-0.154422 0.187469 0.151643
-0.149814 0.187311 0.156644
-0.145112 0.185996 0.162237
-0.14032 0.186056 0.168041
-0.13618 0.185309 0.171582
-0.131789 0.185269 0.174629
-0.127076 0.184367 0.179969
-0.122765 0.18439 0.183821
-0.118646 0.184227 0.185801
-0.114143 0.184205 0.188831
-0.110299 0.183654 0.190205
-0.105779 0.183418 0.19403
-0.10194 0.183176 0.195773
-0.0977505 0.182857 0.198163
-0.0936273 0.18268 0.200179
-0.0889069 0.182199 0.202012
-0.0851765 0.182385 0.203076
-0.0813331 0.18246 0.202965
-0.077132 0.1823 0.204673
-0.0727671 0.18194 0.206484
-0.0682988 0.182127 0.206881
-0.0647979 0.182106 0.208165
-0.0606611 0.181907 0.209013
-0.0564139 0.181864 0.208687
-0.0523087 0.181827 0.20913
-0.0483227 0.181568 0.210368
-0.0442856 0.181675 0.210225
-0.0402215 0.181222 0.2104
-0.0362963 0.181621 0.209781
-0.0325952 0.181678 0.20799
-0.028461 0.181795 0.20661
-0.0242548 0.182066 0.204947
-0.0200653 0.182253 0.202592
-0.0162145 0.182771 0.199145
-0.0124207 0.183083 0.197488
-0.00794886 0.183279 0.192762
-0.00410455 0.183281 0.190484
-0.000105969 0.184087 0.185858
0.00440045 0.184643 0.181413
0.00812894 0.184888 0.177358
0.0125485 0.185125 0.174108
0.0163246 0.185429 0.171175
0.0206772 0.186179 0.166288
0.024994 0.186406 0.163011
0.0292068 0.186944 0.158002
0.033462 0.187455 0.154577
0.0379087 0.187826 0.150229
0.0416101 0.187409 0.147221
0.0462801 0.188068 0.143463
0.0501328 0.18874 0.139932
0.054101 0.189303 0.136235
0.0590264 0.189294 0.131912
0.0631697 0.189568 0.128071
0.0678156 0.190712 0.123058
0.0720344 0.190799 0.120233
0.076424 0.191477 0.115436
0.080764 0.191977 0.112069
0.0854742 0.192592 0.107326
0.089816 0.192693 0.102154
0.0944354 0.192862 0.0973738
0.0987649 0.193542 0.0934832
0.103037 0.193673 0.0899245
0.107701 0.19411 0.0854242
0.112738 0.194595 0.0793711
0.117543 0.195158 0.0755143
0.122132 0.196016 0.0701252
0.126743 0.196385 0.0657388
0.13122 0.196831 0.0610282
0.13576 0.197164 0.056752
0.140201 0.197788 0.0526266
0.145415 0.198148 0.0479881
0.150288 0.198568 0.0421586
0.154688 0.199105 0.0382521
0.159964 0.199882 0.0332098
0.164897 0.200277 0.0279677
0.169313 0.200551 0.0227746
0.174104 0.201069 0.0173564
0.17926 0.202026 0.0118648
0.184041 0.202285 0.00758481
0.188733 0.202617 0.00241578
0.193861 0.203151 -0.00286508
0.199387 0.203693 -0.00786567
0.204738 0.204562 -0.0168331
0.209886 0.205432 -0.0266438
-0.187272 0.200452 0.0711093
-0.180976 0.197723 0.0939044
-0.174188 0.196334 0.111702
-0.169148 0.194619 0.126042
-0.163925 0.193419 0.135973
-0.159098 0.192763 0.143795
-0.153536 0.191775 0.152692
-0.149459 0.191431 0.157735
-0.145042 0.190507 0.163588
-0.140412 0.190316 0.166456
-0.136201 0.189926 0.171361
-0.131857 0.188807 0.174967
-0.127316 0.188632 0.17905
-0.122756 0.188784 0.181634
-0.119043 0.188338 0.184704
-0.114279 0.187761 0.187789
-0.110343 0.18766 0.190521
-0.105724 0.18748 0.192387
-0.10195 0.187978 0.192973
-0.0973932 0.187112 0.195641
-0.0933608 0.187078 0.197705
-0.0894365 0.186827 0.198269
-0.0853234 0.186994 0.200879
-0.081152 0.186464 0.20223
-0.0772834 0.186583 0.202775
-0.0730416 0.186356 0.204566
-0.0687091 0.185795 0.205539
-0.0650555 0.185847 0.205986
-0.0603776 0.186023 0.207003
-0.0569151 0.185789 0.207981
-0.0526303 0.185879 0.208166
-0.0486024 0.186277 0.208685
-0.0445226 0.186472 0.208158
-0.0407898 0.185759 0.208826
-0.0362924 0.185749 0.208361
-0.0325221 0.185811 0.207805
-0.0279673 0.185909 0.205738
-0.0247042 0.186477 0.204711
-0.0204706 0.186603 0.203014
-0.0160622 0.186352 0.200428
-0.0121358 0.186967 0.197605
-0.00815848 0.187753 0.193908
-0.00368192 0.187726 0.190088
5.77483e-05 0.188511 0.185663
0.00397928 0.188793 0.18238
0.00821012 0.188954 0.178918
0.0122788 0.189354 0.175053
0.0163373 0.189743 0.170828
0.0206966 0.19009 0.167238
0.0245444 0.191009 0.163274
0.0292931 0.190965 0.15854
0.0331903 0.19123 0.155621
0.0372457 0.191942 0.152152
0.0418869 0.192241 0.147441
0.0459896 0.192168 0.14448
0.0504545 0.193151 0.140024
0.0547998 0.19327 0.136143
0.0586814 0.19364 0.13276
0.0637207 0.194317 0.126776
0.0680745 0.19472 0.123784
0.0722345 0.195409 0.11882
0.0768463 0.195601 0.115851
0.0809237 0.195976 0.111047
0.0855388 0.196408 0.107155
0.0896196 0.196753 0.102979
0.0945601 0.197319 0.0982232
0.0985113 0.197667 0.0940895
0.103523 0.198004 0.08924
0.107948 0.198501 0.0851161
0.112588 0.199387 0.0804632
0.117417 0.199908 0.0759375
0.121457 0.200108 0.0714177
0.126464 0.200595 0.0668296
0.131411 0.200649 0.0622511
0.135952 0.201716 0.0571271
0.140667 0.202038 0.0531332
0.14534 0.202356 0.0484465
0.149897 0.202763 0.044209
0.15486 0.203386 0.0372581
0.159624 0.204377 0.0340418
0.164366 0.204386 0.0289524
0.169234 0.204726 0.0244715
0.174126 0.205275 0.0202291
0.179203 0.205907 0.0151211
0.183689 0.206611 0.0102409
0.188994 0.207016 0.0058372
0.193179 0.207396 0.00309956
0.198964 0.207712 -0.00399065
0.204025 0.208355 -0.00998139
0.208928 0.209126 -0.0148363
-0.182116 0.203644 0.0788532
-0.176339 0.201548 0.0956661
-0.170599 0.20035 0.10951
-0.165352 0.198914 0.121797
-0.16 0.198034 0.133495
-0.154509 0.197138 0.143965
-0.15007 0.195941 0.152739
-0.145277 0.194466 0.162122
-0.140608 0.194429 0.166355
-0.136244 0.19389 0.170161
-0.131244 0.193249 0.174916
-0.126883 0.193237 0.178369
-0.12327 0.19244 0.180856
-0.118639 0.192462 0.183796
-0.114966 0.192402 0.185574
-0.109985 0.192109 0.188713
-0.106304 0.192047 0.18922
-0.102343 0.191621 0.191789
-0.097822 0.191668 0.19297
-0.0937682 0.191109 0.195062
-0.0893541 0.191191 0.197136
-0.0852913 0.191062 0.199192
-0.0813513 0.19085 0.199559
-0.0770458 0.190864 0.200635
-0.073048 0.190773 0.203118
-0.069007 0.190373 0.203119
-0.06499 0.190475 0.203089
-0.0608158 0.190425 0.204865
-0.0570243 0.190014 0.205305
-0.0527486 0.189896 0.205385
-0.0486096 0.190103 0.205915
-0.0446139 0.189986 0.20673
-0.0404709 0.190523 0.205346
-0.0366984 0.189936 0.206504
-0.0323834 0.190024 0.206576
-0.0285908 0.190421 0.204896
-0.0246126 0.190639 0.203682
-0.0203056 0.19098 0.202413
-0.0162906 0.190715 0.200721
-0.0118273 0.190866 0.1964
-0.0081166 0.191716 0.194075
-0.00377492 0.191847 0.190083
8.21303e-05 0.192286 0.18695
0.00409961 0.192172 0.183112
0.00800928 0.192738 0.179765
0.0124091 0.193118 0.174186
0.016472 0.193781 0.171289
0.0208995 0.194104 0.166167
0.0250756 0.195157 0.162357
0.0291527 0.195059 0.158977
0.0336262 0.195508 0.15483
0.0372829 0.196213 0.151136
0.0418337 0.196081 0.147334
0.0457656 0.196274 0.145219
0.0498859 0.197183 0.141274
0.0546895 0.197469 0.137373
0.0588447 0.197848 0.132986
0.0634361 0.198283 0.129
0.0676524 0.198792 0.124152
0.0719758 0.199181 0.119802
0.0766914 0.200081 0.115435
0.0809984 0.199903 0.111887
0.0856523 0.200233 0.107244
0.0899741 0.201062 0.103006
0.0939572 0.201541 0.0991414
0.0992493 0.201526 0.093835
0.103162 0.202192 0.0897552
0.108086 0.203264 0.0860461
0.112419 0.203429 0.0812126
0.11733 0.203804 0.0759116
0.12207 0.204754 0.0711142
0.126289 0.204434 0.0676365
0.131158 0.205585 0.0618031
0.135486 0.205746 0.0582091
0.140644 0.20625 0.0531222
0.145395 0.207302 0.047938
0.15026 0.207716 0.0438199
0.154883 0.207708 0.0388492
0.159504 0.208511 0.0352825
0.163803 0.208684 0.0309451
0.169017 0.209283 0.0269159
0.173674 0.209522 0.0218401
0.178565 0.209951 0.0183605
0.18391 0.210481 0.0145682
0.188346 0.210801 0.0110425
0.19323 0.211016 0.00732398
0.198181 0.211486 0.0029496
0.202859 0.212532 -0.000925303
0.208525 0.212765 -0.00897956
0.214236 0.214251 -0.0174797
-0.183793 0.209989 0.0591897
-0.177305 0.208308 0.0784023
-0.172614 0.206988 0.0887029
-0.166872 0.205716 0.10076
-0.162372 0.205087 0.108833
-0.156598 0.203247 0.123042
-0.151516 0.202385 0.132807
-0.146056 0.200288 0.148211
-0.141324 0.199644 0.154782
-0.136723 0.198533 0.162589
-0.132131 0.198228 0.166979
-0.127971 0.198272 0.170119
-0.123503 0.197291 0.175175
-0.119237 0.197278 0.178173
-0.114676 0.196991 0.180118
-0.110705 0.196695 0.183432
-0.106225 0.19656 0.186248
-0.102277 0.196196 0.188071
-0.0977684 0.195823 0.189531
-0.0938947 0.195309 0.191855
-0.0894919 0.195513 0.193241
-0.0854508 0.195582 0.195584
-0.0812691 0.195439 0.197223
-0.0772062 0.195254 0.198462
-0.0732593 0.19493 0.199599
-0.0692684 0.194971 0.200758
-0.0650599 0.194591 0.201454
-0.0608051 0.194508 0.202288
-0.0570067 0.194648 0.202163
-0.0528729 0.194605 0.20343
-0.048657 0.194253 0.204496
-0.0445781 0.194746 0.203458
-0.040393 0.194338 0.204331
-0.0364116 0.194245 0.204568
-0.0325016 0.194236 0.205408
-0.0282671 0.194109 0.204247
-0.0243921 0.194999 0.201069
-0.0205257 0.194676 0.20153
-0.0161855 0.194787 0.19866
-0.0121438 0.195284 0.197069
-0.00816499 0.195896 0.193372
-0.00401888 0.195815 0.190695
-5.33981e-05 0.19638 0.186495
0.00406748 0.196756 0.183245
0.0081268 0.196905 0.17959
0.012453 0.197203 0.175408
0.0163364 0.198072 0.171122
0.0207167 0.198579 0.167411
0.0244288 0.198901 0.163602
0.0289622 0.199247 0.160146
0.0330406 0.199395 0.155802
0.0373012 0.199686 0.152613
0.0413681 0.200439 0.148914
0.0456452 0.200544 0.145681
0.0505705 0.201414 0.140942
0.0542865 0.201704 0.138083
0.0587655 0.202601 0.133423
0.0631614 0.202246 0.129267
0.0676048 0.202993 0.124821
0.0719516 0.203425 0.121416
0.0764361 0.203451 0.116997
0.0810712 0.204538 0.11253
0.0848987 0.20465 0.108114
0.0895274 0.205518 0.104223
0.0945334 0.205868 0.0993018
0.0986596 0.205879 0.0948056
0.103209 0.206987 0.0907363
0.107847 0.206843 0.0859591
0.112309 0.207834 0.0817885
0.116951 0.208213 0.0771412
0.121792 0.208674 0.071647
0.126713 0.209186 0.0666322
0.130649 0.210194 0.0622865
0.135717 0.210725 0.0583056
0.140654 0.210353 0.053113
0.145545 0.211528 0.0479156
0.150123 0.211654 0.0441856
0.154539 0.212179 0.0408984
0.159105 0.212342 0.037303
0.163975 0.213147 0.033253
0.168858 0.213188 0.0290179
0.173733 0.213862 0.0257251
0.178402 0.21405 0.0224185
0.18304 0.214392 0.0190653
0.187414 0.21468 0.0177304
0.192853 0.214928 0.0123014
0.197578 0.21561 0.0103253
0.201995 0.21587 0.00533688
0.20762 0.216705 0.000427723
0.213264 0.216997 -0.00768042
0.217885 0.218332 -0.0152493
-0.17898 0.214085 0.0642865
-0.173637 0.212852 0.0746672
-0.16885 0.211974 0.0835201
-0.163282 0.210393 0.0949219
-0.157972 0.209398 0.10469
-0.152937 0.208765 0.114137
-0.147854 0.207179 0.124182
-0.143254 0.205887 0.134295
-0.137587 0.20533 0.142673
-0.133861 0.205036 0.148172
-0.128685 0.203419 0.15821
-0.124191 0.20324 0.162385
-0.11988 0.202758 0.167256
-0.115712 0.201986 0.171798
-0.110889 0.201445 0.176217
-0.106426 0.20108 0.179578
-0.102489 0.201319 0.181101
-0.0980863 0.200573 0.18501
-0.0939355 0.200294 0.1875
-0.090162 0.200503 0.188592
-0.085929 0.199883 0.191065
-0.0814758 0.199203 0.193545
-0.077673 0.199586 0.195772
-0.0729097 0.199251 0.196592
-0.0695595 0.199303 0.197662
-0.0648641 0.199206 0.199257
-0.0611756 0.198849 0.200485
-0.0569497 0.198799 0.201256
-0.0530031 0.198706 0.201315
-0.0486238 0.198659 0.201507
-0.0447364 0.19845 0.201789
-0.0404011 0.198658 0.202715
-0.0361708 0.198679 0.201439
-0.0326028 0.198994 0.201398
-0.0282046 0.198331 0.202163
-0.024227 0.198981 0.201149
-0.0200859 0.198961 0.199886
-0.0162418 0.199052 0.199498
-0.0120446 0.199337 0.196048
-0.00795545 0.199598 0.193858
-0.00369712 0.199729 0.190248
-7.02304e-05 0.20022 0.187275
0.00403122 0.200681 0.183288
0.00771366 0.200981 0.180654
0.0124152 0.201561 0.17588
0.0162886 0.202207 0.172451
0.020629 0.20229 0.168276
0.02485 0.203271 0.165222
0.0288416 0.203499 0.161123
0.0335963 0.203862 0.156143
0.0377531 0.204193 0.152581
0.0417864 0.204083 0.148785
0.0464221 0.2051 0.145447
0.0504041 0.205719 0.141221
0.0544972 0.205694 0.13829
0.0591478 0.206207 0.132813
0.062907 0.206327 0.130201
0.0673113 0.207416 0.124503
0.0722446 0.207647 0.119854
0.0764756 0.207696 0.116296
0.080898 0.208674 0.112371
0.085222 0.208941 0.108617
0.0900449 0.20986 0.103137
0.0948432 0.210301 0.0987056
0.0988651 0.210538 0.0943328
0.103785 0.21109 0.0895919
0.107946 0.211193 0.0865469
0.113022 0.212209 0.081046
0.116944 0.212728 0.076189
0.121922 0.213042 0.0718355
0.126363 0.213643 0.0674398
0.130898 0.214126 0.0634592
0.135985 0.214501 0.0580645
0.140497 0.215505 0.0531923
0.145267 0.215704 0.0489713
0.149552 0.216107 0.0458465
0.154161 0.216457 0.0419086
0.159507 0.216624 0.0380099
0.164199 0.217533 0.0341936
0.168616 0.217778 0.0324088
0.173065 0.217516 0.0298407
0.178205 0.21821 0.0267018
0.18284 0.21807 0.0242169
0.187766 0.218731 0.0208838
0.191706 0.219136 0.0190054
0.196854 0.219251 0.0160143
0.201929 0.219802 0.0116473
0.206604 0.219895 0.00730813
0.211618 0.220982 0.00227702
0.217078 0.221387 -0.00588512
0.222801 0.222469 -0.0151196
-0.18066 0.220076 0.0464184
-0.173729 0.218168 0.0681356
-0.16886 0.216961 0.0780312
-0.164335 0.216102 0.0829891
-0.15981 0.215654 0.0894289
-0.154457 0.214727 0.0989422
-0.149274 0.21352 0.109294
-0.14472 0.212326 0.117346
-0.139198 0.210986 0.127803
-0.134603 0.210335 0.135159
-0.130001 0.209536 0.142461
-0.125084 0.208509 0.149848
-0.120745 0.208052 0.154681
-0.116063 0.207645 0.15914
-0.112212 0.207186 0.16323
-0.107782 0.206664 0.168391
-0.102938 0.205946 0.172713
-0.0986444 0.205493 0.176582
-0.0945285 0.205069 0.181149
-0.0902518 0.204701 0.183031
-0.0856204 0.203955 0.188368
-0.0818154 0.204073 0.190162
-0.077379 0.204101 0.191765
-0.0735332 0.203923 0.192914
-0.0691189 0.203344 0.195791
-0.0650816 0.203447 0.196414
-0.0608179 0.203225 0.19752
-0.0568545 0.203373 0.19853
-0.0528383 0.20319 0.198791
-0.0486077 0.203143 0.199825
-0.0450245 0.202926 0.199808
-0.0408465 0.203005 0.200542
-0.0367276 0.202532 0.199715
-0.0322421 0.202604 0.200535
-0.0287733 0.202868 0.200439
-0.0240938 0.202679 0.200272
-0.0202736 0.203068 0.199226
-0.0160046 0.203386 0.197108
-0.0123039 0.203177 0.196399
-0.00800353 0.203606 0.193892
-0.00423433 0.203679 0.190796
3.93158e-05 0.204019 0.187885
0.00432002 0.205091 0.183511
0.0079858 0.205023 0.180665
0.0121166 0.205422 0.176536
0.0160876 0.206214 0.173109
0.0210003 0.20628 0.167882
0.0243736 0.20673 0.164656
0.0291175 0.207198 0.160782
0.0326499 0.207952 0.157417
0.0371839 0.208045 0.153034
0.041695 0.208525 0.149676
0.0460416 0.208979 0.145852
0.0502994 0.20972 0.141404
0.0542769 0.210074 0.137825
0.0589149 0.210839 0.132921
0.0631703 0.211058 0.12858
0.0677667 0.211251 0.125209
0.0718629 0.212229 0.120744
0.0768303 0.212742 0.115956
0.080993 0.212484 0.112974
0.0849575 0.21325 0.109344
0.0902321 0.214364 0.103362
0.0945305 0.214499 0.09875
0.098445 0.214859 0.0950426
0.103217 0.214993 0.0911927
0.107961 0.215915 0.0854423
0.11279 0.216323 0.0821033
0.117012 0.216892 0.0773518
0.121799 0.217236 0.0722603
0.12672 0.217729 0.0676938
0.131148 0.218293 0.0640371
0.135766 0.219148 0.0591884
0.140789 0.219621 0.0539623
0.145234 0.220495 0.0497236
0.149778 0.220574 0.0453385
0.154583 0.221283 0.0424845
0.159545 0.221094 0.0393831
0.163453 0.22126 0.037416
0.168796 0.221744 0.0347389
0.172808 0.221743 0.0338193
0.177513 0.222134 0.0315009
0.182016 0.222668 0.0297635
0.187091 0.222484 0.0263028
0.191501 0.222903 0.0241941
0.196226 0.223311 0.0198382
0.201478 0.223676 0.0170975
0.206354 0.22417 0.0132544
0.210992 0.224962 0.00860107
0.216588 0.225177 0.00196004
0.221522 0.225746 -0.00513673
-0.174066 0.222164 0.0691668
-0.16893 0.221673 0.0758871
-0.16434 0.220765 0.0825443
-0.159332 0.219597 0.0915164
-0.154781 0.219533 0.0971171
-0.149586 0.218277 0.102502
-0.144362 0.217144 0.112245
-0.140069 0.216136 0.118966
-0.134757 0.214791 0.129473
-0.130209 0.214397 0.136397
-0.125662 0.214034 0.1417
-0.121039 0.213372 0.146737
-0.116328 0.212198 0.152513
-0.112291 0.211941 0.156473
-0.107929 0.211661 0.160574
-0.103836 0.210874 0.165866
-0.0991712 0.210497 0.168719
-0.0945548 0.210292 0.173095
-0.090348 0.209383 0.177183
-0.0863425 0.209646 0.180199
-0.0819027 0.209074 0.184613
-0.0777899 0.20841 0.186846
-0.0735372 0.207618 0.190504
-0.0694775 0.208143 0.192146
-0.0652245 0.207276 0.194416
-0.061314 0.207398 0.195828
-0.057052 0.207523 0.195992
-0.052739 0.207263 0.196791
-0.0488125 0.20701 0.197427
-0.0445077 0.206994 0.197907
-0.0406986 0.207332 0.197383
-0.0366292 0.207123 0.198042
-0.0323295 0.207166 0.198156
-0.0284845 0.207905 0.197901
-0.0245032 0.207184 0.19769
-0.0201719 0.207514 0.197379
-0.0164637 0.207018 0.197025
-0.0121732 0.20744 0.195989
-0.00801142 0.207999 0.192549
-0.00393404 0.207899 0.190333
8.42699e-05 0.208796 0.187418
0.0041906 0.208858 0.183575
0.00823971 0.209303 0.180916
0.0124502 0.209368 0.175975
0.0168388 0.210119 0.173099
0.0205507 0.21035 0.169101
0.0246752 0.210667 0.164798
0.0289961 0.211399 0.1606
0.0331716 0.211861 0.157502
0.0376599 0.212249 0.153263
0.0416359 0.212714 0.149979
0.0457893 0.213134 0.146846
0.0506312 0.214118 0.140807
0.0546856 0.213925 0.138928
0.0591603 0.214563 0.134187
0.0636048 0.215135 0.129922
0.0676227 0.215671 0.125608
0.0720955 0.216371 0.121823
0.0764442 0.216907 0.117362
0.0806635 0.217008 0.113224
0.0854958 0.217449 0.108984
0.0895964 0.217953 0.105226
0.0941148 0.218912 0.0999768
0.0989782 0.218985 0.0953963
0.103319 0.219496 0.0904673
0.107789 0.220003 0.086246
0.112494 0.220814 0.0815711
0.117146 0.221053 0.0767354
0.121729 0.22148 0.0718917
0.12641 0.222136 0.0677065
0.131002 0.222681 0.0637676
0.135555 0.223323 0.0585287
0.140447 0.223946 0.0540957
0.145273 0.223997 0.0498292
0.149791 0.224373 0.0466683
0.154397 0.224983 0.0420431
0.159023 0.225094 0.0406421
0.163498 0.225653 0.0386906
0.168559 0.225559 0.0362046
0.173103 0.225929 0.0347615
0.177566 0.225942 0.0351187
0.181741 0.226663 0.0324738
0.187069 0.226603 0.0301372
0.191444 0.226654 0.0271591
0.196134 0.227344 0.0247877
0.2011 0.227156 0.0210807
0.205731 0.228194 0.0179224
0.210231 0.228376 0.0139781
0.215489 0.229408 0.00934887
0.221882 0.230041 0.000684142
0.226727 0.230948 -0.00747323
-0.173533 0.225992 0.0739583
-0.168826 0.2251 0.0813495
-0.164236 0.224264 0.0884755
-0.158852 0.223414 0.09562
-0.153922 0.222581 0.101142
-0.149562 0.222437 0.10455
-0.14495 0.221643 0.110002
-0.140294 0.220652 0.117389
-0.135361 0.219563 0.126894
-0.130676 0.218817 0.133264
-0.126099 0.218551 0.139445
-0.121667 0.217516 0.143888
-0.116765 0.217075 0.149717
-0.112362 0.216741 0.152512
-0.107657 0.216092 0.156945
-0.103604 0.215855 0.159271
-0.0996082 0.215448 0.163245
-0.0953365 0.214816 0.167208
-0.090321 0.214114 0.172661
-0.0861057 0.213752 0.17706
-0.081784 0.213298 0.18124
-0.0775884 0.21308 0.184544
-0.0736135 0.212718 0.186069
-0.0695377 0.212685 0.188676
-0.0654227 0.212243 0.19019
-0.0613285 0.212451 0.192357
-0.0570585 0.212121 0.193206
-0.0534593 0.211555 0.194338
-0.0486537 0.212086 0.194166
-0.0448805 0.211945 0.194567
-0.0409028 0.211802 0.194251
-0.0366102 0.211289 0.196076
-0.0329037 0.211708 0.196246
-0.0284367 0.211576 0.196388
-0.0246172 0.211447 0.19532
-0.0205434 0.211433 0.195283
-0.0163623 0.211314 0.195241
-0.0121214 0.211859 0.194089
-0.00841486 0.211607 0.193962
-0.00408667 0.212141 0.190474
-0.000338156 0.212988 0.187438
0.00445168 0.212794 0.183599
0.00805728 0.213392 0.180931
0.0120121 0.214045 0.177356
0.0162603 0.214157 0.174156
0.0206887 0.214403 0.169602
0.0249536 0.214814 0.165899
0.0293216 0.215456 0.160852
0.0330464 0.215939 0.157794
0.0376144 0.216698 0.153475
0.0415682 0.216961 0.150027
0.0461592 0.217838 0.146365
0.0500676 0.217707 0.142649
0.0548291 0.21892 0.138295
0.0591113 0.218915 0.134436
0.0630412 0.219321 0.129434
0.0675584 0.219608 0.126128
0.0722731 0.220145 0.121861
0.0760502 0.220742 0.118441
0.0809728 0.221133 0.113773
0.0853547 0.222094 0.109127
0.0896449 0.222396 0.104887
0.0942431 0.222826 0.0998975
0.0990544 0.223157 0.0951346
0.103268 0.224277 0.0906715
0.10744 0.223923 0.0870932
0.112762 0.224787 0.0818683
0.117221 0.22551 0.0762746
0.121682 0.22563 0.0728915
0.126443 0.226966 0.0675974
0.130739 0.22694 0.0647322
0.135462 0.227484 0.0590751
0.140064 0.228062 0.0548391
0.145534 0.228137 0.0504259
0.149913 0.22913 0.0463971
0.154564 0.229447 0.0430467
0.159265 0.229872 0.0415381
0.163331 0.229746 0.0393897
0.167554 0.229796 0.040993
0.172819 0.22999 0.0381346
0.176859 0.230166 0.0381844
0.181495 0.230116 0.0363059
0.186436 0.230633 0.0336729
0.190649 0.23055 0.0319445
0.196319 0.231076 0.0283035
0.200136 0.231391 0.0264298
0.205323 0.232191 0.0223184
0.2104 0.232574 0.017028
0.215288 0.233115 0.0114019
0.220002 0.23396 0.00639677
0.225416 0.234615 0.000193357
0.23142 0.236054 -0.0111349
-0.178535 0.231003 0.0683944
-0.173252 0.229191 0.080049
-0.168582 0.228692 0.0891019
-0.163318 0.227965 0.0957943
-0.158379 0.227006 0.100986
-0.153471 0.226175 0.105293
-0.149112 0.226125 0.109406
-0.144293 0.225263 0.115002
-0.139929 0.22425 0.123147
-0.134704 0.223128 0.132928
-0.130214 0.222553 0.139064
-0.125615 0.221608 0.144157
-0.121207 0.221524 0.146077
-0.116934 0.221229 0.148399
-0.112726 0.220796 0.15182
-0.108011 0.220215 0.155621
-0.103809 0.220017 0.158326
-0.0993528 0.219169 0.16127
-0.0950162 0.219503 0.164596
-0.0902694 0.218821 0.170118
-0.0863027 0.218232 0.174263
-0.0820122 0.217463 0.178609
-0.0779961 0.217203 0.183138
-0.0737324 0.217373 0.185176
-0.0696007 0.216601 0.186065
-0.0654047 0.216529 0.188572
-0.0611109 0.216194 0.190057
-0.0569306 0.216306 0.19222
-0.052826 0.216094 0.191862
-0.0491678 0.216333 0.192516
-0.044818 0.215985 0.193714
-0.0403878 0.216275 0.192705
-0.0367638 0.21586 0.193848
-0.0327697 0.216055 0.193767
-0.0287943 0.21573 0.19385
-0.0243952 0.215991 0.193711
-0.0200005 0.216057 0.194536
-0.0161009 0.21598 0.192348
-0.012011 0.216645 0.192143
-0.00779548 0.215772 0.191608
-0.00406804 0.215694 0.190988
2.551e-05 0.216718 0.186495
0.00369653 0.216662 0.185137
0.00817771 0.217353 0.180431
0.0124641 0.218313 0.176709
0.0164029 0.218503 0.174011
0.0209384 0.219124 0.168776
0.0246115 0.219154 0.165848
0.0287069 0.219567 0.162648
0.0330573 0.220437 0.158203
0.0372746 0.220509 0.154844
0.0414441 0.22108 0.150627
0.0454627 0.221765 0.146779
0.0504191 0.221918 0.143255
0.0544746 0.222438 0.138783
0.0587927 0.223036 0.134912
0.0632033 0.223613 0.13087
0.0674471 0.223716 0.126955
0.0720173 0.224494 0.121665
0.0758576 0.224905 0.118141
0.0807315 0.225291 0.114494
0.0848634 0.225844 0.109341
0.089704 0.226881 0.104641
0.0941564 0.22731 0.101165
0.0985264 0.227419 0.0959827
0.103895 0.228166 0.090896
0.107575 0.228519 0.0870867
0.11254 0.229722 0.0818228
0.116921 0.229766 0.0769504
0.121998 0.23027 0.0722481
0.126322 0.231006 0.0685589
0.131095 0.231539 0.0638305
0.135925 0.232228 0.0591055
0.140635 0.232647 0.0540191
0.145066 0.233229 0.0513841
0.150106 0.233657 0.0457534
0.154557 0.234296 0.043866
0.15879 0.234471 0.0413069
0.163176 0.234151 0.0409284
0.16796 0.234301 0.040954
0.172551 0.233986 0.0397938
0.177168 0.234337 0.0395139
0.181299 0.234274 0.0399948
0.186066 0.234168 0.0370934
0.190797 0.234795 0.0347546
0.195087 0.235214 0.0322913
0.199744 0.235523 0.0303262
0.204576 0.2357 0.0250223
0.209845 0.236648 0.0202237
0.214856 0.237196 0.0146204
0.22011 0.238192 0.00957894
0.225378 0.239297 0.00301147
0.230857 0.239658 -0.0053575
-0.177958 0.233892 0.0792316
-0.172809 0.232847 0.0872347
-0.167484 0.23182 0.0962617
-0.162903 0.231351 0.101006
-0.158086 0.230761 0.106861
-0.153651 0.2302 0.109049
-0.148846 0.229787 0.115096
-0.14429 0.229084 0.122615
-0.139225 0.227878 0.130545
-0.134684 0.226684 0.138126
-0.130145 0.226157 0.142447
-0.125521 0.225875 0.146468
-0.121478 0.225055 0.15004
-0.116724 0.225217 0.15293
-0.111975 0.224298 0.155086
-0.108013 0.223884 0.158332
-0.103831 0.224467 0.160111
-0.099243 0.223524 0.163348
-0.0953053 0.223121 0.168787
-0.0907564 0.222795 0.173298
-0.0863428 0.222202 0.177148
-0.0821715 0.221906 0.180121
-0.0780028 0.220951 0.18251
-0.0742858 0.221066 0.184542
-0.0695473 0.221027 0.186669
-0.0653307 0.220518 0.189223
-0.0615771 0.220385 0.19032
-0.0570327 0.22009 0.191243
-0.0530454 0.220509 0.190644
-0.048908 0.22013 0.191561
-0.0447247 0.219946 0.191914
-0.0408206 0.219951 0.191447
-0.036935 0.220366 0.190734
-0.0329987 0.22041 0.190493
-0.028684 0.220252 0.192466
-0.0243177 0.220165 0.19179
-0.0203714 0.220268 0.192465
-0.0163975 0.2204 0.19075
-0.0122588 0.220429 0.191316
-0.00797596 0.220561 0.190621
-0.00397108 0.22068 0.188983
0.000532601 0.220516 0.186776
0.00411192 0.221462 0.183608
0.00803595 0.22152 0.180704
0.0123722 0.221626 0.177482
0.0163701 0.222192 0.174244
0.0206298 0.222884 0.169614
0.0253773 0.223136 0.164683
0.0288833 0.2235 0.163377
0.0328666 0.224546 0.157938
0.037262 0.224869 0.155097
0.0419699 0.225363 0.15084
0.0456432 0.225758 0.146528
0.0501301 0.226718 0.142352
0.0542687 0.227121 0.139124
0.0585576 0.227261 0.135735
0.0631851 0.227834 0.130783
0.06778 0.228495 0.126114
0.0721028 0.228571 0.12201
0.0763698 0.229383 0.118624
0.0811955 0.229611 0.114518
0.0852067 0.230385 0.109705
0.0899109 0.230699 0.1054
0.0940707 0.231559 0.101067
0.0986557 0.231887 0.096343
0.103202 0.232544 0.0910984
0.107873 0.233141 0.0874376
0.11256 0.233564 0.0820544
0.117082 0.233728 0.0771389
0.121795 0.23457 0.0722718
0.126361 0.235156 0.0679526
0.130946 0.235806 0.0639399
0.135438 0.236405 0.0594056
0.139967 0.236846 0.0546396
0.145598 0.237791 0.0503392
0.149932 0.237802 0.0469402
0.154233 0.238074 0.043551
0.158729 0.238298 0.042715
0.163652 0.238579 0.0410216
0.168209 0.238359 0.0411564
0.172273 0.238721 0.0407208
0.176881 0.238456 0.0416373
0.18115 0.238468 0.0410786
0.185901 0.238764 0.039963
0.190629 0.238744 0.0381039
0.194611 0.239073 0.0352346
0.200153 0.239626 0.0308959
0.204662 0.239957 0.027159
0.209347 0.24082 0.0231318
0.215063 0.241401 0.0165919
0.219519 0.242264 0.0112789
0.225374 0.24285 0.00305784
0.230599 0.24386 -0.00410199
0.23599 0.245502 -0.0147083
-0.182052 0.238352 0.076906
-0.176669 0.237487 0.0883515
-0.171946 0.236278 0.0947741
-0.166807 0.23551 0.101564
-0.161857 0.234559 0.108297
-0.157845 0.234447 0.111359
-0.153082 0.233937 0.115079
-0.148251 0.233088 0.120907
-0.143455 0.231875 0.130631
-0.138893 0.231106 0.137076
-0.133873 0.230376 0.142502
-0.129622 0.229944 0.146081
