ply
format ascii 1.0
element vertex 1700
property float x
property float y
property float z
end_header
-0.0120836 0.144041 0.227208
-0.00836498 0.144067 0.227927
-0.00385157 0.143826 0.228365
0.000173838 0.144089 0.228123
0.0039245 0.144159 0.226809
0.00840364 0.144134 0.227168
0.0121555 0.143729 0.227074
0.0158495 0.144475 0.225423
0.0196299 0.144283 0.225684
0.0242402 0.144161 0.22389
0.0281312 0.144433 0.220266
0.032207 0.144722 0.218179
0.0361184 0.144758 0.214409
0.0406108 0.14505 0.209611
0.0441953 0.145768 0.204341
0.0486018 0.146196 0.198379
0.0531732 0.146804 0.190764
0.057367 0.147766 0.183238
0.0615768 0.148319 0.174558
0.0664756 0.149075 0.165586
0.0711285 0.149586 0.155062
0.0752149 0.150539 0.146315
0.0795673 0.151414 0.137251
0.0842332 0.152009 0.128243
0.08936 0.152711 0.119026
0.0937703 0.153637 0.110224
0.0986467 0.154186 0.101731
0.103154 0.154982 0.092446
0.108263 0.15567 0.0832487
0.113565 0.156541 0.0717204
0.118471 0.157435 0.0621929
0.122853 0.158207 0.0533003
0.128265 0.15872 0.0421529
0.133249 0.159947 0.0313629
0.138668 0.161086 0.0195503
0.143586 0.161388 0.00949645
0.149421 0.163153 -0.00461245
0.154569 0.1635 -0.0154445
0.159722 0.164209 -0.027087
0.165468 0.165391 -0.0394058
0.171526 0.167047 -0.0546927
0.177491 0.168212 -0.0703273
0.183631 0.169832 -0.0887156
-0.169715 0.156897 0.118315
-0.164409 0.155824 0.1315
-0.159704 0.154966 0.140072
-0.154649 0.155023 0.147784
-0.150307 0.154036 0.153176
-0.144904 0.153437 0.160963
-0.14046 0.15319 0.166472
-0.136273 0.152921 0.170123
-0.1315 0.152156 0.175228
-0.127317 0.151679 0.179882
-0.122618 0.151332 0.183811
-0.118632 0.151537 0.185636
-0.114008 0.151426 0.189725
-0.109449 0.150021 0.194076
-0.105578 0.150744 0.196024
-0.101319 0.149944 0.198319
-0.0976719 0.150327 0.199912
-0.0933073 0.14995 0.202346
-0.0889217 0.149627 0.204398
-0.0846832 0.149675 0.2054
-0.0805533 0.149479 0.208149
-0.0772421 0.149208 0.210271
-0.0725877 0.14915 0.212185
-0.0684594 0.149033 0.214383
-0.0643602 0.148991 0.216906
-0.0600669 0.148989 0.218109
-0.0566182 0.1482 0.220264
-0.0521136 0.148822 0.220125
-0.0481119 0.148601 0.22175
-0.043955 0.148472 0.222987
-0.0397401 0.147983 0.22413
-0.0358367 0.148062 0.224847
-0.0321013 0.148362 0.224792
-0.0280213 0.147865 0.225548
-0.0242553 0.148156 0.226611
-0.0200683 0.1484 0.226318
-0.0162039 0.147759 0.227096
-0.0121236 0.147966 0.227173
-0.00781229 0.14814 0.228135
-0.00404431 0.147921 0.227196
0.000335471 0.147747 0.226757
0.00405642 0.147666 0.226894
0.0083834 0.148023 0.226623
0.0121152 0.148291 0.226455
0.0161548 0.148407 0.22453
0.0200009 0.148322 0.223763
0.0239945 0.148049 0.223316
0.027795 0.148201 0.220833
0.0323951 0.14859 0.218129
0.0363407 0.149305 0.21529
0.0405223 0.149176 0.212095
0.0441925 0.149908 0.206533
0.0486129 0.149954 0.200844
0.0530124 0.150889 0.192832
0.0570508 0.151256 0.184836
0.061884 0.152333 0.17502
0.0666124 0.152814 0.16495
0.070667 0.153831 0.157164
0.0755078 0.154682 0.146321
0.0795517 0.155246 0.138388
0.0845344 0.156299 0.128902
0.0887643 0.156816 0.121648
0.0939168 0.157529 0.110939
0.098371 0.158719 0.102915
0.103375 0.158761 0.0928355
0.108223 0.159932 0.0837533
0.113162 0.160646 0.0739675
0.117843 0.161637 0.0637703
0.122917 0.162496 0.0534561
0.128181 0.163498 0.0421224
0.133653 0.164513 0.030882
0.138261 0.165353 0.0208812
0.143569 0.166167 0.00935507
0.149217 0.166701 -0.00338602
0.154635 0.168194 -0.0156333
0.159584 0.169132 -0.0251195
0.165566 0.170509 -0.0388672
0.171032 0.171001 -0.0528789
0.177481 0.173128 -0.0707426
0.183485 0.174052 -0.0871284
-0.170307 0.161687 0.111912
-0.164961 0.16044 0.12656
-0.159636 0.15978 0.137555
-0.155183 0.159067 0.143689
-0.150194 0.158297 0.151645
-0.145449 0.158017 0.15744
-0.141037 0.156884 0.163195
-0.136222 0.157228 0.167055
-0.131716 0.156516 0.17283
-0.127527 0.156064 0.177387
-0.122995 0.155922 0.180936
-0.118973 0.155698 0.185305
-0.114659 0.155385 0.187945
-0.110121 0.154945 0.191136
-0.105752 0.154779 0.194585
-0.101497 0.154739 0.196187
-0.0977377 0.154406 0.198965
-0.0934222 0.154403 0.20086
-0.0892726 0.153872 0.20233
-0.0846463 0.153603 0.203854
-0.0811681 0.153968 0.205344
-0.0765246 0.153829 0.209002
-0.0723033 0.153259 0.210805
-0.0684905 0.153064 0.21314
-0.0645738 0.152813 0.215325
-0.060914 0.1527 0.217059
-0.0560687 0.152923 0.218032
-0.0521115 0.152492 0.219536
-0.047804 0.152502 0.221729
-0.0437794 0.152305 0.221791
-0.0401577 0.15271 0.221662
-0.0360201 0.15195 0.223864
-0.0321426 0.152076 0.224225
-0.0279035 0.151924 0.224878
-0.0240545 0.151981 0.225574
-0.0202808 0.152223 0.225581
-0.0159008 0.15193 0.225811
-0.011884 0.151923 0.225926
-0.00806065 0.152214 0.225165
-0.00381872 0.152312 0.226753
-0.000166188 0.15204 0.226354
0.00404223 0.151843 0.226068
0.00785363 0.152144 0.225428
0.0120812 0.151926 0.22495
0.0161136 0.152242 0.225273
0.0203518 0.152108 0.223873
0.0241302 0.152485 0.222964
0.0280711 0.151986 0.220595
0.0320858 0.152778 0.219248
0.0365349 0.153015 0.215565
0.0402391 0.153304 0.21107
0.0440345 0.153683 0.206662
0.0484774 0.15419 0.200316
0.0527453 0.155011 0.194248
0.0573836 0.155324 0.184851
0.0617613 0.156113 0.175824
0.0660512 0.156984 0.167448
0.0703948 0.157478 0.158153
0.0752062 0.158801 0.148585
0.0799593 0.15929 0.138752
0.0843759 0.160006 0.129664
0.0890719 0.161137 0.121389
0.093368 0.161805 0.113119
0.0983301 0.16269 0.104105
0.103176 0.163179 0.0948721
0.107913 0.164181 0.0853457
0.11286 0.164962 0.0752987
0.117781 0.16599 0.0654919
0.122563 0.166615 0.0552455
0.12791 0.167584 0.0434448
0.132811 0.168376 0.0331281
0.138378 0.169677 0.021104
0.143771 0.170489 0.0100642
0.148739 0.171251 -0.000400543
0.154276 0.172352 -0.013334
0.15919 0.173397 -0.0237834
0.164704 0.174377 -0.0369177
0.17146 0.175911 -0.0547695
0.177337 0.177192 -0.068428
0.183423 0.178351 -0.0858879
-0.170407 0.166567 0.108167
-0.165034 0.164936 0.123629
-0.159888 0.164572 0.133397
-0.154606 0.163601 0.14136
-0.150271 0.162782 0.14822
-0.146053 0.162149 0.154266
-0.141096 0.161842 0.160398
-0.136505 0.161128 0.165926
-0.131731 0.160867 0.170085
-0.127615 0.160285 0.175927
-0.123137 0.160034 0.180312
-0.118654 0.159874 0.183014
-0.114735 0.159552 0.187039
-0.110433 0.159377 0.189613
-0.105921 0.159079 0.19254
-0.101819 0.158501 0.195489
-0.0973771 0.15864 0.197287
-0.0935412 0.15884 0.198778
-0.0895344 0.158149 0.201812
-0.0848268 0.157776 0.204494
-0.0809739 0.157549 0.20556
-0.0771615 0.157586 0.206937
-0.0727574 0.157364 0.210073
-0.068507 0.157449 0.212285
-0.064274 0.157204 0.214256
-0.0600954 0.15659 0.21669
-0.0561833 0.156833 0.216564
-0.0522291 0.156522 0.218587
-0.0481303 0.156686 0.219963
-0.0440639 0.156532 0.221386
-0.0405123 0.156349 0.221163
-0.0357779 0.155997 0.222418
-0.0322969 0.156657 0.222284
-0.0278033 0.156358 0.223032
-0.0242077 0.156192 0.222575
-0.0197343 0.156398 0.224623
-0.0160135 0.156 0.224855
-0.0121703 0.156342 0.224426
-0.00787957 0.156045 0.22516
-0.00407396 0.156639 0.224313
1.0162e-05 0.156571 0.224059
0.00410793 0.155932 0.224269
0.00759686 0.156272 0.223882
0.0119129 0.156236 0.223571
0.0164338 0.156105 0.22343
0.0198183 0.156543 0.223206
0.0243409 0.156599 0.221916
0.0283282 0.156571 0.219344
0.0319394 0.156683 0.217868
0.0362999 0.157096 0.214967
0.0402923 0.157038 0.211602
0.0446332 0.157792 0.20658
0.0485973 0.158054 0.200763
0.0528749 0.158698 0.194756
0.0572848 0.159559 0.186446
0.0623791 0.160267 0.176637
0.0661321 0.160913 0.168578
0.0703911 0.161988 0.159295
0.0746005 0.162959 0.150698
0.0797668 0.163429 0.139667
0.0841898 0.163876 0.13146
0.0888184 0.164922 0.123381
0.093451 0.166023 0.114081
0.0981668 0.166635 0.105011
0.103118 0.167536 0.0949165
0.107497 0.168063 0.0861082
0.112971 0.168728 0.0754564
0.117965 0.169896 0.0650238
0.123011 0.171348 0.0545387
0.127975 0.17214 0.0440614
0.133294 0.173354 0.0337074
0.138336 0.174197 0.0224279
0.143662 0.175083 0.0106837
0.148797 0.175975 -0.000231028
0.154071 0.176331 -0.0120497
0.160134 0.177849 -0.0255613
0.165321 0.179327 -0.0380602
0.17149 0.180208 -0.0532672
0.177408 0.181539 -0.0682006
0.183729 0.183162 -0.0836873
-0.170984 0.170792 0.102763
-0.16524 0.16984 0.118794
-0.160301 0.169021 0.128409
-0.155363 0.168004 0.137285
-0.150685 0.166818 0.145101
-0.145569 0.166476 0.1527
-0.141667 0.166485 0.156404
-0.136589 0.165785 0.162885
-0.132224 0.165511 0.167412
-0.12788 0.164766 0.172999
-0.123186 0.164183 0.177971
-0.119079 0.164756 0.180514
-0.114603 0.163774 0.184983
-0.110166 0.163368 0.188724
-0.105874 0.163191 0.19092
-0.101926 0.162449 0.194431
-0.0975007 0.162476 0.196566
-0.0936415 0.16258 0.198358
-0.089294 0.162171 0.200306
-0.0848386 0.162026 0.202962
-0.0812531 0.161777 0.205025
-0.0768284 0.161602 0.207438
-0.0728863 0.161563 0.209196
-0.0688599 0.161817 0.210031
-0.0645514 0.161523 0.212884
-0.0600091 0.161271 0.214122
-0.0559447 0.161075 0.215792
-0.0525396 0.160799 0.217015
-0.0484863 0.160802 0.218408
-0.0443646 0.160812 0.219422
-0.0401487 0.160407 0.220019
-0.0362959 0.160366 0.221179
-0.0320314 0.160464 0.221773
-0.0278472 0.160507 0.221428
-0.0240433 0.16012 0.222687
-0.0202028 0.160228 0.22303
-0.0161011 0.160387 0.222636
-0.0118384 0.160256 0.223035
-0.00823825 0.160508 0.224188
-0.00382242 0.160298 0.224542
8.00855e-05 0.160436 0.222735
0.00402365 0.160236 0.22232
0.00773319 0.16003 0.223693
0.0119074 0.160484 0.223103
0.0162106 0.160234 0.221608
0.020089 0.160397 0.220914
0.0239749 0.160289 0.22037
0.0279379 0.160687 0.21896
0.0321522 0.160814 0.217664
0.0364396 0.161163 0.214252
0.0405176 0.161216 0.211426
0.0445973 0.161867 0.206897
0.0483912 0.162334 0.200908
0.0531548 0.162652 0.194518
0.0570649 0.163462 0.187358
0.0613879 0.164568 0.180055
0.0655948 0.165002 0.170745
0.0708534 0.166242 0.159485
0.0749632 0.166891 0.15016
0.0794791 0.167307 0.141508
0.0846043 0.168734 0.130929
0.0888346 0.16925 0.123596
0.0936543 0.169894 0.114283
0.0982263 0.171283 0.105763
0.10307 0.171617 0.0967455
0.107976 0.172893 0.0867906
0.112656 0.173254 0.0770428
0.117618 0.174408 0.0669556
0.122732 0.175533 0.0562946
0.12805 0.176774 0.0450433
0.133181 0.17734 0.0346477
0.138445 0.178043 0.0230761
0.143899 0.179153 0.0119396
0.148726 0.180345 0.000521183
0.154152 0.181274 -0.011925
0.159846 0.182592 -0.0239861
0.165569 0.183761 -0.037215
0.171435 0.184853 -0.0512414
0.176995 0.186219 -0.0653863
0.183432 0.18775 -0.0816989
0.188539 0.188719 -0.0923901
-0.166346 0.174653 0.111025
-0.160786 0.173323 0.12484
-0.15536 0.172801 0.134586
-0.150976 0.172235 0.141071
-0.146372 0.171559 0.147531
-0.14124 0.17094 0.154204
-0.136764 0.170086 0.1606
-0.132432 0.16948 0.165367
-0.127893 0.168959 0.1708
-0.12367 0.168634 0.174626
-0.119339 0.168916 0.177733
-0.114663 0.168245 0.182695
-0.110472 0.168041 0.185715
-0.106171 0.16739 0.190572
-0.101931 0.167182 0.191942
-0.0976479 0.167069 0.195479
-0.093254 0.166626 0.197655
-0.089597 0.166105 0.200507
-0.0851264 0.166295 0.202313
-0.0812382 0.165811 0.203676
-0.0768805 0.165681 0.206372
-0.0727343 0.16564 0.208512
-0.0686861 0.165384 0.210419
-0.0642639 0.165114 0.213136
-0.0601911 0.165459 0.212928
-0.0566059 0.164783 0.214734
-0.0522354 0.1652 0.214861
-0.048259 0.164817 0.216248
-0.0437461 0.164517 0.217436
-0.0402675 0.164897 0.21839
-0.0361933 0.164925 0.217909
-0.0322117 0.16455 0.219354
-0.0278343 0.164914 0.220192
-0.0240815 0.164264 0.220909
-0.0198875 0.164462 0.221292
-0.0158063 0.164595 0.22119
-0.0121845 0.164291 0.222382
-0.00778909 0.164225 0.221374
-0.00349635 0.164844 0.222022
-0.000207542 0.164224 0.221663
0.00394293 0.164715 0.220875
0.0075607 0.164437 0.220983
0.0123181 0.164617 0.221361
0.015651 0.164262 0.220929
0.0199809 0.164507 0.219694
0.0240799 0.164471 0.219348
0.0281228 0.164977 0.217092
0.0319147 0.164846 0.216415
0.0362754 0.165423 0.213949
0.0403619 0.165382 0.210406
0.0448482 0.165877 0.205479
0.0485004 0.16641 0.200723
0.0530521 0.167205 0.193706
0.0569144 0.167529 0.187912
0.061728 0.168129 0.179212
0.0657863 0.16867 0.17067
0.0703114 0.170174 0.161581
0.0745232 0.170672 0.152156
0.0794922 0.171777 0.141574
0.0845083 0.172809 0.131781
0.0888771 0.173834 0.12336
0.0932996 0.174065 0.115803
0.0983205 0.175383 0.10624
0.103064 0.175851 0.0964755
0.107784 0.17686 0.087021
0.113118 0.177534 0.0765437
0.117889 0.178768 0.0671365
0.122326 0.17971 0.0575197
0.128041 0.180647 0.0451632
0.133056 0.181873 0.0347052
0.13784 0.182576 0.0256212
0.143431 0.18406 0.0125495
0.148305 0.184645 0.00202239
0.153686 0.185696 -0.00962663
0.159823 0.186962 -0.0231025
0.16539 0.188541 -0.0358183
0.171426 0.189311 -0.0501077
0.176745 0.190648 -0.0626791
0.182807 0.191509 -0.075882
0.18858 0.192966 -0.087477
0.194045 0.194234 -0.100194
-0.166517 0.179084 0.106802
-0.160986 0.178462 0.119279
-0.156089 0.177074 0.129107
-0.15116 0.176172 0.137708
-0.146573 0.175997 0.1439
-0.14192 0.175298 0.150545
-0.137235 0.175046 0.15621
-0.132598 0.17421 0.162251
-0.128063 0.173616 0.167182
-0.1238 0.17323 0.170909
-0.119257 0.173174 0.174947
-0.114978 0.172439 0.179478
-0.11089 0.172453 0.183238
-0.106613 0.171617 0.187209
-0.101907 0.171425 0.191312
-0.0976181 0.170866 0.193968
-0.093903 0.171294 0.195341
-0.0897941 0.170389 0.198209
-0.0855056 0.169931 0.200682
-0.0811017 0.169909 0.203487
-0.077287 0.170286 0.20417
-0.0728739 0.169703 0.207869
-0.0683319 0.169364 0.210537
-0.0646824 0.16945 0.211736
-0.0602829 0.169446 0.212465
-0.0563211 0.169234 0.21307
-0.052138 0.168754 0.214371
-0.0485676 0.168879 0.215285
-0.0438715 0.168712 0.216045
-0.0402251 0.168739 0.216944
-0.0361175 0.168746 0.216923
-0.0324267 0.168922 0.218168
-0.0282285 0.168611 0.219352
-0.0243354 0.168545 0.21922
-0.02013 0.168717 0.218575
-0.0159374 0.168913 0.21959
-0.0120643 0.168266 0.21999
-0.00828248 0.169007 0.219732
-0.00439136 0.169097 0.218608
-0.000399371 0.1686 0.219889
0.00395759 0.168688 0.219623
0.00865798 0.168802 0.219151
0.0120071 0.168286 0.21934
0.0162088 0.168708 0.218404
0.0202865 0.168982 0.216978
0.0241247 0.168784 0.21731
0.0280612 0.168675 0.216899
0.032608 0.169324 0.21404
0.0363483 0.169494 0.213012
0.040074 0.16932 0.210717
0.0447516 0.17052 0.205572
0.0484623 0.170498 0.200942
0.0529226 0.171149 0.194649
0.056927 0.172063 0.187601
0.061664 0.172365 0.180621
0.0660329 0.173045 0.170159
0.0708491 0.173988 0.160644
0.0749587 0.174703 0.152134
0.0795763 0.176097 0.142188
0.0839432 0.176345 0.133495
0.0884879 0.177416 0.125264
0.0935091 0.178866 0.115547
0.0981392 0.179452 0.108334
0.102923 0.17999 0.0980308
0.108086 0.181276 0.0878351
0.112724 0.182317 0.078015
0.117618 0.182772 0.068966
0.122881 0.184103 0.0576651
0.128147 0.184773 0.0458332
0.133184 0.18632 0.0366385
0.137698 0.187309 0.0262161
0.142835 0.188176 0.0147614
0.148761 0.189367 0.00143421
0.154384 0.190662 -0.0106664
0.159569 0.191161 -0.0214131
0.164895 0.192597 -0.03285
0.170721 0.19378 -0.0480642
0.175958 0.194709 -0.0575829
0.182031 0.19583 -0.0697029
0.187487 0.196702 -0.0790684
0.193324 0.197411 -0.0885944
0.19866 0.198866 -0.0999589
-0.167406 0.184386 0.0982946
-0.161505 0.183102 0.114155
-0.156472 0.181758 0.125011
-0.151702 0.180845 0.133329
-0.146574 0.180508 0.140414
-0.141806 0.179088 0.14833
-0.137627 0.179021 0.152214
-0.132566 0.178296 0.15849
-0.128617 0.178064 0.163173
-0.123577 0.177664 0.167931
-0.11942 0.177008 0.173784
-0.114831 0.176749 0.177992
-0.111303 0.176231 0.181126
-0.106445 0.176225 0.185331
-0.102113 0.175877 0.188534
-0.0978363 0.175649 0.191148
-0.0934979 0.175061 0.195943
-0.0893155 0.174817 0.198284
-0.0851718 0.174348 0.199972
-0.0807233 0.174049 0.201478
-0.077034 0.173993 0.204254
-0.0729007 0.173771 0.206163
-0.0688462 0.173972 0.208101
-0.0647178 0.173492 0.209676
-0.0603831 0.173926 0.210862
-0.0565131 0.173199 0.2114
-0.0519735 0.173002 0.213161
-0.0480558 0.173403 0.213686
-0.0442981 0.173475 0.214254
-0.0399989 0.173278 0.214638
-0.0361919 0.173306 0.21472
-0.0320627 0.172858 0.21587
-0.0284453 0.172912 0.216059
-0.0243638 0.172731 0.217884
-0.0199842 0.172891 0.217322
-0.0163964 0.172796 0.218081
-0.0119992 0.172861 0.217703
-0.00772562 0.172331 0.218213
-0.00419874 0.173112 0.217532
0.000150404 0.172828 0.217969
0.00382122 0.173055 0.218096
0.00817193 0.172309 0.217276
0.0125787 0.172944 0.216367
0.0162066 0.172876 0.216782
0.020033 0.172622 0.216157
0.0236776 0.172953 0.215916
0.0281772 0.173079 0.214208
0.0322475 0.172856 0.213393
0.0363381 0.173413 0.212122
0.0401669 0.173654 0.207906
0.0444861 0.174221 0.205418
0.0484311 0.174007 0.201933
0.0530599 0.175237 0.194181
0.0569765 0.175495 0.187573
0.0614836 0.176726 0.180958
0.0654378 0.177304 0.172548
0.0705204 0.178075 0.161799
0.0750471 0.179309 0.152669
0.0794523 0.180043 0.1433
0.0841796 0.180999 0.134243
0.0890088 0.181885 0.124753
0.0934976 0.182626 0.117005
0.0981779 0.183482 0.10733
0.102746 0.184287 0.0993218
0.107637 0.1851 0.0891749
0.112707 0.186426 0.0788751
0.117571 0.18729 0.0689406
0.122827 0.188382 0.0585152
0.127896 0.189046 0.0480975
0.132904 0.190501 0.0367888
0.137435 0.19118 0.0278131
0.14305 0.192382 0.0147687
0.148605 0.193592 0.00277078
0.154162 0.194347 -0.00916839
0.159603 0.196083 -0.0209584
0.164813 0.197414 -0.0328209
0.170635 0.198484 -0.0438163
0.176236 0.199348 -0.0539389
0.181264 0.200171 -0.0622225
0.186654 0.201082 -0.0697131
0.192208 0.201248 -0.0782297
0.19718 0.202248 -0.0849361
0.203857 0.203874 -0.099122
-0.167666 0.189196 0.091558
-0.162516 0.187922 0.10675
-0.156998 0.186374 0.119328
-0.152326 0.185533 0.12803
-0.146945 0.184668 0.137181
-0.142097 0.184303 0.14365
-0.137688 0.183745 0.148878
-0.13315 0.183519 0.154314
-0.128743 0.182675 0.158813
-0.124149 0.182069 0.165109
-0.119662 0.181758 0.168985
-0.115483 0.18117 0.17388
-0.110875 0.180246 0.179008
-0.10649 0.180561 0.182303
-0.10186 0.179555 0.187733
-0.0978673 0.179231 0.190834
-0.0940371 0.179618 0.192698
-0.0896799 0.178594 0.196839
-0.0854258 0.178482 0.198374
-0.0815184 0.178765 0.200326
-0.0771677 0.178573 0.203293
-0.0727336 0.178285 0.205178
-0.0688146 0.17807 0.207137
-0.0644705 0.178245 0.207681
-0.0601017 0.17769 0.208768
-0.0562857 0.177678 0.209783
-0.0524716 0.177588 0.211218
-0.0486852 0.177623 0.211112
-0.044322 0.177616 0.212226
-0.0404587 0.176859 0.213284
-0.035987 0.177416 0.213499
-0.031988 0.17761 0.213947
-0.0282846 0.177211 0.213971
-0.0238345 0.177137 0.214563
-0.0204472 0.176943 0.21532
-0.0161267 0.176895 0.215369
-0.0121565 0.17714 0.216322
-0.00799434 0.177047 0.215694
-0.00433151 0.177148 0.217022
0.000575597 0.177047 0.216307
0.00385236 0.176965 0.216361
0.00796851 0.177196 0.215761
0.0116733 0.176872 0.215369
0.0162181 0.17688 0.214458
0.0202724 0.17731 0.213758
0.0240209 0.177426 0.213401
0.0278278 0.177369 0.21216
0.0320754 0.177554 0.211221
0.0362766 0.177985 0.208791
0.0402088 0.17823 0.207141
0.0442045 0.178337 0.204317
0.0492593 0.178541 0.198949
0.0530464 0.179242 0.19362
0.057054 0.179811 0.188644
0.0615382 0.180368 0.181454
0.0655111 0.181605 0.173487
0.070236 0.18196 0.164014
0.0750471 0.183003 0.152866
0.0797462 0.184015 0.144213
0.0839873 0.185056 0.135521
0.0888586 0.185555 0.12649
0.0934565 0.187073 0.117336
0.0983827 0.187267 0.107887
0.103074 0.188522 0.0996339
0.107622 0.189304 0.0909388
0.112502 0.190345 0.0802674
0.117201 0.191422 0.0708147
0.122985 0.192799 0.0580992
0.127702 0.194046 0.0476291
0.13266 0.194473 0.0383884
0.138042 0.195871 0.0273678
0.143114 0.196802 0.0153972
0.148449 0.197927 0.00362849
0.153709 0.199024 -0.00755787
0.158958 0.200281 -0.0184109
0.164775 0.201491 -0.030304
0.170215 0.202742 -0.0404348
0.175139 0.20364 -0.0486834
0.180783 0.203837 -0.0567031
0.185974 0.204439 -0.0626426
0.190961 0.205609 -0.0679693
0.19651 0.206133 -0.0755112
0.202664 0.20678 -0.085901
0.208089 0.208369 -0.0962481
-0.162703 0.193066 0.100574
-0.15738 0.191318 0.113987
-0.152029 0.189842 0.125461
-0.147148 0.189395 0.133527
-0.14299 0.188704 0.139896
-0.13837 0.188072 0.145277
-0.133564 0.1873 0.150451
-0.129204 0.187514 0.155334
-0.124178 0.186393 0.161577
-0.119599 0.186234 0.165752
-0.116095 0.185871 0.168879
-0.111349 0.185294 0.174407
-0.10643 0.184711 0.179066
-0.102888 0.184505 0.181334
-0.0983795 0.184192 0.185605
-0.0940089 0.183705 0.189044
-0.0895137 0.183265 0.193791
-0.0856884 0.183345 0.195514
-0.0811528 0.182815 0.197811
-0.0770449 0.182904 0.200054
-0.0728018 0.182453 0.201681
-0.0687549 0.182279 0.203627
-0.0647967 0.181877 0.204645
-0.0606637 0.182314 0.206038
-0.056313 0.181815 0.208123
-0.0526828 0.18217 0.207247
-0.0488058 0.181503 0.208652
-0.0443789 0.181742 0.208974
-0.0400834 0.182354 0.209962
-0.0366574 0.18171 0.211089
-0.0324357 0.181947 0.211087
-0.0281995 0.181432 0.212198
-0.0241402 0.181316 0.212828
-0.0198102 0.181261 0.213869
-0.016285 0.18184 0.212869
-0.0118919 0.18113 0.213276
-0.0083444 0.181443 0.214157
-0.00345881 0.181133 0.214705
-0.000165472 0.181228 0.213544
0.00392308 0.181364 0.214079
0.00775267 0.181554 0.213692
0.0119223 0.1813 0.213085
0.015638 0.181608 0.212013
0.0203362 0.181562 0.211917
0.0239998 0.181563 0.211748
0.0279824 0.181382 0.209577
0.0323481 0.181659 0.208637
0.0361111 0.18208 0.207011
0.040456 0.182249 0.206415
0.0444539 0.182557 0.202652
0.0487539 0.182695 0.199566
0.052625 0.183497 0.194448
0.056926 0.183684 0.189145
0.0615667 0.184266 0.181406
0.0660135 0.185499 0.173205
0.0700395 0.186112 0.164513
0.0749352 0.187252 0.154113
0.0796301 0.188465 0.144005
0.0841936 0.189348 0.135273
0.0888861 0.190457 0.126409
0.0933482 0.190722 0.117812
0.0983915 0.19203 0.109236
0.102584 0.192663 0.101488
0.107514 0.193396 0.0920274
0.112566 0.194365 0.0812262
0.117988 0.196258 0.0684929
0.122475 0.19666 0.0609936
0.127649 0.197788 0.0492851
0.132976 0.199555 0.0377911
0.138043 0.200196 0.0272145
0.143187 0.20127 0.0154798
0.148591 0.202757 0.00369132
0.153976 0.203872 -0.00802112
0.159462 0.205052 -0.0192599
0.164665 0.205635 -0.0292189
0.17005 0.206708 -0.0382957
0.175851 0.20749 -0.0458198
0.180358 0.208113 -0.0510435
0.185996 0.20867 -0.0564404
0.190538 0.209105 -0.0618951
0.195929 0.209913 -0.0671685
0.201258 0.210527 -0.0738158
0.207046 0.211661 -0.0850921
0.212378 0.212731 -0.0962281
-0.163894 0.197823 0.0915426
-0.15779 0.19617 0.108801
-0.152871 0.195179 0.11871
-0.147877 0.194319 0.127981
-0.143013 0.193462 0.135672
-0.138215 0.193201 0.141266
-0.133968 0.192431 0.146405
-0.129224 0.191503 0.153526
-0.124759 0.191188 0.157226
-0.120186 0.190499 0.161592
-0.115855 0.189981 0.166247
-0.111186 0.190046 0.170246
-0.107298 0.189895 0.173316
-0.102334 0.189101 0.177772
-0.0987174 0.188814 0.180872
-0.0940363 0.188385 0.184386
-0.0900296 0.188114 0.1867
-0.0856511 0.187471 0.191305
-0.0814575 0.187831 0.192403
-0.0770027 0.187523 0.195415
-0.0733781 0.187057 0.196542
-0.0689631 0.186921 0.199389
-0.0648706 0.186414 0.200953
-0.0605735 0.186346 0.202828
-0.056624 0.186504 0.203819
-0.0525788 0.186767 0.203709
-0.0486624 0.185814 0.206516
-0.0448306 0.185853 0.207158
-0.0404786 0.186026 0.206494
-0.0364974 0.185695 0.208552
-0.0323849 0.185665 0.209487
-0.0281853 0.186051 0.210419
-0.0241921 0.185866 0.210774
-0.0200269 0.185631 0.211892
-0.0162187 0.1857 0.21127
-0.012083 0.185302 0.212763
-0.00770038 0.185313 0.212533
-0.00402566 0.184858 0.213622
-7.26702e-05 0.185336 0.212312
0.00422516 0.185373 0.212375
0.00792557 0.185584 0.211291
0.0121951 0.185782 0.210043
0.0160318 0.185364 0.210402
0.0202804 0.185828 0.210125
0.0239285 0.185829 0.209363
0.0282714 0.186124 0.207479
0.0324814 0.186085 0.206594
0.0364486 0.186495 0.205117
0.0405847 0.185833 0.203755
0.0442959 0.18682 0.201902
0.0485777 0.186856 0.198826
0.0527068 0.187062 0.193725
0.0569863 0.188 0.188023
0.0610572 0.188759 0.182298
0.0658024 0.189622 0.173704
0.0704814 0.190584 0.163984
0.0743094 0.190929 0.156383
0.0795455 0.192565 0.146198
0.0835933 0.193369 0.137187
0.0885233 0.194235 0.127518
0.0933806 0.195193 0.118344
0.0979533 0.195678 0.109823
0.102608 0.19678 0.100887
0.107572 0.198109 0.0924876
0.112483 0.198808 0.0820971
0.117807 0.20001 0.0711
0.122743 0.201087 0.0598371
0.127851 0.202888 0.0502126
0.133242 0.203759 0.0377797
0.137841 0.204317 0.02833
0.143715 0.206179 0.0152761
0.148665 0.206978 0.00364614
0.154107 0.207737 -0.00762963
0.159087 0.209068 -0.017566
0.164764 0.210124 -0.0285075
0.170361 0.211394 -0.03631
0.175037 0.211984 -0.0428805
0.179936 0.212579 -0.0463438
0.184809 0.212947 -0.0509474
0.190029 0.213344 -0.0550973
0.19568 0.213658 -0.0618689
0.200575 0.214463 -0.066303
0.205868 0.214779 -0.0748699
0.21156 0.216385 -0.0838141
-0.158546 0.201672 0.100173
-0.152871 0.199994 0.114118
-0.148371 0.198948 0.12297
-0.143417 0.197888 0.131474
-0.138635 0.197357 0.138279
-0.134095 0.196654 0.144144
-0.129382 0.19611 0.149726
-0.124709 0.19519 0.155423
-0.12037 0.195076 0.159513
-0.115561 0.194652 0.163929
-0.111743 0.194562 0.166989
-0.1072 0.193558 0.171623
-0.103245 0.193548 0.17397
-0.0984866 0.193077 0.178331
-0.0942558 0.192574 0.181968
-0.0899221 0.192311 0.184664
-0.085945 0.192035 0.186783
-0.081536 0.19206 0.188976
-0.0773706 0.191693 0.192434
-0.0734135 0.191262 0.194752
-0.0689568 0.191321 0.196076
-0.0651838 0.19126 0.197843
-0.0606503 0.190807 0.199926
-0.0569751 0.190492 0.202137
-0.0529387 0.19018 0.203124
-0.0485722 0.190375 0.203516
-0.0446521 0.190406 0.204205
-0.040467 0.189947 0.2059
-0.0364204 0.190029 0.207124
-0.0324393 0.190036 0.207563
-0.0280879 0.189977 0.207965
-0.0241376 0.18985 0.209291
-0.0204841 0.190074 0.208988
-0.0159915 0.189841 0.209997
-0.0121637 0.189771 0.210049
-0.00771024 0.189256 0.210986
-0.00420603 0.189742 0.211088
-8.15336e-05 0.18993 0.209546
0.00396088 0.189732 0.210081
0.00806487 0.190101 0.209195
0.0119868 0.189998 0.209123
0.0164171 0.189702 0.209267
0.0201177 0.189916 0.207828
0.0239718 0.190313 0.20718
0.0286625 0.190214 0.205724
0.0320173 0.19066 0.204002
0.0364493 0.190409 0.203185
0.0402761 0.1904 0.201932
0.0446651 0.19071 0.199485
0.0487206 0.191292 0.19612
0.0530676 0.191931 0.191239
0.0573206 0.192297 0.187239
0.0614665 0.192931 0.18244
0.0663048 0.193672 0.173705
0.070495 0.194693 0.164662
0.0745834 0.195439 0.156271
0.0793692 0.196412 0.146084
0.0841238 0.197603 0.13677
0.0892042 0.198491 0.127263
0.0929412 0.199087 0.119692
0.0981284 0.200572 0.110967
0.103206 0.201526 0.100701
0.107672 0.202103 0.0919855
0.111961 0.203013 0.0840381
0.117202 0.204085 0.0723076
0.122628 0.205211 0.0613259
0.127551 0.206532 0.0507642
0.132415 0.207671 0.0401211
0.138555 0.208795 0.0261793
0.143298 0.209911 0.0164255
0.148114 0.211374 0.00563741
0.153602 0.212645 -0.0055995
0.159426 0.213589 -0.0182927
0.164591 0.215175 -0.0279975
0.169656 0.215715 -0.0343876
0.174641 0.215712 -0.039669
0.18031 0.216382 -0.0438566
0.184475 0.216591 -0.0465441
0.189691 0.217439 -0.049931
0.194762 0.21737 -0.0550282
0.199712 0.218292 -0.060266
0.204944 0.21897 -0.0671072
0.210763 0.220351 -0.0763559
0.217022 0.221117 -0.0929098
-0.159621 0.206431 0.0921235
-0.153588 0.204984 0.107423
-0.148551 0.204218 0.118324
-0.143227 0.202391 0.128544
-0.139153 0.201421 0.134374
-0.134025 0.201051 0.142329
-0.129485 0.200665 0.14686
-0.125415 0.200241 0.151394
-0.120087 0.199596 0.157551
-0.116026 0.199212 0.161932
-0.111387 0.198659 0.166117
-0.107493 0.197909 0.169187
-0.102816 0.197808 0.173723
-0.0987912 0.197127 0.176516
-0.0944544 0.196802 0.179439
-0.0906437 0.196813 0.181106
-0.0858834 0.196426 0.18426
-0.0819685 0.196805 0.184722
-0.0777826 0.19636 0.187538
-0.0737405 0.195555 0.19124
-0.0695698 0.19602 0.192233
-0.0649551 0.195115 0.195823
-0.0609493 0.195202 0.197986
-0.0568567 0.194766 0.199902
-0.0527557 0.194874 0.200226
-0.0488163 0.194525 0.202642
-0.0445625 0.194441 0.202757
-0.0406007 0.194647 0.203581
-0.0363844 0.194129 0.205633
-0.0322871 0.193978 0.205893
-0.0282946 0.193916 0.20643
-0.0242542 0.194031 0.207264
-0.020289 0.194255 0.206946
-0.0159937 0.194134 0.209062
-0.0119307 0.193722 0.20799
-0.00817324 0.194155 0.207667
-0.0037956 0.1942 0.207421
-1.47459e-05 0.194039 0.207276
0.00391355 0.194292 0.207715
0.00788693 0.194197 0.20762
0.0121205 0.193959 0.207593
0.0163093 0.19431 0.20567
0.0208152 0.194034 0.204834
0.0242007 0.194527 0.203688
0.0281404 0.194678 0.20343
0.0323136 0.194606 0.202003
0.0361519 0.194583 0.20126
0.0410806 0.194685 0.199376
0.0447404 0.195336 0.197222
0.0489102 0.195707 0.194113
0.0529069 0.195872 0.190192
0.0569668 0.196363 0.187655
0.0616119 0.196741 0.181542
0.0663307 0.197461 0.173732
0.0706146 0.198613 0.165711
0.0746951 0.199245 0.157078
0.0794985 0.200282 0.146613
0.0841557 0.201746 0.137489
0.0883921 0.202438 0.128636
0.0935333 0.203516 0.120109
0.0980756 0.204588 0.111395
0.102982 0.205364 0.101927
0.107604 0.20633 0.093067
0.112603 0.207536 0.0829035
0.117288 0.208716 0.0731179
0.122407 0.20985 0.062156
0.127319 0.210894 0.0520247
0.132638 0.212309 0.0405402
0.137802 0.213138 0.0292554
0.1428 0.214374 0.018643
0.148222 0.215572 0.00626683
0.15396 0.217059 -0.00672531
0.159472 0.218342 -0.0184004
0.164976 0.21967 -0.0274885
0.169792 0.21964 -0.0328217
0.174666 0.220478 -0.0376217
0.17936 0.22072 -0.0408657
0.184145 0.220996 -0.0436687
0.188856 0.221491 -0.04614
0.19427 0.222141 -0.0503266
0.199051 0.222463 -0.0544305
0.204435 0.223233 -0.0608943
0.209784 0.224222 -0.0696137
0.216499 0.225616 -0.0845904
-0.160147 0.212119 0.0824885
-0.154316 0.209796 0.10113
-0.148973 0.208241 0.113331
-0.143716 0.207183 0.123728
-0.138727 0.206232 0.131979
-0.134392 0.205736 0.13791
-0.129876 0.205029 0.144247
-0.125358 0.204618 0.148448
-0.121065 0.203743 0.15406
-0.116287 0.203323 0.159224
-0.111665 0.203005 0.162907
-0.107312 0.202234 0.167257
-0.103016 0.20213 0.171182
-0.0986868 0.201592 0.173495
-0.0946599 0.201433 0.176911
-0.0903566 0.201554 0.179616
-0.0857622 0.200866 0.182283
-0.0817211 0.200617 0.184244
-0.0777625 0.200529 0.186709
-0.073621 0.200147 0.188692
-0.0695321 0.199668 0.192183
-0.0648541 0.199495 0.193359
-0.0609551 0.19972 0.195393
-0.0565691 0.199006 0.197231
-0.0525619 0.19887 0.199144
-0.0486786 0.198581 0.199964
-0.0446091 0.198549 0.201742
-0.0406377 0.19857 0.202691
-0.0364064 0.198956 0.20235
-0.0326309 0.198381 0.204191
-0.0284285 0.198734 0.203387
-0.0241173 0.198109 0.206035
-0.0204368 0.198018 0.205122
-0.0161431 0.19833 0.206164
-0.0119819 0.19817 0.206624
-0.00806369 0.198409 0.206703
-0.00403173 0.198622 0.20523
-7.06031e-05 0.198451 0.205267
0.00399764 0.198566 0.20517
0.00796643 0.198479 0.204822
0.0121793 0.19826 0.204788
0.0157655 0.198078 0.203824
0.020354 0.198308 0.203341
0.0244973 0.199139 0.201503
0.0282651 0.198594 0.202033
0.032739 0.199205 0.199176
0.036591 0.199031 0.198187
0.040573 0.199093 0.19605
0.0449672 0.199652 0.194275
0.0487896 0.199703 0.192335
0.0527352 0.199964 0.190164
0.0570918 0.200914 0.184937
0.0613095 0.201007 0.180539
0.0662423 0.201753 0.173538
0.070133 0.202393 0.167027
0.0751836 0.203526 0.156763
0.07906 0.204153 0.148754
0.0841492 0.205905 0.138606
0.0887227 0.206466 0.129967
0.0933031 0.207338 0.12108
0.098127 0.208679 0.112112
0.102656 0.209612 0.103781
0.107693 0.210601 0.0942171
0.111896 0.21174 0.0843635
0.117183 0.213175 0.0737897
0.122139 0.213983 0.0628059
0.127435 0.21524 0.0521185
0.132721 0.216437 0.0414162
0.137973 0.217956 0.0286927
0.142987 0.219094 0.0183645
0.148435 0.220347 0.00602257
0.154112 0.221535 -0.00655627
0.159572 0.223104 -0.0178494
0.164497 0.224 -0.0258274
0.169342 0.224525 -0.0324678
0.174774 0.225125 -0.0368578
0.179587 0.225175 -0.0393541
0.184107 0.225464 -0.0415356
0.1888 0.225459 -0.0425818
0.193583 0.226063 -0.045301
0.198933 0.226796 -0.0514092
0.204012 0.227439 -0.0567112
0.209501 0.228861 -0.0663145
0.215572 0.229994 -0.0807331
0.223439 0.232591 -0.105005
-0.154716 0.214987 0.0934118
-0.149394 0.21356 0.107012
-0.144717 0.212843 0.116671
-0.13961 0.211455 0.125772
-0.13457 0.210591 0.132738
-0.130142 0.209725 0.138339
-0.125157 0.20896 0.145966
-0.121246 0.208412 0.151289
-0.116357 0.208298 0.15472
-0.111955 0.207893 0.158498
-0.107523 0.207091 0.164971
-0.10336 0.206228 0.169712
-0.0988903 0.205843 0.173384
-0.0946521 0.205868 0.174597
-0.0904859 0.205274 0.177996
-0.0863778 0.204983 0.180963
-0.0817351 0.204456 0.184587
-0.0776865 0.204356 0.185412
-0.0736319 0.204145 0.188111
-0.0691659 0.203735 0.190538
-0.0651626 0.204203 0.192324
-0.0611444 0.203878 0.19383
-0.0565495 0.203221 0.196232
-0.0529735 0.203375 0.198173
-0.0487334 0.203287 0.198636
-0.0447588 0.202614 0.199991
-0.040588 0.203076 0.200727
-0.0367196 0.20274 0.20198
-0.0322866 0.202592 0.202145
-0.0284544 0.202402 0.203764
-0.0242497 0.202485 0.203739
-0.0204836 0.202784 0.203562
-0.0164983 0.202467 0.204514
-0.0122859 0.202666 0.203842
-0.00816658 0.202694 0.203634
-0.00412239 0.202808 0.203486
0.000148182 0.202746 0.203698
0.0043429 0.202857 0.203605
0.0080179 0.202441 0.203888
0.012177 0.202937 0.201686
0.0163927 0.203085 0.200952
0.0203455 0.20291 0.201141
0.0243804 0.203253 0.199765
0.028177 0.202779 0.198254
0.0325287 0.203499 0.197031
0.036603 0.203354 0.195902
0.0405219 0.203963 0.193094
0.0446203 0.20369 0.192057
0.0489001 0.203995 0.190383
0.0530676 0.204725 0.18647
0.057654 0.204996 0.182486
0.0617746 0.205687 0.179772
0.066056 0.205836 0.173734
0.0703189 0.206934 0.167108
0.0747687 0.207925 0.158419
0.0793422 0.208574 0.149353
0.0840363 0.20979 0.140515
0.0882229 0.210422 0.131114
0.092938 0.211903 0.121817
0.0975324 0.212547 0.113109
0.102596 0.214 0.103842
0.107643 0.215027 0.0944055
0.11233 0.216335 0.0844207
0.117389 0.217392 0.0742843
0.121939 0.218528 0.0644882
0.127331 0.219471 0.0536125
0.132605 0.221003 0.0413828
0.137723 0.22249 0.029658
0.143062 0.223286 0.0173154
0.148377 0.225013 0.00640285
0.153481 0.22632 -0.00470519
0.15919 0.227799 -0.0162053
0.164681 0.228062 -0.026221
0.169581 0.229045 -0.0330553
0.174697 0.229421 -0.0364568
0.179463 0.229899 -0.0387371
0.183679 0.230145 -0.040247
0.188507 0.230031 -0.0409524
0.193687 0.230787 -0.0438423
0.198984 0.230843 -0.0479054
0.203844 0.231639 -0.0530849
0.209784 0.233108 -0.0650272
0.215454 0.234624 -0.0786932
0.222732 0.237491 -0.10115
-0.155623 0.220582 0.0830576
-0.150342 0.218608 0.0993642
-0.145289 0.21707 0.111108
-0.140225 0.216995 0.117552
-0.135089 0.214991 0.126251
-0.130382 0.214839 0.132773
-0.125641 0.214354 0.138709
-0.121309 0.213391 0.143531
-0.116668 0.21242 0.150556
-0.112231 0.212427 0.15373
-0.107925 0.211099 0.160507
-0.103392 0.211123 0.16493
-0.0990348 0.210598 0.169858
-0.094838 0.20981 0.172735
-0.0906192 0.209541 0.176502
-0.0860026 0.209299 0.180731
-0.0820854 0.208818 0.183903
-0.0779529 0.20868 0.18543
-0.0736869 0.20824 0.188395
-0.0697623 0.208681 0.189543
-0.0654436 0.207966 0.19106
-0.0609694 0.207975 0.192998
-0.0566769 0.207054 0.196187
-0.0528092 0.206837 0.19661
-0.0490878 0.207441 0.198276
-0.0448451 0.207118 0.199004
-0.0405951 0.206799 0.20043
-0.0365316 0.206633 0.200649
-0.0326942 0.206843 0.201251
-0.0285202 0.20691 0.201505
-0.0242625 0.206866 0.200819
-0.0204633 0.207028 0.201304
-0.0160341 0.206639 0.202347
-0.0122291 0.206733 0.201338
-0.00779446 0.207149 0.200752
-0.003976 0.207078 0.201601
-6.22043e-06 0.206919 0.200663
0.00407859 0.206523 0.200887
0.00792518 0.207111 0.199999
0.0121225 0.20704 0.199328
0.0158567 0.207059 0.199431
0.020612 0.207293 0.197315
0.0244571 0.207455 0.196136
0.0288755 0.207601 0.195124
0.0328383 0.207716 0.19395
0.036525 0.207794 0.192802
0.0406313 0.207946 0.190955
0.0445898 0.20816 0.187954
0.0489581 0.208533 0.186693
0.0533114 0.208705 0.185128
0.0575778 0.208991 0.182697
0.0617004 0.209423 0.179135
0.0659983 0.210034 0.172524
0.0701907 0.210684 0.167164
0.0750842 0.212132 0.157594
0.0791444 0.213184 0.150155
0.0840166 0.214155 0.139998
0.0884163 0.214302 0.132193
0.0929212 0.215913 0.122962
0.097563 0.216351 0.113872
0.10279 0.218212 0.104221
0.107264 0.218981 0.0953448
0.11204 0.219811 0.0857372
0.117179 0.221586 0.0750339
0.121843 0.223044 0.0646323
0.127252 0.224025 0.0537208
0.132151 0.225128 0.0437943
0.138003 0.226888 0.0295818
0.143383 0.227881 0.017889
0.148849 0.229438 0.00437605
0.153981 0.230666 -0.0056603
0.158835 0.231316 -0.0157595
0.164557 0.232885 -0.0265164
0.169413 0.234045 -0.0318437
0.174492 0.234112 -0.0364647
0.178922 0.234408 -0.037411
0.184038 0.234687 -0.0397933
0.188366 0.2349 -0.0417068
0.193049 0.234851 -0.0437834
0.198607 0.235493 -0.0456848
0.203699 0.236026 -0.0525274
0.20895 0.237514 -0.061182
0.216748 0.240031 -0.0877607
0.223155 0.241708 -0.103798
-0.156741 0.226072 0.0700418
-0.150483 0.224035 0.0915825
-0.145155 0.222392 0.103649
-0.140702 0.22143 0.110621
-0.135856 0.220611 0.118185
-0.130784 0.219839 0.124325
-0.12653 0.219421 0.128111
-0.122095 0.219305 0.132369
-0.117749 0.218332 0.138887
-0.113002 0.217957 0.143405
-0.108548 0.216901 0.149112
-0.104234 0.216661 0.152729
-0.0995488 0.216036 0.158049
-0.0950143 0.215635 0.162419
-0.0911523 0.214788 0.16759
-0.0866487 0.214846 0.170661
-0.0822832 0.21373 0.176825
-0.0781907 0.213638 0.17843
-0.0740021 0.212764 0.183583
-0.0697779 0.212791 0.186017
-0.0653863 0.212299 0.188868
-0.0610834 0.212062 0.191441
-0.0564035 0.211797 0.193476
-0.053002 0.211894 0.193782
-0.0491381 0.21193 0.19421
-0.0447682 0.211562 0.195415
-0.0403659 0.211463 0.196754
-0.036654 0.2114 0.197023
-0.0327753 0.211697 0.196209
-0.0285524 0.211626 0.196426
-0.0240862 0.211285 0.197079
-0.0206457 0.210857 0.198282
-0.0164966 0.211787 0.196177
-0.0117973 0.21166 0.197434
-0.0080307 0.211568 0.197795
-0.00413223 0.211491 0.197604
0.000450504 0.211129 0.197855
0.00447268 0.211431 0.196954
0.00812358 0.211718 0.19778
0.0124126 0.21131 0.196483
0.0158783 0.21124 0.196188
0.0203677 0.21205 0.194456
0.0242422 0.211843 0.194615
0.0286768 0.212106 0.19284
0.0327576 0.212139 0.191288
0.0366401 0.212311 0.189809
0.0410016 0.212581 0.188669
0.0447044 0.212749 0.185758
0.0490946 0.213058 0.184172
0.0531711 0.213192 0.182401
0.0572733 0.213395 0.179947
0.0619805 0.213544 0.176728
0.0660156 0.214364 0.172648
0.0703584 0.215049 0.16618
0.0746074 0.216073 0.157903
0.0789238 0.217141 0.151387
0.0838234 0.217976 0.142355
0.0885379 0.218821 0.132239
0.0926428 0.220184 0.125497
0.0979848 0.220967 0.114019
0.102938 0.22249 0.104312
0.107352 0.223503 0.0956755
0.11248 0.224555 0.0849206
0.116666 0.225643 0.077113
0.122321 0.226863 0.0645562
0.127325 0.228175 0.054171
0.132177 0.229352 0.0436711
0.137749 0.23094 0.0317498
0.143434 0.232251 0.0175465
0.148275 0.233267 0.00697803
0.15383 0.23498 -0.00538445
0.1593 0.236666 -0.0163848
0.164482 0.237419 -0.0260878
0.169579 0.238452 -0.0322249
0.174694 0.238612 -0.0362992
0.179132 0.239004 -0.0378087
0.184113 0.239212 -0.0394466
0.188599 0.239507 -0.0410264
0.193665 0.239332 -0.0432794
0.198181 0.239628 -0.0440662
0.203214 0.240492 -0.0507922
0.209495 0.24188 -0.0626671
0.216889 0.245318 -0.0924337
0.22356 0.246586 -0.104587
-0.151703 0.229458 0.0801988
-0.146244 0.227553 0.0944641
-0.14157 0.226677 0.102846
-0.13637 0.225526 0.111149
-0.131982 0.226063 0.11345
-0.12723 0.224716 0.119335
-0.122933 0.224374 0.122429
-0.118082 0.223392 0.128327
-0.113604 0.223091 0.132624
-0.109719 0.223467 0.13325
-0.104954 0.222296 0.139118
-0.10021 0.221771 0.14439
-0.0963559 0.221288 0.147381
-0.0919371 0.220598 0.152827
-0.0869384 0.220438 0.156528
-0.0832054 0.219139 0.161872
-0.0784698 0.219776 0.162903
-0.0746075 0.219289 0.166647
-0.0700985 0.218627 0.17199
-0.065702 0.217315 0.179196
-0.0613677 0.217261 0.180196
-0.0574352 0.217129 0.182425
-0.0533243 0.217252 0.183854
-0.0491704 0.216747 0.186644
-0.0449323 0.216886 0.187328
-0.0406747 0.216891 0.187439
-0.0366819 0.216722 0.189089
-0.0323108 0.215882 0.191095
-0.0282753 0.216648 0.190379
-0.0244145 0.216385 0.19094
-0.019995 0.215918 0.193149
-0.0162754 0.216133 0.191659
-0.0119468 0.21608 0.192761
-0.00823438 0.216405 0.192512
-0.00412714 0.216078 0.19391
-0.000126355 0.215651 0.194312
0.00385523 0.215429 0.194708
0.00838981 0.216104 0.192774
0.0123929 0.215645 0.193964
0.0165644 0.215546 0.193637
0.0200073 0.216416 0.191957
0.0241644 0.21622 0.190821
0.0284792 0.215926 0.190586
0.0326855 0.216326 0.18805
0.0362878 0.216362 0.187749
0.0407476 0.216809 0.185739
0.0450573 0.216929 0.184162
0.0492084 0.217211 0.182712
0.0535694 0.217536 0.180434
0.0575819 0.217999 0.177356
0.0618852 0.218467 0.173965
0.0662083 0.21849 0.171773
0.069914 0.21923 0.167407
0.074428 0.220269 0.159224
0.0792661 0.220736 0.150238
0.0840258 0.221899 0.142556
0.088621 0.223281 0.132725
0.0933032 0.223751 0.123649
0.0980711 0.225256 0.113963
0.102746 0.226655 0.103792
0.107462 0.227637 0.0956435
0.112592 0.22828 0.0858128
0.117068 0.230199 0.0759718
0.122421 0.231168 0.065533
0.127454 0.232741 0.0547116
0.13236 0.233423 0.043866
0.137824 0.234998 0.0308853
0.143839 0.237021 0.0175995
0.148473 0.238226 0.00628662
0.153782 0.240054 -0.00532556
0.159158 0.241107 -0.0162168
0.164977 0.242269 -0.0269382
0.168894 0.243062 -0.0321345
0.174459 0.24354 -0.0366185
0.179634 0.243571 -0.0378554
0.183744 0.243576 -0.0397797
0.188534 0.243829 -0.0409262
0.193569 0.24402 -0.0423217
0.198296 0.244485 -0.044229
0.203326 0.244636 -0.0500946
0.208379 0.246261 -0.0588276
0.217848 0.250574 -0.0961478
0.222795 0.250707 -0.102046
-0.1525 0.235341 0.0670667
-0.146839 0.233204 0.0865579
-0.141461 0.231883 0.0974411
-0.136415 0.230537 0.104267
-0.131865 0.230187 0.109739
-0.127896 0.230071 0.113205
-0.122836 0.229036 0.117754
-0.118881 0.228468 0.120264
-0.114582 0.228579 0.122704
-0.109794 0.228449 0.125264
-0.10528 0.227821 0.129668
-0.100996 0.227388 0.133966
-0.096762 0.226474 0.138238
-0.0921611 0.226419 0.141949
-0.0879101 0.225745 0.145309
-0.0833554 0.225541 0.14872
-0.0789224 0.225047 0.152466
-0.0750803 0.224587 0.156304
-0.0707478 0.22412 0.159189
-0.066298 0.224088 0.161635
-0.0622011 0.223108 0.166217
-0.0581646 0.223279 0.168125
-0.0537421 0.222521 0.171378
-0.0494031 0.22297 0.171584
-0.0453979 0.222185 0.174839
-0.041279 0.221943 0.176387
-0.0370625 0.222001 0.177733
-0.0327351 0.221468 0.180048
-0.0286881 0.221505 0.180551
-0.02492 0.221475 0.181764
-0.0207429 0.220901 0.18348
-0.0161699 0.22132 0.18511
-0.0126309 0.22102 0.18532
-0.00786609 0.220624 0.187807
-0.00411875 0.220593 0.18851
2.07277e-05 0.220525 0.18879
0.00393427 0.220467 0.190124
0.00837964 0.220386 0.189945
0.0118063 0.22064 0.190322
0.0161291 0.220858 0.188405
0.0205776 0.220654 0.188825
0.0242498 0.220667 0.187808
0.0284141 0.220559 0.187599
0.0328542 0.220702 0.186133
0.037094 0.220994 0.18479
0.0408938 0.221514 0.182464
0.0449768 0.221448 0.181879
0.0491719 0.22184 0.179474
0.0533327 0.221717 0.177241
0.0577077 0.222526 0.174756
0.0615993 0.222832 0.17276
0.0661165 0.223233 0.16968
0.0703447 0.223321 0.165599
0.0751068 0.223854 0.159168
0.0790333 0.225366 0.151824
0.0837476 0.226182 0.142504
0.0885438 0.227252 0.13358
0.0932109 0.228599 0.124022
0.0981392 0.229531 0.114542
0.102954 0.23043 0.106042
0.107149 0.231784 0.0965582
0.112291 0.233234 0.0865253
0.116633 0.234021 0.0770684
0.121918 0.235545 0.0660025
0.127158 0.236812 0.0561104
0.132006 0.238206 0.045393
0.137491 0.239408 0.032873
0.142904 0.241249 0.0194913
0.147722 0.242647 0.00927734
0.153766 0.244017 -0.00470591
0.159428 0.245248 -0.0161891
0.164408 0.246872 -0.0252209
0.169736 0.2481 -0.0334551
0.174515 0.24792 -0.0360806
0.179714 0.24803 -0.037991
0.184295 0.248662 -0.0407176
0.188699 0.248904 -0.0413945
0.193408 0.248919 -0.0428071
0.198542 0.249407 -0.0461113
0.203146 0.249342 -0.04895
0.209397 0.250958 -0.0616236
0.217506 0.255309 -0.0972564
0.223021 0.256485 -0.103995
-0.147695 0.239161 0.0736941
-0.141818 0.236397 0.0923859
-0.136817 0.235368 0.102879
-0.132372 0.235055 0.106777
-0.127825 0.234276 0.112382
-0.123697 0.234053 0.114249
-0.118601 0.233325 0.11887
-0.114014 0.23329 0.122256
-0.109791 0.232873 0.12492
-0.105393 0.232274 0.129056
-0.101292 0.231934 0.129701
-0.096721 0.23196 0.133134
-0.0923657 0.231115 0.13649
-0.0880782 0.23081 0.139391
-0.0840771 0.230573 0.142213
-0.0791719 0.229774 0.146562
-0.0752887 0.229564 0.149455
-0.0703354 0.228982 0.153996
-0.0660387 0.228724 0.156116
-0.062265 0.228005 0.15993
-0.0578014 0.227493 0.162948
-0.0534494 0.227811 0.163991
-0.0495228 0.227942 0.16649
-0.0455705 0.226656 0.168208
-0.0415109 0.226707 0.169601
-0.0372757 0.226684 0.171451
-0.0328093 0.226833 0.17281
-0.0289037 0.225972 0.174977
-0.0245587 0.226268 0.175664
-0.0203815 0.226118 0.17779
-0.0167154 0.225698 0.179921
-0.0120675 0.226019 0.180795
-0.00849521 0.22576 0.180673
-0.00363034 0.225254 0.183942
2.77e-05 0.225366 0.184653
0.00422068 0.225012 0.185349
0.00833959 0.224581 0.187111
0.012308 0.224895 0.186359
0.016519 0.224828 0.186669
0.0205018 0.224945 0.186176
0.0246891 0.225154 0.186337
0.0287553 0.224884 0.184744
0.0330285 0.225247 0.183346
0.0367062 0.225317 0.182123
0.0408899 0.225958 0.17976
0.0448859 0.226632 0.177491
0.0494617 0.226478 0.176198
0.0535927 0.226499 0.174602
0.0576759 0.226678 0.172806
0.0618083 0.226802 0.169927
0.0659375 0.2274 0.167475
0.0706102 0.227415 0.164018
0.0751062 0.22831 0.157777
0.0795009 0.229706 0.150618
0.0838401 0.230471 0.142848
0.0881394 0.231501 0.134396
0.0927468 0.232739 0.125799
0.0975641 0.233848 0.116189
0.102812 0.234841 0.105241
0.107032 0.235761 0.097507
0.112189 0.236816 0.0877341
0.117162 0.238593 0.0766945
0.122348 0.239914 0.0662502
0.127433 0.241127 0.0557436
0.132498 0.242286 0.0440736
0.137405 0.243789 0.0338229
0.142562 0.245225 0.0214229
0.148287 0.247069 0.00761557
0.153505 0.248361 -0.00389028
0.158793 0.249846 -0.015166
0.164641 0.251465 -0.0262129
0.170192 0.252354 -0.0342488
0.174751 0.252564 -0.037606
0.179548 0.252608 -0.0388367
0.18388 0.253258 -0.0407019
0.188525 0.253294 -0.0415039
0.193652 0.253235 -0.0430629
0.198397 0.254061 -0.0455067
0.202793 0.253882 -0.0482104
0.208891 0.255688 -0.0609472
0.217432 0.260584 -0.0982256
0.22311 0.2614 -0.104217
-0.149102 0.245497 0.0574048
-0.142567 0.242184 0.0819989
-0.136805 0.239664 0.101415
-0.132055 0.238676 0.109857
-0.127695 0.238314 0.114247
-0.122716 0.237504 0.117508
-0.118834 0.236935 0.120705
-0.114321 0.236705 0.123709
-0.109445 0.236411 0.126727
-0.105512 0.236393 0.129187
-0.101251 0.235631 0.132769
-0.0969399 0.235742 0.133941
-0.0923748 0.23521 0.13566
-0.0880722 0.235044 0.138002
-0.083805 0.235005 0.141078
-0.0797575 0.234081 0.144907
-0.0746334 0.233786 0.149505
-0.0706173 0.232957 0.152965
-0.0666638 0.233146 0.155072
-0.0620055 0.23262 0.159064
-0.0583137 0.232428 0.15884
-0.0538579 0.232272 0.161875
-0.0499593 0.232346 0.16285
-0.0451502 0.231701 0.165066
-0.0406987 0.231535 0.166774
-0.0371863 0.231312 0.168025
-0.032765 0.231224 0.170439
-0.0291895 0.231031 0.170836
-0.0248598 0.231 0.171925
-0.0205498 0.230669 0.173917
-0.0165214 0.230225 0.175345
-0.0125465 0.230328 0.177114
-0.00800433 0.229837 0.180396
-0.00376315 0.22924 0.182218
-0.000490174 0.229299 0.182996
0.00390872 0.22946 0.183751
0.00813384 0.229279 0.184607
0.0126105 0.229243 0.184481
0.0163082 0.229263 0.184096
0.0204856 0.229661 0.184011
0.0243692 0.229436 0.183483
0.028752 0.229765 0.181225
0.0327219 0.229638 0.180758
0.0371858 0.229795 0.179106
0.041204 0.230093 0.177424
0.0448281 0.230405 0.175634
0.0491044 0.230474 0.174205
0.0533744 0.230754 0.171897
0.0578943 0.231124 0.170559
0.0619449 0.231414 0.16718
0.0660358 0.231727 0.166136
0.0703475 0.232312 0.162201
0.0743763 0.232207 0.158796
0.0796221 0.233573 0.151203
0.0838537 0.234857 0.142591
0.0883271 0.235628 0.134509
0.0933843 0.23698 0.125088
0.0980859 0.238039 0.114612
0.102046 0.239151 0.107725
0.107265 0.240775 0.0965562
0.112145 0.241577 0.0872855
0.116913 0.242586 0.0779837
0.122235 0.243965 0.0666983
0.126968 0.245619 0.0564532
0.132432 0.246682 0.044754
0.137564 0.248445 0.0333009
0.14324 0.249996 0.0199475
0.148225 0.251722 0.00803387
0.153508 0.252618 -0.00262713
0.159073 0.254405 -0.0161712
0.164966 0.256227 -0.0264454
0.169871 0.256882 -0.03439
0.174218 0.257469 -0.0370939
0.179368 0.257496 -0.0393894
0.183962 0.257721 -0.0409613
0.188785 0.25817 -0.042624
0.193777 0.258427 -0.0439613
0.198246 0.258787 -0.0463624
0.20333 0.25882 -0.0481956
0.20994 0.260616 -0.0654156
0.217515 0.264485 -0.0984845
0.223508 0.265944 -0.105655
-0.143931 0.248655 0.0656337
-0.136566 0.24343 0.106845
-0.132227 0.242478 0.113015
