ply
format ascii 1.0
element vertex 1660
property float x
property float y
property float z
end_header
-0.216745 -0.423984 -0.000178099
-0.209014 -0.418611 0.0260201
-0.203173 -0.415007 0.0431503
-0.197228 -0.41141 0.0590435
-0.190549 -0.407815 0.0767865
-0.18518 -0.405153 0.0903474
-0.179632 -0.402636 0.101777
-0.174689 -0.400363 0.11105
-0.17017 -0.398954 0.117858
-0.165357 -0.397406 0.126069
-0.159785 -0.395782 0.133281
-0.155565 -0.394467 0.139272
-0.150689 -0.39292 0.14503
-0.145814 -0.39238 0.151093
-0.141753 -0.391082 0.155862
-0.136929 -0.389923 0.16165
-0.132596 -0.388585 0.16676
-0.12766 -0.387189 0.173527
-0.123075 -0.385936 0.179187
-0.118548 -0.384161 0.185981
-0.114347 -0.383627 0.189832
-0.110082 -0.382451 0.196223
-0.105563 -0.381216 0.201424
-0.10081 -0.38048 0.205929
-0.0969366 -0.379725 0.209787
-0.0927199 -0.37873 0.212682
-0.0889188 -0.378619 0.214377
-0.0844745 -0.377828 0.217971
-0.0804933 -0.377839 0.218413
-0.075885 -0.377147 0.220759
-0.0722584 -0.376969 0.223407
-0.0681977 -0.376552 0.224897
-0.064091 -0.376023 0.226847
-0.0601138 -0.375595 0.228583
-0.0558072 -0.375468 0.230278
-0.0513774 -0.374937 0.232944
-0.0478817 -0.374605 0.233839
-0.0437861 -0.373778 0.236184
-0.0397286 -0.373278 0.237592
-0.0356475 -0.373197 0.238558
-0.0317452 -0.372798 0.239982
-0.027666 -0.372396 0.241329
-0.0242085 -0.373107 0.241359
-0.0196466 -0.372612 0.242276
-0.0161327 -0.372278 0.243002
-0.0121189 -0.372669 0.242984
-0.00788679 -0.372416 0.242504
-0.0039954 -0.372908 0.242392
-4.15085e-05 -0.37264 0.241423
0.00394131 -0.372788 0.240818
0.00811489 -0.373129 0.240791
0.0117014 -0.372994 0.240155
0.0159077 -0.373643 0.238792
0.0195804 -0.373327 0.238131
0.0241634 -0.373563 0.236849
0.0279295 -0.374282 0.235002
0.031616 -0.37469 0.233931
0.0360484 -0.374597 0.232151
0.0395107 -0.375258 0.230605
0.0440592 -0.375535 0.228642
0.0482315 -0.376466 0.22546
0.051501 -0.376246 0.225894
0.0557666 -0.376645 0.223836
0.0602002 -0.376991 0.220994
0.0641477 -0.37782 0.218163
0.0684204 -0.378295 0.215357
0.0724083 -0.378779 0.212322
0.0769558 -0.379337 0.209793
0.0810126 -0.380092 0.206788
0.0849718 -0.380726 0.204484
0.0893625 -0.381538 0.200983
0.0932791 -0.382192 0.197782
0.0976304 -0.382386 0.195233
0.101772 -0.383395 0.192071
0.10646 -0.384361 0.186869
0.110341 -0.384722 0.18414
0.114899 -0.385702 0.179971
0.118998 -0.38647 0.17729
0.123227 -0.387361 0.173038
0.127939 -0.38792 0.168774
0.132627 -0.388549 0.166124
0.137051 -0.389707 0.161349
0.141268 -0.391084 0.157724
0.145848 -0.391812 0.153186
0.150183 -0.392027 0.150254
0.154718 -0.393123 0.144671
0.159376 -0.394215 0.142141
0.163084 -0.39474 0.137853
0.168851 -0.395576 0.132699
0.17329 -0.396867 0.128478
0.177976 -0.397935 0.123747
0.182096 -0.398694 0.120012
0.187085 -0.399281 0.115028
0.191714 -0.400369 0.110904
0.196808 -0.401419 0.104761
0.201031 -0.402661 0.101749
0.206349 -0.403593 0.0956644
0.210822 -0.404643 0.0913733
0.215868 -0.405855 0.0867697
0.220518 -0.406683 0.0812991
0.225727 -0.408201 0.073164
0.2314 -0.410303 0.065099
0.236443 -0.411806 0.056545
0.241971 -0.414003 0.0478131
0.248388 -0.41686 0.0354207
0.253745 -0.41902 0.0239999
0.260883 -0.42274 0.0063287
-0.222235 -0.421757 -0.0106969
-0.214994 -0.417126 0.014051
-0.208161 -0.411349 0.0369117
-0.201998 -0.408619 0.0532798
-0.196445 -0.405009 0.0688713
-0.18986 -0.401126 0.0867068
-0.184614 -0.39832 0.0989254
-0.178899 -0.396763 0.108905
-0.173861 -0.395419 0.117019
-0.169208 -0.393226 0.123958
-0.164228 -0.391611 0.131706
-0.159339 -0.390805 0.137695
-0.155503 -0.389783 0.142525
-0.150446 -0.387913 0.149707
-0.145861 -0.387504 0.153992
-0.140884 -0.385544 0.161391
-0.1364 -0.384828 0.165719
-0.132077 -0.383334 0.171265
-0.127367 -0.382393 0.176688
-0.122923 -0.381283 0.182978
-0.11818 -0.380326 0.187506
-0.114455 -0.379056 0.193288
-0.109722 -0.377571 0.198846
-0.105415 -0.37699 0.202782
-0.101097 -0.376063 0.206414
-0.0971342 -0.375666 0.210101
-0.0924952 -0.374589 0.214157
-0.0886625 -0.374089 0.215824
-0.0841876 -0.373475 0.219066
-0.0804801 -0.373384 0.219997
-0.076417 -0.373144 0.220873
-0.0720828 -0.372981 0.222618
-0.0680504 -0.372311 0.224191
-0.0637883 -0.372049 0.225882
-0.0600039 -0.371578 0.227543
-0.055776 -0.371197 0.230021
-0.0516964 -0.371266 0.231039
-0.0476125 -0.370622 0.233739
-0.0435265 -0.370108 0.234907
-0.0397777 -0.369918 0.235677
-0.0360008 -0.369674 0.236857
-0.0314819 -0.369686 0.23836
-0.0277117 -0.369378 0.240091
-0.0238678 -0.369353 0.240526
-0.0198759 -0.368985 0.240991
-0.0157284 -0.369017 0.241582
-0.011743 -0.36867 0.241063
-0.00774238 -0.368793 0.241945
-0.00411237 -0.368963 0.240486
-0.000136938 -0.36915 0.240863
0.00396521 -0.369378 0.239979
0.00795732 -0.368916 0.238347
0.0119412 -0.369151 0.23862
0.0157945 -0.369664 0.23779
0.0196815 -0.369748 0.236505
0.0234826 -0.370358 0.23506
0.0279637 -0.370546 0.233278
0.031788 -0.370812 0.232478
0.035994 -0.371027 0.231657
0.0401679 -0.371483 0.229155
0.0439582 -0.372143 0.227496
0.0482052 -0.372309 0.225088
0.0519931 -0.372662 0.223301
0.05643 -0.373145 0.220585
0.060528 -0.373517 0.218937
0.064714 -0.374009 0.217015
0.0688866 -0.374354 0.21428
0.0724679 -0.375187 0.211619
0.0768091 -0.375609 0.209304
0.0811746 -0.376133 0.205152
0.0854177 -0.37711 0.202717
0.0892208 -0.377697 0.199636
0.0939728 -0.378286 0.196586
0.0978943 -0.378756 0.192824
0.101707 -0.379483 0.191268
0.106198 -0.379948 0.186765
0.110374 -0.380978 0.182782
0.115111 -0.381897 0.178908
0.119267 -0.38255 0.175466
0.123806 -0.383309 0.171684
0.128452 -0.384527 0.167392
0.132171 -0.384953 0.164518
0.137021 -0.386094 0.160425
0.141545 -0.386615 0.155428
0.145785 -0.387444 0.152517
0.150474 -0.38795 0.147952
0.154817 -0.389121 0.144588
0.159224 -0.39002 0.140169
0.164157 -0.39093 0.135808
0.168255 -0.391538 0.132859
0.173062 -0.392551 0.128469
0.177817 -0.393504 0.12294
0.182914 -0.394598 0.118017
0.186953 -0.395239 0.11386
0.19207 -0.396901 0.109135
0.19661 -0.397373 0.104694
0.201498 -0.398207 0.100125
0.205891 -0.399663 0.0957837
0.211274 -0.400739 0.0894694
0.216167 -0.401917 0.0843757
0.221317 -0.402869 0.0784497
0.226057 -0.404473 0.0715679
0.231479 -0.406012 0.0636009
0.237002 -0.408202 0.0541638
0.242529 -0.410253 0.0442857
0.248481 -0.412481 0.032416
0.254832 -0.415411 0.0181048
0.261895 -0.419727 -0.000675678
-0.220388 -0.41383 0.00668669
-0.213134 -0.408974 0.0295198
-0.207299 -0.40551 0.0464364
-0.200351 -0.401354 0.0660148
-0.194454 -0.398483 0.0807692
-0.188838 -0.395351 0.0957391
-0.183753 -0.392633 0.106277
-0.178304 -0.390935 0.115043
-0.17356 -0.389209 0.122697
-0.168856 -0.388274 0.130272
-0.163857 -0.386477 0.135947
-0.159097 -0.385109 0.142901
-0.154476 -0.384015 0.14868
-0.150142 -0.383276 0.153219
-0.145596 -0.38176 0.158921
-0.140552 -0.38046 0.164681
-0.136545 -0.379918 0.169343
-0.13163 -0.378431 0.175544
-0.127293 -0.377661 0.180483
-0.122928 -0.376763 0.18464
-0.117895 -0.374917 0.191285
-0.114158 -0.374524 0.195017
-0.109501 -0.373005 0.201096
-0.105146 -0.372627 0.20408
-0.100608 -0.372024 0.208312
-0.0971015 -0.370933 0.210955
-0.0923817 -0.370347 0.214996
-0.0885713 -0.370163 0.21662
-0.0843359 -0.369178 0.218422
-0.0801953 -0.369155 0.220432
-0.0764326 -0.368583 0.222207
-0.0717379 -0.368662 0.223473
-0.0681094 -0.368405 0.223772
-0.0637388 -0.368421 0.224434
-0.0601525 -0.36756 0.226763
-0.0556505 -0.367915 0.22841
-0.0518539 -0.36777 0.230241
-0.0480727 -0.367098 0.231815
-0.0434734 -0.366856 0.232945
-0.0398787 -0.366157 0.235328
-0.0358074 -0.365928 0.235979
-0.0316263 -0.365826 0.23752
-0.027937 -0.365691 0.237579
-0.0237782 -0.365503 0.239145
-0.0201455 -0.365327 0.238463
-0.0155588 -0.365312 0.240969
-0.0119093 -0.365286 0.239877
-0.00816223 -0.365519 0.239581
-0.00396008 -0.365377 0.23797
-0.000184079 -0.365879 0.237251
0.00382704 -0.365976 0.238102
0.0078318 -0.365995 0.237054
0.0118621 -0.365795 0.237268
0.0160455 -0.365765 0.235338
0.0198206 -0.366277 0.233472
0.0240588 -0.366436 0.233737
0.0279289 -0.366931 0.232484
0.0320386 -0.367267 0.231335
0.0357467 -0.367265 0.23027
0.040088 -0.367827 0.226836
0.043603 -0.368006 0.226243
0.047952 -0.368627 0.223644
0.0524767 -0.368913 0.221734
0.0560303 -0.36937 0.21973
0.0601889 -0.36983 0.218327
0.0643422 -0.369977 0.215034
0.0687492 -0.371017 0.212649
0.0724597 -0.371184 0.209813
0.0768918 -0.371941 0.207887
0.0811337 -0.372251 0.20521
0.085219 -0.37305 0.201407
0.0896992 -0.373463 0.198515
0.0938679 -0.374525 0.195835
0.0975858 -0.375022 0.193144
0.102114 -0.376089 0.18928
0.106265 -0.376445 0.185235
0.110901 -0.377271 0.181656
0.115264 -0.377888 0.178144
0.119304 -0.378601 0.174914
0.123765 -0.379932 0.170061
0.128108 -0.380597 0.166622
0.132594 -0.381222 0.163062
0.136746 -0.382256 0.159193
0.14149 -0.383097 0.154627
0.146011 -0.383555 0.151772
0.150654 -0.384815 0.146138
0.155094 -0.385553 0.142355
0.159249 -0.386026 0.139351
0.163899 -0.386914 0.135667
0.168689 -0.387939 0.129709
0.173419 -0.388729 0.126021
0.178002 -0.389889 0.120993
0.182489 -0.390297 0.117667
0.187241 -0.391247 0.112244
0.192357 -0.392787 0.107325
0.196727 -0.393799 0.102619
0.201547 -0.394468 0.0983815
0.206424 -0.395337 0.0937531
0.211225 -0.396898 0.0882367
0.216057 -0.397446 0.0821534
0.221216 -0.399317 0.0765859
0.226346 -0.400678 0.0692486
0.23173 -0.402991 0.0609499
0.237453 -0.405103 0.0507563
0.242891 -0.405974 0.0413908
0.249366 -0.409217 0.0285213
0.255168 -0.4125 0.0136623
-0.225697 -0.410782 -0.00167847
-0.219105 -0.406513 0.0193356
-0.21228 -0.402375 0.0397528
-0.205598 -0.398199 0.0589995
-0.199374 -0.394568 0.0765433
-0.193405 -0.391898 0.0912032
-0.188605 -0.389716 0.101183
-0.183197 -0.387763 0.111476
-0.178124 -0.386207 0.119915
-0.173177 -0.384171 0.127433
-0.168237 -0.382563 0.134948
-0.16353 -0.381747 0.141057
-0.158676 -0.380086 0.147105
-0.154575 -0.379482 0.152034
-0.149666 -0.378372 0.157248
-0.145433 -0.377316 0.161552
-0.140515 -0.37593 0.167546
-0.136146 -0.375125 0.173011
-0.13138 -0.374096 0.177471
-0.12756 -0.37308 0.182257
-0.122541 -0.371858 0.188309
-0.117751 -0.370633 0.194908
-0.113769 -0.369607 0.197649
-0.109068 -0.368754 0.202994
-0.105056 -0.368102 0.206145
-0.100727 -0.367083 0.211136
-0.0965884 -0.366641 0.21387
-0.092758 -0.365756 0.217371
-0.0881519 -0.36602 0.217346
-0.0840792 -0.365517 0.21901
-0.080135 -0.364886 0.221096
-0.0762418 -0.365098 0.222094
-0.0722033 -0.364698 0.223411
-0.0682582 -0.364701 0.223398
-0.0640361 -0.36433 0.225204
-0.0598132 -0.364087 0.225659
-0.0561476 -0.364171 0.227409
-0.0518806 -0.363857 0.229194
-0.0479104 -0.363312 0.23011
-0.0438854 -0.363075 0.232495
-0.0397866 -0.362699 0.233909
-0.0357689 -0.362506 0.233415
-0.0317579 -0.362412 0.234305
-0.0278652 -0.362066 0.236459
-0.0238037 -0.36154 0.237944
-0.0199179 -0.361676 0.237632
-0.0157059 -0.361854 0.237898
-0.0117918 -0.361695 0.237464
-0.00785837 -0.361856 0.237507
-0.00422456 -0.361693 0.237435
0.000366661 -0.361596 0.236368
0.00420718 -0.361571 0.236791
0.00819367 -0.362235 0.235794
0.0120283 -0.362252 0.2347
0.0157739 -0.362633 0.233438
0.0199488 -0.362883 0.232996
0.0239158 -0.362682 0.231327
0.0281336 -0.363054 0.231015
0.031849 -0.363305 0.23059
0.0358262 -0.363429 0.227641
0.0404466 -0.364059 0.225763
0.0437937 -0.364412 0.223893
0.0479065 -0.36485 0.222558
0.0523883 -0.364896 0.22092
0.0562782 -0.365732 0.21895
0.0604359 -0.365818 0.217538
0.0646681 -0.366432 0.213827
0.0686436 -0.367095 0.211465
0.0721044 -0.367468 0.210402
0.0764768 -0.367882 0.206547
0.0809909 -0.368628 0.203818
0.0851491 -0.368942 0.200972
0.0895648 -0.370049 0.197806
0.0937019 -0.370232 0.193632
0.0977161 -0.370953 0.191561
0.10221 -0.372111 0.188399
0.106687 -0.372584 0.182989
0.110613 -0.373157 0.18065
0.115194 -0.374495 0.177487
0.119503 -0.375195 0.173098
0.123736 -0.375614 0.169815
0.128626 -0.377004 0.163957
0.132818 -0.377224 0.161319
0.137357 -0.378319 0.15738
0.141319 -0.378894 0.154447
0.146371 -0.379599 0.150036
0.150574 -0.380865 0.14635
0.154884 -0.381256 0.142225
0.159431 -0.382375 0.137259
0.164297 -0.382993 0.133021
0.168662 -0.384007 0.128525
0.173358 -0.385057 0.124734
0.177753 -0.385765 0.121029
0.182173 -0.38656 0.116919
0.187631 -0.387858 0.111064
0.191933 -0.388395 0.106855
0.196836 -0.389572 0.102575
0.201411 -0.390497 0.0974286
0.206807 -0.391645 0.0915916
0.211344 -0.39254 0.087189
0.216259 -0.39369 0.0806462
0.221533 -0.395334 0.0734293
0.226689 -0.396758 0.0672121
0.232369 -0.398647 0.057194
0.237303 -0.400203 0.0487542
0.243753 -0.402927 0.0360396
0.249525 -0.405785 0.0243106
0.257094 -0.409745 0.00384665
-0.224381 -0.403999 0.0100455
-0.217503 -0.399528 0.0316591
-0.210836 -0.395703 0.0517682
-0.204327 -0.391949 0.0691744
-0.199133 -0.388912 0.0831223
-0.193105 -0.386005 0.0977546
-0.187189 -0.383855 0.108741
-0.182551 -0.382154 0.116482
-0.177777 -0.380854 0.124182
-0.172749 -0.379398 0.131985
-0.16791 -0.377848 0.138191
-0.163406 -0.376455 0.144007
-0.158372 -0.37533 0.150222
-0.153852 -0.374243 0.155568
-0.149314 -0.372962 0.160676
-0.144879 -0.3725 0.165616
-0.140262 -0.371183 0.171679
-0.135565 -0.370096 0.176469
-0.131396 -0.368952 0.181193
-0.12657 -0.367417 0.187501
-0.122896 -0.367385 0.190413
-0.117647 -0.365857 0.196423
-0.113946 -0.365136 0.198892
-0.109318 -0.364437 0.205123
-0.105012 -0.363647 0.207759
-0.10046 -0.362931 0.21243
-0.0966505 -0.362097 0.214988
-0.0925187 -0.361923 0.217444
-0.0884693 -0.361513 0.218229
-0.0842707 -0.360789 0.221725
-0.0801796 -0.360725 0.22094
-0.0760216 -0.360945 0.22257
-0.0721621 -0.360176 0.224914
-0.0680905 -0.360241 0.223917
-0.0637926 -0.360382 0.225587
-0.0599379 -0.359844 0.226582
-0.055488 -0.35986 0.226921
-0.0518756 -0.359939 0.227468
-0.0480914 -0.359722 0.229169
-0.0436761 -0.358831 0.231143
-0.0399162 -0.359059 0.231748
-0.0359192 -0.358553 0.232556
-0.0317848 -0.358614 0.234332
-0.0277262 -0.35826 0.234585
-0.0239185 -0.358496 0.235473
-0.0200335 -0.357895 0.23668
-0.0161459 -0.357594 0.236364
-0.0119157 -0.358063 0.236333
-0.00777212 -0.358146 0.235337
-0.00386746 -0.358488 0.234606
-0.000248535 -0.358197 0.234665
0.00381718 -0.358298 0.234111
0.00830292 -0.358421 0.233803
0.0121999 -0.358622 0.232276
0.0159182 -0.358515 0.23242
0.0199394 -0.359278 0.230665
0.0241271 -0.359236 0.230416
0.0280874 -0.359194 0.228986
0.0317442 -0.359889 0.227679
0.0356924 -0.359788 0.225846
0.0403034 -0.36048 0.223956
0.0437059 -0.361012 0.222504
0.0483509 -0.361047 0.220848
0.0520302 -0.361222 0.219328
0.0562403 -0.36205 0.216827
0.0605428 -0.362317 0.214812
0.0642545 -0.362846 0.213141
0.0685476 -0.363705 0.210343
0.0725892 -0.363442 0.20792
0.0769302 -0.364453 0.205149
0.0809311 -0.364682 0.202461
0.0849029 -0.365484 0.19953
0.0895537 -0.366275 0.196705
0.0936285 -0.366799 0.193061
0.0981287 -0.367351 0.189688
0.102485 -0.367938 0.185906
0.106749 -0.3685 0.183666
0.111297 -0.369375 0.179534
0.11467 -0.370273 0.175801
0.119352 -0.371065 0.171461
0.12439 -0.371826 0.167562
0.128625 -0.372588 0.164183
0.1327 -0.373415 0.160481
0.137577 -0.374178 0.155773
0.141647 -0.375462 0.151975
0.146246 -0.375881 0.14849
0.150298 -0.376491 0.144748
0.154952 -0.377518 0.140984
0.159713 -0.377775 0.136281
0.164579 -0.379175 0.13175
0.168602 -0.379753 0.128111
0.173734 -0.380925 0.12233
0.178057 -0.381505 0.120084
0.18253 -0.382591 0.11497
0.187361 -0.383236 0.109983
0.192276 -0.384466 0.105783
0.197259 -0.385777 0.10009
0.202077 -0.38656 0.0953501
0.206996 -0.38761 0.0901052
0.211752 -0.388549 0.0845324
0.216921 -0.389918 0.0775689
0.221858 -0.391323 0.0711216
0.226686 -0.393338 0.0648104
0.232421 -0.394661 0.0550652
0.237983 -0.396782 0.0458046
0.243748 -0.398988 0.0335088
0.249797 -0.401768 0.0198408
0.25811 -0.40659 -0.00431323
-0.230493 -0.401895 -0.00216937
-0.223062 -0.39684 0.0219996
-0.21593 -0.392125 0.0435631
-0.209808 -0.389544 0.0604573
-0.204312 -0.387085 0.0734773
-0.197717 -0.383002 0.0914319
-0.192628 -0.3808 0.102767
-0.187321 -0.37914 0.111963
-0.182692 -0.377616 0.119207
-0.17751 -0.376205 0.127307
-0.172429 -0.374485 0.134852
-0.167582 -0.372708 0.142635
-0.163028 -0.371847 0.147339
-0.15816 -0.370862 0.153823
-0.15335 -0.369551 0.159261
-0.148839 -0.369184 0.163363
-0.14481 -0.368069 0.167778
-0.14024 -0.366625 0.173187
-0.135545 -0.365434 0.179058
-0.131022 -0.364278 0.183835
-0.126721 -0.363712 0.188782
-0.122553 -0.362437 0.193046
-0.117552 -0.361685 0.198381
-0.113275 -0.360938 0.201901
-0.109392 -0.360196 0.205901
-0.105165 -0.359133 0.209273
-0.100486 -0.358492 0.212898
-0.0967348 -0.358096 0.216451
-0.0922092 -0.357489 0.218667
-0.0884182 -0.357013 0.220698
-0.0842253 -0.356686 0.221973
-0.0803632 -0.356716 0.223331
-0.0762482 -0.356312 0.224414
-0.0718008 -0.356516 0.225159
-0.0679874 -0.355761 0.22568
-0.0642799 -0.356433 0.225687
-0.0603214 -0.3557 0.22623
-0.0558534 -0.356332 0.226661
-0.0520893 -0.355843 0.227175
-0.048204 -0.355617 0.227621
-0.0440591 -0.355381 0.230038
-0.0399778 -0.355167 0.230544
-0.0356962 -0.355297 0.232226
-0.0318585 -0.354967 0.23349
-0.027468 -0.354787 0.234165
-0.0240779 -0.354744 0.23385
-0.0196953 -0.354417 0.233832
-0.0160262 -0.354288 0.234943
-0.0119277 -0.354469 0.234297
-0.00811074 -0.354313 0.234297
-0.00435997 -0.354409 0.233989
-0.000213311 -0.354232 0.233579
0.00418765 -0.35471 0.232971
0.00753594 -0.354322 0.232955
0.0119506 -0.354938 0.23148
0.0158763 -0.354977 0.229771
0.0200527 -0.354926 0.229546
0.0240505 -0.355778 0.228415
0.0281422 -0.355965 0.226526
0.0323079 -0.355699 0.225613
0.036039 -0.356255 0.224504
0.0399524 -0.357279 0.223107
0.0444114 -0.357024 0.220911
0.0485769 -0.356955 0.219437
0.0521335 -0.358212 0.216852
0.0561232 -0.357859 0.215926
0.0607105 -0.35854 0.213273
0.0644445 -0.358972 0.211517
0.0684994 -0.359556 0.209727
0.0727046 -0.359791 0.206421
0.0770541 -0.360516 0.202997
0.0807806 -0.361004 0.200421
0.0854005 -0.36174 0.198011
0.0896244 -0.362675 0.19565
0.0934732 -0.362872 0.192146
0.0980014 -0.363487 0.187968
0.102553 -0.364485 0.184736
0.106488 -0.365013 0.182298
0.110904 -0.366208 0.177855
0.11536 -0.366373 0.174753
0.119445 -0.367344 0.17067
0.12391 -0.367762 0.16714
0.12825 -0.368843 0.163361
0.132983 -0.369531 0.15924
0.137366 -0.370222 0.154696
0.141263 -0.370871 0.151256
0.146478 -0.372097 0.147255
0.15108 -0.37291 0.142297
0.15534 -0.373839 0.138869
0.160113 -0.374033 0.134825
0.164658 -0.375159 0.130813
0.169182 -0.376562 0.125787
0.173688 -0.376792 0.121886
0.178519 -0.377703 0.116797
0.183116 -0.378804 0.112331
0.187682 -0.379819 0.108601
0.192489 -0.381051 0.103566
0.196989 -0.381251 0.0989406
0.201853 -0.382506 0.0942091
0.207044 -0.383906 0.0876344
0.211823 -0.385139 0.0825866
0.216929 -0.386132 0.0758866
0.222088 -0.38772 0.068886
0.228055 -0.38976 0.0600249
0.232768 -0.39115 0.0525041
0.238739 -0.393119 0.0412503
0.244853 -0.395633 0.0292141
0.250281 -0.397883 0.0156642
0.258797 -0.404429 -0.0134921
-0.229458 -0.395689 0.00668883
-0.221588 -0.390081 0.0329251
-0.215738 -0.387211 0.0493796
-0.209057 -0.383646 0.067385
-0.203263 -0.380651 0.0819207
-0.196966 -0.377996 0.0970389
-0.19224 -0.375764 0.105777
-0.187034 -0.374078 0.114878
-0.182312 -0.37235 0.122985
-0.177231 -0.370786 0.130757
-0.1722 -0.369445 0.137403
-0.167511 -0.368609 0.14342
-0.162816 -0.36705 0.149495
-0.158074 -0.366401 0.154903
-0.153216 -0.365016 0.160673
-0.148922 -0.363862 0.166268
-0.144255 -0.363191 0.171543
-0.1396 -0.36204 0.176346
-0.135867 -0.361352 0.179565
-0.130767 -0.360621 0.184816
-0.126739 -0.359156 0.19
-0.122256 -0.358468 0.194096
-0.117366 -0.357469 0.198858
-0.113535 -0.356394 0.203169
-0.109174 -0.356027 0.20788
-0.104919 -0.354742 0.210078
-0.101041 -0.354133 0.214527
-0.0965164 -0.353886 0.217161
-0.092673 -0.353439 0.219942
-0.0881472 -0.352845 0.222877
-0.0839728 -0.352565 0.223579
-0.080234 -0.352468 0.224278
-0.0762102 -0.352422 0.225883
-0.0719972 -0.351978 0.22576
-0.0682024 -0.352229 0.226617
-0.063795 -0.351728 0.227383
-0.0596576 -0.351631 0.227583
-0.0557814 -0.352118 0.227382
-0.0519837 -0.351458 0.228996
-0.0476491 -0.351769 0.228396
-0.0441619 -0.35119 0.228953
-0.0399511 -0.35147 0.22979
-0.0360494 -0.351395 0.230914
-0.0318802 -0.351042 0.231488
-0.0276126 -0.350722 0.232728
-0.0239769 -0.350643 0.233339
-0.0196406 -0.350768 0.232823
-0.0163932 -0.351077 0.232803
-0.0117631 -0.350767 0.23246
-0.00824193 -0.350753 0.232389
-0.00398436 -0.350704 0.232042
-7.35501e-05 -0.350962 0.232141
0.00365555 -0.351523 0.232159
0.00822535 -0.351322 0.230743
0.0123081 -0.351501 0.230237
0.0161834 -0.351623 0.229048
0.019737 -0.351881 0.227669
0.023631 -0.352021 0.226977
0.0276415 -0.352088 0.226491
0.0318953 -0.352931 0.224491
0.0362295 -0.352655 0.222459
0.0399058 -0.353356 0.221202
0.0442955 -0.353416 0.219409
0.0480542 -0.35323 0.219199
0.0525513 -0.35402 0.216057
0.0565316 -0.354633 0.214442
0.0604217 -0.354907 0.212427
0.0641301 -0.355204 0.21018
0.0689349 -0.35627 0.207812
0.072681 -0.355793 0.205831
0.0771089 -0.35689 0.202463
0.0809059 -0.35722 0.200258
0.0855528 -0.357605 0.196989
0.0895626 -0.358522 0.193999
0.0937273 -0.358939 0.191168
0.0979998 -0.360142 0.187402
0.102602 -0.36051 0.183241
0.106694 -0.360691 0.181155
0.11083 -0.361843 0.17728
0.115412 -0.362309 0.173013
0.11953 -0.362948 0.170024
0.124582 -0.364281 0.165475
0.128675 -0.364703 0.161211
0.132828 -0.36546 0.157906
0.137654 -0.366525 0.152975
0.141991 -0.367308 0.149855
0.146633 -0.367648 0.145703
0.150869 -0.369263 0.140973
0.154992 -0.369556 0.138617
0.160145 -0.370612 0.133271
0.16442 -0.371405 0.128641
0.169423 -0.372142 0.125155
0.173703 -0.373246 0.119665
0.178523 -0.373549 0.116401
0.183219 -0.374691 0.110917
0.188202 -0.375987 0.106392
0.192224 -0.376781 0.102458
0.197913 -0.377899 0.0951341
0.201828 -0.378351 0.092831
0.207582 -0.379657 0.0851601
0.2121 -0.381183 0.0797856
0.217295 -0.382164 0.0735918
0.222636 -0.383962 0.0654706
0.228069 -0.385469 0.0565926
0.233582 -0.387558 0.048051
0.239349 -0.389438 0.0372602
0.245099 -0.392215 0.0254638
0.251627 -0.39568 0.00810492
-0.228557 -0.388942 0.0159751
-0.22097 -0.38432 0.0403831
-0.215173 -0.381295 0.057152
-0.208411 -0.37871 0.0725275
-0.203248 -0.375678 0.0859665
-0.19764 -0.372826 0.0975279
-0.191723 -0.371255 0.108971
-0.187085 -0.369539 0.116869
-0.181628 -0.367139 0.127116
-0.176326 -0.366168 0.133684
-0.172104 -0.365033 0.139979
-0.167531 -0.363893 0.144969
-0.16226 -0.362747 0.151775
-0.158013 -0.361938 0.156607
-0.153628 -0.36086 0.161797
-0.148887 -0.359429 0.166943
-0.144233 -0.358411 0.173514
-0.13972 -0.357772 0.176971
-0.13518 -0.356861 0.182271
-0.131005 -0.355532 0.186126
-0.12637 -0.355375 0.191058
-0.1219 -0.354048 0.195893
-0.117717 -0.353665 0.198736
-0.113403 -0.352286 0.204003
-0.109017 -0.351676 0.207617
-0.10452 -0.351095 0.211659
-0.10048 -0.349979 0.215198
-0.0965986 -0.349898 0.217277
-0.0922311 -0.34908 0.220324
-0.0880491 -0.348521 0.223117
-0.0841593 -0.34827 0.224139
-0.0803282 -0.348226 0.225967
-0.0760826 -0.348177 0.226999
-0.0719391 -0.347737 0.227551
-0.0680934 -0.347905 0.227831
-0.0641217 -0.347646 0.22802
-0.059639 -0.347494 0.228366
-0.056223 -0.347841 0.227945
-0.052096 -0.347695 0.228293
-0.0480365 -0.347506 0.228943
-0.0437853 -0.347761 0.228747
-0.039643 -0.347473 0.228982
-0.036059 -0.34738 0.22869
-0.0317103 -0.347281 0.230216
-0.0277761 -0.347269 0.230498
-0.0237081 -0.346992 0.231752
-0.0195261 -0.346836 0.231841
-0.0159206 -0.346519 0.231812
-0.0121194 -0.346848 0.2321
-0.00777906 -0.347109 0.230695
-0.00415651 -0.34743 0.230085
-0.000119272 -0.34733 0.229164
0.00398596 -0.347306 0.229366
0.00775281 -0.347743 0.22879
0.0118028 -0.347706 0.228374
0.0157275 -0.347341 0.227459
0.0201659 -0.347774 0.226105
0.0238128 -0.347692 0.225363
0.0278106 -0.348462 0.223851
0.0318728 -0.348771 0.222813
0.0363766 -0.348922 0.220425
0.0399448 -0.349034 0.220388
0.044473 -0.34962 0.218147
0.0486671 -0.349827 0.217324
0.0525096 -0.350389 0.214496
0.0561126 -0.35085 0.212465
0.0604508 -0.350891 0.210405
0.0645902 -0.35151 0.208812
0.0686003 -0.352168 0.206033
0.0726835 -0.352721 0.204196
0.0773691 -0.352734 0.200764
0.0814323 -0.353334 0.199004
0.0853518 -0.354183 0.195135
0.0896797 -0.35441 0.192932
0.0936568 -0.355191 0.189412
0.0983925 -0.355376 0.186657
0.102305 -0.35642 0.183409
0.106896 -0.357364 0.179054
0.111122 -0.357663 0.176456
0.115671 -0.358912 0.17159
0.119924 -0.359746 0.168231
0.124338 -0.360236 0.164738
0.12882 -0.361102 0.160484
0.133309 -0.362071 0.155522
0.137492 -0.362217 0.15344
0.141929 -0.363067 0.149238
0.146429 -0.363717 0.145103
0.151713 -0.364973 0.140028
0.155417 -0.365889 0.136137
0.159878 -0.366687 0.132292
0.164724 -0.367338 0.127187
0.168643 -0.367991 0.123646
0.174081 -0.369031 0.118505
0.17835 -0.370117 0.114635
0.183664 -0.37071 0.109278
0.187814 -0.371742 0.105625
0.192582 -0.37234 0.100604
0.197481 -0.37376 0.0959367
0.203074 -0.374577 0.0895679
0.20706 -0.375885 0.0848057
0.212438 -0.377375 0.0776932
0.217611 -0.378599 0.0702275
0.222734 -0.380238 0.0641121
0.227637 -0.381532 0.0559546
0.233079 -0.382952 0.0464306
0.238747 -0.385688 0.0360894
0.245724 -0.388694 0.0205189
0.252769 -0.392657 -0.000702381
-0.237358 -0.391828 -0.0193172
-0.226618 -0.382974 0.0272448
-0.220347 -0.378508 0.0466928
-0.214093 -0.375711 0.0634423
-0.208249 -0.37335 0.076206
-0.202478 -0.370007 0.0898205
-0.196901 -0.368351 0.101391
-0.191399 -0.366509 0.11077
-0.186222 -0.365139 0.118575
-0.182042 -0.363048 0.126945
-0.176775 -0.362052 0.133657
-0.172107 -0.36067 0.140412
-0.167206 -0.359914 0.147094
-0.162636 -0.358605 0.152619
-0.15769 -0.357515 0.158497
-0.153217 -0.355941 0.164129
-0.148838 -0.355268 0.168681
-0.144368 -0.354366 0.173418
-0.139837 -0.353235 0.178427
-0.135219 -0.352921 0.182476
-0.130491 -0.351224 0.188334
-0.126185 -0.350348 0.192638
-0.121915 -0.350161 0.195607
-0.117507 -0.348999 0.2002
-0.113106 -0.348184 0.204616
-0.109368 -0.347541 0.208148
-0.105198 -0.346675 0.211385
-0.100735 -0.346118 0.215765
-0.0962036 -0.345696 0.218881
-0.0917831 -0.344658 0.221914
-0.0881461 -0.344111 0.224756
-0.0838501 -0.344052 0.2257
-0.0802578 -0.343575 0.227219
-0.0758912 -0.343516 0.227954
-0.0721404 -0.343769 0.228655
-0.0676835 -0.343204 0.230093
-0.0641918 -0.343406 0.229303
-0.0600438 -0.343491 0.22856
-0.0560492 -0.343066 0.229117
-0.0518977 -0.343375 0.22881
-0.0479238 -0.343251 0.228851
-0.0442163 -0.343639 0.229191
-0.0401679 -0.343237 0.22953
-0.0360872 -0.3433 0.229669
-0.0315704 -0.342786 0.230679
-0.0279306 -0.343751 0.230956
-0.0239433 -0.343216 0.230781
-0.0200365 -0.343458 0.230125
-0.0161454 -0.343189 0.23032
-0.0116304 -0.343219 0.229924
-0.00818062 -0.343273 0.230063
-0.0037871 -0.343469 0.229379
6.96739e-06 -0.343414 0.228887
0.00387437 -0.343891 0.227594
0.00803737 -0.343499 0.227919
0.0118277 -0.343885 0.226802
0.01567 -0.34419 0.225929
0.020261 -0.344511 0.224576
0.0246016 -0.344864 0.223689
0.0280797 -0.344847 0.222738
0.032211 -0.345201 0.220847
0.0361684 -0.345411 0.219061
0.0403067 -0.345294 0.218448
0.043838 -0.345576 0.217011
0.0486291 -0.346273 0.214106
0.0525091 -0.34671 0.214286
0.0566376 -0.347032 0.211321
0.0606928 -0.347284 0.209274
0.0645636 -0.347637 0.207684
0.0689746 -0.347819 0.205249
0.0728466 -0.348641 0.202606
0.0769775 -0.349147 0.200156
0.0812838 -0.350228 0.196926
0.0853369 -0.350325 0.19356
0.0898718 -0.350954 0.190989
0.0936189 -0.351408 0.189214
0.098132 -0.352157 0.185274
0.10234 -0.352288 0.181462
0.106716 -0.353335 0.178351
0.111134 -0.354475 0.174446
0.115346 -0.355034 0.171491
0.119765 -0.355599 0.167394
0.124126 -0.356095 0.163778
0.128588 -0.357616 0.159006
0.13315 -0.357509 0.155386
0.137312 -0.358523 0.151662
0.141942 -0.35898 0.147722
0.146436 -0.359926 0.143861
0.15064 -0.361233 0.139174
0.155354 -0.361412 0.134746
0.160013 -0.362621 0.131825
0.164708 -0.363152 0.126497
0.169106 -0.36428 0.122128
0.174391 -0.365875 0.116286
0.179001 -0.366171 0.111989
0.183491 -0.366748 0.108255
0.187592 -0.367473 0.104519
0.192541 -0.368361 0.0990975
0.197352 -0.369707 0.0947533
0.202649 -0.370997 0.0886803
0.207643 -0.371555 0.0825908
0.213182 -0.373335 0.0744838
0.217724 -0.374429 0.0689332
0.223156 -0.376404 0.0605705
0.228498 -0.378095 0.0511816
0.233584 -0.379279 0.0432363
0.239471 -0.381633 0.0314485
0.245305 -0.38449 0.0183487
0.254759 -0.390892 -0.0155165
-0.234295 -0.383143 0.00217354
-0.226296 -0.376914 0.0333701
-0.219953 -0.373836 0.050347
-0.213066 -0.370127 0.0682358
-0.208024 -0.367648 0.0793746
-0.201794 -0.365477 0.0929576
-0.197341 -0.364041 0.101617
-0.191686 -0.361921 0.111828
-0.186999 -0.360763 0.119477
-0.181626 -0.358835 0.128736
-0.176556 -0.357284 0.135426
-0.17235 -0.356646 0.140309
-0.166804 -0.355359 0.148709
-0.161906 -0.353881 0.154746
-0.157658 -0.352872 0.159521
-0.153658 -0.351923 0.163047
-0.148642 -0.350826 0.169444
-0.144332 -0.349913 0.174283
-0.139727 -0.349027 0.179429
-0.135281 -0.348149 0.183036
-0.130481 -0.347283 0.188988
-0.126275 -0.34651 0.19215
-0.12196 -0.346003 0.19618
-0.117638 -0.345045 0.200273
-0.113393 -0.34402 0.204731
-0.10913 -0.343302 0.209046
-0.105159 -0.342442 0.21209
-0.100535 -0.34171 0.216204
-0.09629 -0.34148 0.219118
-0.0923366 -0.340851 0.22259
-0.0877627 -0.340377 0.224214
-0.0839671 -0.339683 0.227561
-0.0799271 -0.339739 0.228509
-0.0756508 -0.339814 0.228866
-0.0714829 -0.339173 0.230053
-0.0679224 -0.339242 0.230497
-0.0636855 -0.339515 0.23009
-0.0600877 -0.338953 0.23011
-0.0557907 -0.339269 0.230514
-0.0520289 -0.339161 0.23031
-0.0475829 -0.339145 0.229994
-0.0439623 -0.339608 0.2294
-0.0398427 -0.339577 0.229283
-0.035598 -0.339482 0.230081
-0.03171 -0.339551 0.229669
-0.0277671 -0.339895 0.229498
-0.0241585 -0.339379 0.230327
-0.0200821 -0.339652 0.229335
-0.0160133 -0.339357 0.228783
-0.0118982 -0.339248 0.228705
-0.00808369 -0.339522 0.228418
-0.00402714 -0.339798 0.227776
0.000242753 -0.339796 0.227714
0.0038301 -0.33988 0.227258
0.00795562 -0.340163 0.226035
0.0123989 -0.340093 0.225307
0.0161428 -0.340387 0.224104
0.0202483 -0.340367 0.22374
0.0237356 -0.340832 0.22302
0.0282168 -0.340907 0.221212
0.0317057 -0.341537 0.219504
0.0362056 -0.34132 0.218831
0.040146 -0.341772 0.216955
0.0442722 -0.342015 0.215777
0.0486552 -0.342735 0.213106
0.0522055 -0.342777 0.211881
0.0566508 -0.343291 0.209886
0.0607332 -0.34336 0.207383
0.0645565 -0.34384 0.205862
0.06873 -0.344563 0.203125
0.072938 -0.344704 0.201033
0.0770896 -0.345351 0.198738
0.0817201 -0.345834 0.1949
0.0856531 -0.346284 0.19275
0.0898622 -0.347012 0.19018
0.0940652 -0.347652 0.186198
0.0980695 -0.347913 0.184905
0.102587 -0.348792 0.179473
0.106463 -0.349437 0.17665
0.110941 -0.349968 0.17451
0.115849 -0.351069 0.169672
0.120034 -0.351696 0.165739
0.124261 -0.352543 0.161227
0.128773 -0.353091 0.158019
0.13289 -0.353526 0.154516
0.138146 -0.354845 0.149392
0.141937 -0.355586 0.146647
0.14673 -0.356263 0.142981
0.150871 -0.357017 0.138929
0.155937 -0.357599 0.133618
0.160311 -0.358785 0.129368
0.165071 -0.359351 0.12498
0.169664 -0.360565 0.118601
0.174213 -0.361236 0.115539
0.17902 -0.362326 0.110695
0.18395 -0.363273 0.106426
0.188202 -0.363664 0.102646
0.193323 -0.364818 0.0972205
0.197818 -0.365873 0.0929804
0.202976 -0.366858 0.0867416
0.207799 -0.368215 0.0805646
0.213106 -0.36938 0.0727735
0.218428 -0.370829 0.064181
0.223282 -0.37255 0.0573804
0.228647 -0.373999 0.0486021
0.23428 -0.376348 0.0387805
0.240204 -0.378233 0.0266289
0.247222 -0.381535 0.00842023
-0.233135 -0.37655 0.0113934
-0.22519 -0.371209 0.0402386
-0.218989 -0.368371 0.0561582
-0.213507 -0.365844 0.0684775
-0.207661 -0.362952 0.0817909
-0.202263 -0.361319 0.0932928
-0.196848 -0.359594 0.10339
-0.191165 -0.357208 0.113942
-0.185983 -0.355887 0.122272
-0.181517 -0.354502 0.128576
-0.176469 -0.352959 0.136379
-0.172274 -0.351809 0.141625
-0.167023 -0.350882 0.148208
-0.16207 -0.349746 0.154669
-0.157734 -0.348675 0.159986
-0.153372 -0.347975 0.164131
-0.148257 -0.346285 0.171064
-0.143822 -0.345472 0.175649
-0.139222 -0.344761 0.179794
-0.134922 -0.344187 0.184683
-0.131128 -0.343166 0.187858
-0.126279 -0.342179 0.191995
-0.121717 -0.341422 0.197585
-0.117711 -0.341031 0.200773
-0.1132 -0.340396 0.204302
-0.109207 -0.339226 0.209102
-0.104939 -0.338579 0.212076
-0.10088 -0.338169 0.216206
-0.0966076 -0.337755 0.218576
-0.0923137 -0.336458 0.22217
-0.0881323 -0.33609 0.224668
-0.0838705 -0.335657 0.227615
-0.0797377 -0.335222 0.229237
-0.076062 -0.335197 0.229663
-0.0721284 -0.335006 0.231269
-0.0679014 -0.334744 0.231747
-0.0641432 -0.334852 0.23144
-0.0599358 -0.334849 0.231338
-0.055851 -0.334628 0.232184
-0.0516497 -0.334924 0.230889
-0.0475931 -0.33522 0.230564
-0.0436952 -0.335002 0.230771
-0.0400562 -0.335083 0.230313
-0.0361527 -0.335645 0.229976
-0.0318682 -0.33513 0.230051
-0.0279 -0.335311 0.229275
-0.0239422 -0.33541 0.229546
-0.0199454 -0.336077 0.228545
-0.0159643 -0.335768 0.228544
-0.0119916 -0.335933 0.22737
-0.00809858 -0.335734 0.226727
-0.00367213 -0.335877 0.227106
0.000203423 -0.336149 0.226158
0.00408331 -0.336189 0.225494
0.00784306 -0.336342 0.224755
0.0122465 -0.336282 0.223818
0.0158918 -0.336689 0.223193
0.0198838 -0.336825 0.222707
0.0240992 -0.337126 0.221045
0.0279241 -0.33733 0.219639
0.0321914 -0.337662 0.218583
0.0363973 -0.337932 0.21673
0.0405201 -0.338174 0.214003
0.0446271 -0.337986 0.213978
0.0484843 -0.338786 0.211335
0.0525412 -0.339249 0.209981
0.0565542 -0.339296 0.207767
0.0607345 -0.339584 0.20617
0.0648399 -0.340274 0.203259
0.0690717 -0.340494 0.201729
0.0729402 -0.340799 0.200106
0.0774618 -0.342165 0.196768
0.0819488 -0.341629 0.194872
0.0855207 -0.342304 0.191295
0.0896497 -0.343059 0.188669
0.0941957 -0.343705 0.185142
0.0982154 -0.3444 0.182177
0.102719 -0.34505 0.178417
0.106999 -0.345534 0.176266
0.111418 -0.345984 0.17175
0.115505 -0.346738 0.169019
0.120276 -0.347663 0.164837
0.12392 -0.348296 0.160746
0.128762 -0.348875 0.156789
0.133383 -0.35017 0.151837
0.137944 -0.351066 0.148041
0.142023 -0.351279 0.14479
0.146724 -0.352336 0.140963
0.151378 -0.352801 0.136473
0.155991 -0.353916 0.132416
0.160188 -0.354494 0.128003
0.165113 -0.356029 0.122616
0.169764 -0.356398 0.119026
0.174786 -0.357357 0.11429
0.17892 -0.358225 0.110522
0.183906 -0.359242 0.104857
0.18829 -0.35994 0.100444
0.193548 -0.360468 0.0951542
0.198401 -0.361548 0.089421
0.203011 -0.363087 0.0844578
0.208244 -0.364484 0.0772953
0.21341 -0.366027 0.069813
0.218658 -0.367023 0.0618953
0.224074 -0.368672 0.0531756
0.229263 -0.370496 0.0450525
0.234714 -0.371966 0.0350455
0.240961 -0.374628 0.0212151
0.247854 -0.378794 0.00253367
-0.232149 -0.371044 0.0193766
-0.225404 -0.366731 0.0418352
-0.219329 -0.363928 0.0566518
-0.21351 -0.361707 0.0680312
-0.207185 -0.358748 0.0829302
-0.20229 -0.356686 0.0933923
-0.196612 -0.355085 0.104197
-0.191512 -0.353493 0.113204
-0.186442 -0.351381 0.121079
-0.18156 -0.350071 0.128833
-0.176207 -0.348586 0.137262
-0.171546 -0.347794 0.14329
-0.167008 -0.346679 0.149309
-0.162569 -0.345774 0.154464
-0.157676 -0.344543 0.159749
-0.153287 -0.343499 0.165869
-0.14809 -0.342407 0.171849
-0.143715 -0.341588 0.176302
-0.139623 -0.340846 0.180607
-0.135352 -0.33974 0.184315
-0.130994 -0.339009 0.188222
-0.126628 -0.338088 0.193136
-0.121811 -0.337264 0.197955
-0.117625 -0.336839 0.201082
-0.113362 -0.335784 0.205391
-0.108846 -0.335263 0.208041
-0.104865 -0.334096 0.212699
-0.10074 -0.334156 0.215597
-0.0961171 -0.333254 0.219854
-0.092258 -0.332638 0.223492
-0.0880263 -0.332252 0.224721
-0.0839586 -0.331958 0.227464
-0.0797068 -0.3317 0.229753
-0.0758526 -0.33099 0.230914
-0.0716567 -0.330701 0.233513
-0.0675665 -0.330723 0.233454
-0.063615 -0.330948 0.232585
-0.0598339 -0.330823 0.232516
-0.056004 -0.330506 0.232515
-0.0516827 -0.331036 0.232287
-0.0480115 -0.330878 0.232329
-0.0441222 -0.33085 0.230783
-0.0400304 -0.331379 0.230921
-0.0364312 -0.33137 0.230294
-0.031561 -0.331221 0.230262
-0.0277975 -0.33143 0.229266
-0.0236048 -0.331618 0.22856
-0.0199902 -0.331679 0.228672
-0.0160711 -0.331763 0.227643
-0.0120745 -0.331572 0.227614
-0.00801758 -0.331558 0.225941
-0.0037734 -0.33281 0.225496
9.69484e-05 -0.331923 0.224319
0.00391322 -0.332436 0.223579
0.00794582 -0.332308 0.223166
0.0125026 -0.332612 0.222296
0.0160555 -0.332872 0.22158
0.0202789 -0.333289 0.219939
0.0240046 -0.333089 0.219442
0.0282774 -0.33372 0.218315
0.0322621 -0.333998 0.21664
0.0361466 -0.334358 0.214609
0.0403549 -0.334307 0.214099
0.0445732 -0.334769 0.212341
0.0488184 -0.335265 0.210193
0.0522467 -0.335287 0.208695
0.0567255 -0.336012 0.206046
0.0607394 -0.336164 0.205312
0.064699 -0.336607 0.202741
0.0685448 -0.336562 0.200479
0.0732836 -0.337299 0.198527
0.0772946 -0.33763 0.19529
0.0815356 -0.338272 0.192765
0.0857314 -0.33874 0.190416
0.0899527 -0.339722 0.187105
0.0941443 -0.339381 0.185107
0.0983143 -0.340505 0.181153
0.102606 -0.340938 0.177918
0.106707 -0.341538 0.175319
0.11153 -0.343033 0.170728
0.115554 -0.343262 0.168196
0.120076 -0.343895 0.163068
0.124176 -0.344797 0.15931
0.129092 -0.345301 0.154849
0.133099 -0.34612 0.152482
0.138092 -0.346802 0.147363
0.141984 -0.347203 0.144159
0.146604 -0.347976 0.140797
0.151153 -0.349031 0.135821
0.155642 -0.349598 0.131469
0.160845 -0.35073 0.126178
0.165302 -0.351465 0.122182
0.169752 -0.352367 0.118128
0.173972 -0.352764 0.113552
0.17917 -0.354588 0.10728
0.183739 -0.354855 0.103418
0.188614 -0.355822 0.0993068
0.193536 -0.356925 0.0928231
0.198074 -0.357547 0.0882263
0.203092 -0.359061 0.0824375
0.208359 -0.360171 0.0753695
0.213408 -0.361623 0.0681666
0.218915 -0.363256 0.0584536
0.223858 -0.364576 0.0512964
0.229864 -0.367058 0.0410594
0.234811 -0.368522 0.031597
0.241263 -0.371258 0.0173464
0.250384 -0.377617 -0.0178015
-0.23166 -0.365567 0.0233077
-0.224709 -0.361694 0.0446373
-0.219069 -0.358951 0.0582587
-0.213451 -0.356759 0.0696559
-0.20702 -0.354407 0.0836833
-0.201949 -0.352737 0.0946324
-0.196661 -0.350629 0.10391
-0.190976 -0.348484 0.11507
-0.186316 -0.346833 0.123097
-0.18127 -0.345796 0.130014
-0.176778 -0.344616 0.136034
-0.171714 -0.3434 0.142778
-0.166747 -0.342245 0.149853
-0.162619 -0.341171 0.154523
-0.157854 -0.340458 0.159988
-0.153188 -0.3393 0.165315
-0.148523 -0.338552 0.170759
-0.144037 -0.33731 0.175474
-0.139325 -0.336713 0.180865
-0.134878 -0.335563 0.185292
-0.130732 -0.334808 0.189322
-0.12599 -0.333803 0.193424
-0.122007 -0.333606 0.197975
-0.117483 -0.332363 0.201224
-0.113286 -0.332454 0.20513
-0.109061 -0.331263 0.20894
-0.10465 -0.330806 0.212751
-0.100494 -0.32995 0.216509
-0.0962698 -0.329182 0.220381
-0.0922299 -0.328586 0.223351
-0.0884666 -0.328357 0.224592
-0.0843124 -0.32805 0.228005
-0.0794904 -0.327487 0.230114
-0.0760128 -0.326857 0.231799
-0.071523 -0.3268 0.232869
-0.0677337 -0.326677 0.234004
-0.0638746 -0.326908 0.233749
-0.0597099 -0.326242 0.23488
-0.055925 -0.326434 0.234019
-0.0516869 -0.327163 0.233246
-0.0473617 -0.326918 0.232821
-0.0439051 -0.326921 0.232501
-0.0397284 -0.327117 0.232171
-0.0357834 -0.327405 0.230476
-0.032032 -0.326973 0.231189
-0.0276956 -0.32732 0.229953
-0.0236862 -0.327695 0.228759
-0.0197324 -0.327842 0.227018
-0.016102 -0.328225 0.226733
-0.011928 -0.327961 0.225623
-0.00816522 -0.32823 0.226349
-0.00354846 -0.328421 0.224161
-0.000239907 -0.328649 0.223752
0.00399541 -0.328776 0.222908
0.008044 -0.329052 0.222158
0.0120552 -0.329024 0.221487
0.0157571 -0.329137 0.220701
0.020079 -0.329417 0.219336
0.0238793 -0.32909 0.21843
0.0279714 -0.329787 0.216838
0.0322213 -0.330046 0.215613
0.0363376 -0.33044 0.212472
0.0403848 -0.330633 0.212463
0.0446541 -0.331072 0.210462
0.0486119 -0.331418 0.208132
0.0525601 -0.331634 0.206409
0.0567683 -0.332168 0.2048
0.0610724 -0.331887 0.203207
0.0649564 -0.333146 0.200541
0.0690814 -0.332936 0.199174
0.0731473 -0.333726 0.197272
0.0771466 -0.333796 0.194569
0.0815282 -0.334325 0.192641
0.0856002 -0.335083 0.188283
0.090507 -0.335367 0.184709
0.0942174 -0.335882 0.182992
0.0986491 -0.336878 0.179759
0.102531 -0.33739 0.176545
0.107235 -0.337675 0.173205
0.111515 -0.338372 0.16967
0.11563 -0.339157 0.167016
0.120012 -0.339819 0.162624
0.124114 -0.340628 0.159134
0.128641 -0.341356 0.154916
0.133447 -0.342407 0.150279
0.138294 -0.342785 0.146047
0.142643 -0.343191 0.14303
0.146655 -0.34408 0.13841
0.151225 -0.344608 0.134757
0.156051 -0.345781 0.130575
0.160694 -0.346718 0.125214
0.165241 -0.347506 0.120288
0.170187 -0.348651 0.115725
0.174257 -0.348738 0.112016
0.179134 -0.350077 0.107726
0.184214 -0.35072 0.101256
0.188562 -0.351394 0.0973758
0.193559 -0.35274 0.0922846
0.198659 -0.353981 0.0860047
0.203396 -0.355173 0.0799856
0.208504 -0.356424 0.0727751
0.214115 -0.358267 0.0639186
0.219025 -0.359412 0.0567089
0.224604 -0.360972 0.047119
0.229956 -0.363128 0.0380059
0.235473 -0.365031 0.0278025
0.242476 -0.36827 0.00977671
-0.230971 -0.359973 0.0283189
-0.225197 -0.357202 0.0445038
-0.218655 -0.354506 0.0597183
-0.213197 -0.352522 0.0701075
-0.207089 -0.350264 0.0843971
-0.202011 -0.348105 0.0944905
-0.19668 -0.346182 0.104896
-0.191404 -0.344853 0.114098
-0.186623 -0.343298 0.1215
-0.181089 -0.341141 0.129998
-0.175481 -0.340038 0.138348
-0.171835 -0.339592 0.143143
-0.16671 -0.337555 0.149944
-0.162404 -0.337167 0.155304
-0.157394 -0.336178 0.160919
-0.152955 -0.335164 0.165558
-0.148617 -0.334361 0.170875
-0.143636 -0.332972 0.176879
-0.139485 -0.332522 0.180378
-0.135172 -0.331685 0.185634
-0.130803 -0.330902 0.188882
-0.126462 -0.330044 0.192817
-0.121852 -0.329055 0.197629
-0.117629 -0.328471 0.202295
-0.113284 -0.327787 0.205315
-0.109059 -0.327178 0.208812
-0.104559 -0.326134 0.212721
-0.100581 -0.325941 0.216453
-0.0960151 -0.324914 0.219927
-0.0926731 -0.324743 0.221882
-0.087886 -0.324188 0.225742
-0.0837027 -0.323643 0.228711
-0.0796235 -0.323204 0.230933
-0.0752678 -0.322934 0.232643
-0.0714706 -0.322841 0.234112
-0.067571 -0.322094 0.235807
-0.063162 -0.322279 0.235211
-0.0597214 -0.322804 0.235186
-0.0558685 -0.3222 0.235419
-0.0520738 -0.322618 0.235408
-0.0476811 -0.322113 0.234685
-0.0437145 -0.322615 0.234047
-0.0397873 -0.322895 0.233101
-0.0362091 -0.322747 0.232065
-0.0317526 -0.323089 0.231576
-0.0277989 -0.323462 0.229944
-0.0242059 -0.323539 0.229376
-0.0196104 -0.323252 0.228514
-0.0156946 -0.323633 0.227717
-0.0123102 -0.324084 0.225105
-0.00794496 -0.324701 0.224919
-0.00449122 -0.324545 0.223458
-7.3259e-05 -0.324394 0.223871
0.00450653 -0.325099 0.222264
0.00789524 -0.325071 0.221487
0.0117414 -0.325133 0.219433
0.0158734 -0.325461 0.218678
0.0198425 -0.325663 0.217045
0.0245242 -0.325961 0.215878
0.0283206 -0.326437 0.214578
0.0324771 -0.32643 0.212724
0.0366191 -0.326774 0.21222
0.040025 -0.326503 0.21099
0.0446009 -0.327389 0.209441
0.0486917 -0.327489 0.207135
0.0526463 -0.327649 0.205023
0.0564834 -0.328149 0.204646
0.0610324 -0.328892 0.200782
0.0651283 -0.329081 0.199307
0.0691075 -0.329559 0.196943
0.0733842 -0.329518 0.195335
0.0774696 -0.32975 0.192719
0.0813508 -0.331093 0.189431
0.0857128 -0.330957 0.18782
0.0902522 -0.331626 0.185289
0.0943253 -0.332243 0.182124
0.0982611 -0.332376 0.179687
0.102527 -0.333259 0.176411
0.107165 -0.33389 0.172224
0.111862 -0.334562 0.168299
0.115641 -0.335462 0.164612
0.120579 -0.335933 0.159486
0.124337 -0.336519 0.158582
0.129587 -0.337486 0.151644
0.133693 -0.338033 0.149029
0.138036 -0.338594 0.145656
0.142646 -0.339559 0.140492
0.146905 -0.340491 0.136887
0.151515 -0.340945 0.133564
0.156757 -0.341915 0.12762
0.161117 -0.342561 0.124688
0.165467 -0.343315 0.119428
0.170077 -0.344735 0.114543
0.174848 -0.345401 0.109393
0.179654 -0.346029 0.105604
0.184099 -0.347255 0.0998588
0.188674 -0.347526 0.0959716
0.194024 -0.34898 0.0897055
0.198731 -0.350526 0.0840207
0.203772 -0.3514 0.0778325
0.209264 -0.352597 0.0691108
0.214079 -0.354215 0.0612741
0.220061 -0.355847 0.0518112
0.224888 -0.357178 0.0439285
0.230911 -0.359213 0.0329182
0.236548 -0.361632 0.0218477
0.244534 -0.365925 -0.00372028
-0.231236 -0.355647 0.0292279
-0.224481 -0.351916 0.0483646
-0.218627 -0.350061 0.0603552
-0.21265 -0.347814 0.0728312
-0.207467 -0.34573 0.0840364
-0.201706 -0.343309 0.0958538
-0.196859 -0.34208 0.104446
-0.191606 -0.340103 0.114119
-0.186093 -0.338451 0.123413
-0.181358 -0.337111 0.130187
-0.176387 -0.33605 0.137388
-0.171758 -0.335086 0.143245
-0.166851 -0.333804 0.149782
-0.162268 -0.332462 0.155237
-0.157445 -0.33187 0.161818
-0.15292 -0.330394 0.165648
-0.148581 -0.32997 0.171087
-0.144141 -0.329284 0.175977
-0.139739 -0.328337 0.17996
-0.135348 -0.32718 0.185346
-0.13054 -0.326709 0.189215
-0.12598 -0.325736 0.194052
-0.122244 -0.325046 0.19669
-0.117782 -0.32448 0.200613
-0.113351 -0.323514 0.20571
-0.108735 -0.323018 0.210529
-0.104659 -0.32205 0.213133
-0.100948 -0.321697 0.215966
-0.0964125 -0.321135 0.219274
-0.0920941 -0.320986 0.222334
-0.088293 -0.319854 0.225585
-0.0841792 -0.319231 0.228886
-0.0796424 -0.318876 0.23176
-0.0755638 -0.318696 0.233825
-0.0720835 -0.318457 0.23488
-0.0673834 -0.318043 0.236003
-0.0634668 -0.318348 0.235901
-0.0595213 -0.317988 0.236279
-0.0555066 -0.31797 0.236364
-0.0519846 -0.318068 0.235744
-0.0477459 -0.318208 0.235099
-0.0435857 -0.318585 0.23564
-0.03975 -0.318549 0.23434
-0.0356748 -0.318651 0.233775
-0.0319944 -0.31934 0.232097
-0.0280348 -0.318977 0.231252
-0.0237688 -0.31909 0.230376
-0.0202491 -0.319559 0.228691
-0.0159521 -0.319942 0.227467
-0.0116752 -0.319942 0.226223
-0.00790485 -0.320581 0.223614
-0.00392572 -0.320599 0.222525
0.000278465 -0.320534 0.222275
0.00401604 -0.320709 0.221464
0.00817543 -0.321476 0.220169
0.0121324 -0.321174 0.218869
0.0160028 -0.32165 0.217504
0.0200108 -0.321985 0.216295
0.0242986 -0.322298 0.214544
0.02847 -0.322352 0.213533
0.0319781 -0.322464 0.21263
0.0364957 -0.322939 0.210256
0.0401536 -0.322733 0.209088
0.0446288 -0.323519 0.207556
0.0484213 -0.323884 0.20621
0.0522669 -0.323895 0.204301
0.0570782 -0.324679 0.201895
0.0610958 -0.324664 0.199821
0.0646055 -0.324799 0.198963
0.0691541 -0.325391 0.19571
0.0735817 -0.325906 0.193924
0.077358 -0.326194 0.192199
0.081615 -0.326195 0.189181
0.0856247 -0.327283 0.185765
0.0899299 -0.32793 0.183037
0.0944398 -0.328407 0.180744
0.0982847 -0.328864 0.177297
0.102648 -0.329501 0.174616
0.107192 -0.330114 0.171095
0.111589 -0.330741 0.166859
0.116151 -0.331348 0.162784
0.120076 -0.332025 0.160593
0.124859 -0.332947 0.155965
0.129201 -0.333527 0.151889
0.13341 -0.334412 0.147708
0.138212 -0.335288 0.143603
0.142316 -0.335612 0.140392
0.14741 -0.336643 0.135378
0.151887 -0.336922 0.130168
0.156054 -0.337898 0.127513
0.161138 -0.338567 0.122602
0.165362 -0.339306 0.118432
0.169848 -0.340326 0.113164
0.174915 -0.340936 0.108581
0.178982 -0.341982 0.104523
0.185176 -0.343396 0.0969993
0.189603 -0.344145 0.0927707
0.193765 -0.345153 0.0879481
0.198898 -0.346105 0.0818133
0.203943 -0.347887 0.0739657
0.209373 -0.349072 0.0667714
0.214766 -0.350475 0.0570472
0.219371 -0.351876 0.0496976
0.225224 -0.353468 0.0403364
0.230622 -0.355266 0.0312313
0.237202 -0.357994 0.0155804
-0.230697 -0.350361 0.032316
-0.225075 -0.347636 0.0477235
-0.218706 -0.345609 0.0613331
-0.21318 -0.343233 0.0733145
-0.207719 -0.341827 0.084028
-0.202338 -0.339272 0.0948285
-0.196246 -0.337311 0.10593
-0.191665 -0.335848 0.114138
-0.186367 -0.334363 0.122516
-0.180795 -0.333062 0.130939
-0.176229 -0.331585 0.138236
-0.171724 -0.330623 0.143045
-0.167178 -0.329725 0.149508
-0.162228 -0.328528 0.155341
-0.157411 -0.327916 0.160742
-0.152728 -0.326728 0.166735
-0.148446 -0.326228 0.170348
-0.14409 -0.325089 0.175424
-0.139644 -0.324503 0.180123
-0.135394 -0.32329 0.185053
-0.130644 -0.322991 0.18958
-0.126499 -0.321528 0.194026
-0.12233 -0.321136 0.196916
-0.117464 -0.320219 0.201512
-0.113528 -0.32004 0.205037
-0.108749 -0.318504 0.209474
-0.104885 -0.318312 0.211645
-0.100604 -0.318112 0.215279
-0.0962123 -0.31735 0.21946
-0.0920218 -0.316162 0.223272
-0.0880892 -0.316168 0.225142
-0.0843121 -0.31558 0.228855
-0.0798357 -0.315323 0.230713
-0.0755351 -0.314459 0.233555
-0.0714311 -0.314506 0.234993
-0.067699 -0.314105 0.236861
-0.0636542 -0.314531 0.237419
-0.0597806 -0.314206 0.237659
-0.0553866 -0.313917 0.238473
-0.0517644 -0.314008 0.237513
-0.0479204 -0.314395 0.237036
-0.0432834 -0.314428 0.236627
-0.0399333 -0.314242 0.235958
-0.0357565 -0.31459 0.235533
