ply
format ascii 1.0
element vertex 1669
property float x
property float y
property float z
end_header
-0.117641 -0.215331 0.197378
-0.113711 -0.215137 0.198017
-0.109572 -0.215229 0.199172
-0.105774 -0.215298 0.199241
-0.10174 -0.215187 0.200286
-0.0976099 -0.215105 0.200375
-0.0934195 -0.215019 0.199911
-0.0891476 -0.214886 0.201494
-0.0848646 -0.215048 0.200283
-0.0812144 -0.215189 0.201153
-0.0771536 -0.215008 0.201196
-0.0725123 -0.215001 0.201901
-0.0689842 -0.214987 0.201467
-0.0648867 -0.214868 0.201143
-0.0605778 -0.21499 0.201974
-0.0567987 -0.215054 0.200639
-0.0526927 -0.214975 0.203001
-0.0485284 -0.21505 0.201385
-0.0443112 -0.214995 0.202018
-0.0404237 -0.214992 0.201309
-0.0363712 -0.214638 0.202672
-0.0322696 -0.214882 0.202397
-0.0284653 -0.215213 0.201929
-0.024205 -0.214549 0.20367
-0.0200302 -0.215125 0.201894
-0.0161826 -0.214627 0.202515
-0.0122203 -0.214788 0.203641
-0.00793865 -0.214507 0.20307
-0.00435034 -0.214143 0.204599
0.000247093 -0.214638 0.203843
0.0042018 -0.214958 0.204054
0.00794429 -0.214501 0.204991
0.0120074 -0.214421 0.205659
0.0163133 -0.214744 0.204921
0.0203879 -0.214152 0.204433
0.0239794 -0.214521 0.205766
0.0279586 -0.214395 0.205144
0.0322795 -0.214623 0.20516
0.0365977 -0.2139 0.205423
0.0402411 -0.214458 0.205062
0.0446715 -0.214466 0.206261
0.0485529 -0.214734 0.205703
0.0523008 -0.214551 0.205385
0.0568192 -0.214821 0.205392
0.0605944 -0.214411 0.204328
0.0649554 -0.214757 0.204343
0.0687312 -0.214351 0.204933
0.0728985 -0.214831 0.204421
0.0768137 -0.214707 0.204099
0.0808811 -0.214705 0.203779
0.0851183 -0.214693 0.203126
0.0889109 -0.214933 0.202343
0.0936768 -0.214982 0.202436
0.0971652 -0.215102 0.201824
0.101028 -0.215025 0.201183
0.105543 -0.215238 0.202138
0.10929 -0.215128 0.201427
0.113536 -0.215176 0.199762
0.117865 -0.215222 0.200061
0.121862 -0.215199 0.199832
0.126381 -0.214765 0.200234
0.129912 -0.215253 0.199761
0.134386 -0.215219 0.199927
0.13784 -0.215099 0.199165
0.14201 -0.215126 0.199198
0.146275 -0.21498 0.199316
0.150225 -0.21565 0.198199
0.154366 -0.215402 0.199489
0.15834 -0.215223 0.198826
0.162539 -0.215693 0.1974
0.166561 -0.215105 0.198417
0.17089 -0.215606 0.19734
0.17462 -0.215782 0.196257
0.178991 -0.215694 0.195899
0.183169 -0.215898 0.194543
0.187558 -0.216125 0.19329
0.191274 -0.216091 0.191664
0.196046 -0.216679 0.189528
0.200885 -0.216912 0.185904
0.204739 -0.217155 0.184637
0.209225 -0.217396 0.180729
0.21359 -0.217634 0.177723
0.219927 -0.219823 0.162812
-0.207231 -0.215242 0.16352
-0.201846 -0.214478 0.171113
-0.197924 -0.214445 0.174751
-0.193239 -0.213314 0.176892
-0.188994 -0.21354 0.179041
-0.184326 -0.213472 0.183266
-0.18024 -0.213003 0.184354
-0.176039 -0.21256 0.186928
-0.171384 -0.212347 0.189095
-0.167261 -0.212138 0.189985
-0.163148 -0.212103 0.191184
-0.159062 -0.211825 0.191719
-0.1548 -0.211863 0.193015
-0.151073 -0.211888 0.194112
-0.14687 -0.211603 0.193744
-0.142405 -0.211635 0.195634
-0.13836 -0.211643 0.19555
-0.134162 -0.211452 0.196811
-0.130284 -0.211598 0.196253
-0.12595 -0.21131 0.198749
-0.121845 -0.211435 0.197531
-0.117336 -0.211252 0.199095
-0.113781 -0.211533 0.197656
-0.10984 -0.211291 0.200054
-0.105734 -0.211461 0.199189
-0.101398 -0.211114 0.200025
-0.097297 -0.21085 0.200448
-0.0933331 -0.211021 0.201047
-0.0889889 -0.21066 0.201334
-0.0853285 -0.210996 0.201291
-0.0811428 -0.210908 0.201541
-0.0768683 -0.210981 0.202273
-0.0728407 -0.211183 0.201964
-0.0690542 -0.210786 0.201961
-0.0649714 -0.210876 0.201742
-0.0606486 -0.210659 0.202785
-0.0565531 -0.210945 0.202185
-0.0527254 -0.211023 0.202165
-0.0486387 -0.210748 0.202436
-0.0443327 -0.211034 0.202736
-0.0408567 -0.211111 0.20269
-0.0366148 -0.21032 0.203493
-0.0323843 -0.211335 0.202692
-0.0286176 -0.210676 0.203101
-0.0244693 -0.210817 0.202646
-0.0200557 -0.210423 0.203687
-0.0159367 -0.211016 0.20318
-0.0127044 -0.211094 0.203192
-0.00824103 -0.210562 0.203462
-0.00435307 -0.210794 0.204181
-0.000238674 -0.210637 0.204353
0.00422073 -0.211094 0.204105
0.00824775 -0.210214 0.205589
0.0122172 -0.210808 0.205379
0.0159283 -0.210213 0.205388
0.0201636 -0.210475 0.206198
0.0241707 -0.210625 0.205997
0.0284241 -0.21011 0.205487
0.0321262 -0.21018 0.206054
0.036825 -0.21031 0.206259
0.0406925 -0.210458 0.204972
0.0446507 -0.21018 0.205515
0.0486149 -0.210142 0.206526
0.0525736 -0.210029 0.20605
0.0568465 -0.21021 0.206171
0.0607332 -0.210524 0.205989
0.064953 -0.210325 0.204887
0.068439 -0.210403 0.205273
0.0728042 -0.210625 0.205278
0.077351 -0.210386 0.204717
0.0809899 -0.210723 0.203135
0.0851832 -0.210681 0.202506
0.0891214 -0.210491 0.202646
0.0936043 -0.21114 0.202584
0.0971906 -0.210973 0.201397
0.101245 -0.210619 0.202193
0.105353 -0.210651 0.20132
0.109369 -0.210928 0.201841
0.113588 -0.210863 0.201051
0.117711 -0.2114 0.200435
0.121575 -0.211097 0.200882
0.12586 -0.210951 0.19972
0.129657 -0.210911 0.20037
0.134278 -0.211128 0.200044
0.138099 -0.210831 0.19994
0.142163 -0.2109 0.198834
0.14627 -0.21092 0.199172
0.150342 -0.211017 0.198812
0.154599 -0.211053 0.198076
0.158606 -0.211676 0.198975
0.162424 -0.211467 0.197803
0.166644 -0.211837 0.198146
0.170481 -0.21166 0.198065
0.174861 -0.211174 0.197378
0.178555 -0.211577 0.196302
0.183216 -0.211823 0.1954
0.18734 -0.211266 0.194919
0.192068 -0.21184 0.19192
0.196062 -0.212313 0.190143
0.199998 -0.212678 0.188757
0.204625 -0.213046 0.185457
0.208774 -0.213103 0.182694
0.21391 -0.213759 0.177167
0.219046 -0.215192 0.167714
-0.207143 -0.21128 0.163855
-0.202147 -0.210056 0.171673
-0.197956 -0.209995 0.174507
-0.193316 -0.209688 0.177744
-0.188482 -0.208879 0.180992
-0.184286 -0.208855 0.183817
-0.180201 -0.208809 0.184808
-0.175911 -0.208621 0.187754
-0.171663 -0.207923 0.189368
-0.167184 -0.207906 0.190279
-0.163107 -0.208315 0.191726
-0.158717 -0.207794 0.193507
-0.154916 -0.207613 0.194044
-0.150733 -0.207614 0.195171
-0.146513 -0.207442 0.195143
-0.142725 -0.207793 0.196066
-0.138238 -0.207202 0.195391
-0.133917 -0.207195 0.197199
-0.129922 -0.207171 0.197496
-0.125811 -0.207359 0.197938
-0.121794 -0.207124 0.199767
-0.117533 -0.206888 0.199384
-0.113888 -0.207638 0.199795
-0.109652 -0.2069 0.200273
-0.10557 -0.207065 0.199093
-0.101522 -0.207088 0.200624
-0.0974007 -0.20684 0.200796
-0.0933941 -0.20687 0.200226
-0.089315 -0.206948 0.200869
-0.0854179 -0.207047 0.201295
-0.0807316 -0.206582 0.201603
-0.0768968 -0.206496 0.201842
-0.0732208 -0.20668 0.201941
-0.0688323 -0.2068 0.202108
-0.0649166 -0.207077 0.201597
-0.0609428 -0.20662 0.202361
-0.0568442 -0.206716 0.203336
-0.0524859 -0.206814 0.20277
-0.0487345 -0.20676 0.202167
-0.0444627 -0.206466 0.203207
-0.0405871 -0.206784 0.203525
-0.0364445 -0.206642 0.203704
-0.0321437 -0.206708 0.203087
-0.0286832 -0.206527 0.203701
-0.0243699 -0.206634 0.203606
-0.0201402 -0.206884 0.203937
-0.0161798 -0.206373 0.203943
-0.012053 -0.206522 0.204312
-0.00805314 -0.207045 0.204004
-0.00409218 -0.206401 0.203869
0.000114912 -0.206508 0.204937
0.0040101 -0.206047 0.205051
0.00795292 -0.206711 0.204733
0.0122877 -0.206558 0.205111
0.0159883 -0.206484 0.205997
0.0203327 -0.206293 0.205825
0.0243746 -0.206693 0.206285
0.0280874 -0.20642 0.206129
0.032202 -0.206245 0.207011
0.0363328 -0.206449 0.206121
0.0405348 -0.206324 0.206824
0.0442828 -0.206198 0.206475
0.048385 -0.20597 0.206937
0.0525866 -0.206419 0.206811
0.0562892 -0.206136 0.206184
0.0605979 -0.20603 0.206031
0.0646948 -0.206042 0.206386
0.06857 -0.206541 0.205513
0.0725031 -0.206675 0.20511
0.0770927 -0.206556 0.204183
0.0811423 -0.206621 0.204071
0.0851654 -0.206554 0.203807
0.0892542 -0.206733 0.203453
0.0934439 -0.206754 0.202772
0.0971941 -0.206587 0.203355
0.101331 -0.206672 0.202053
0.105236 -0.206871 0.202032
0.109368 -0.206738 0.201658
0.113518 -0.207167 0.201033
0.117588 -0.206683 0.20008
0.121736 -0.206988 0.200251
0.125588 -0.207272 0.199586
0.130227 -0.206962 0.200644
0.133895 -0.206737 0.200644
0.138066 -0.206976 0.199926
0.142139 -0.20667 0.201604
0.146176 -0.207249 0.199839
0.150886 -0.206785 0.199898
0.154481 -0.207447 0.199104
0.158501 -0.207237 0.198908
0.162511 -0.20736 0.198285
0.16696 -0.207262 0.198298
0.170573 -0.207225 0.198222
0.174864 -0.207418 0.196644
0.178954 -0.207428 0.195953
0.182671 -0.207995 0.19613
0.187621 -0.208001 0.194124
0.191563 -0.207724 0.192928
0.196008 -0.208232 0.190354
0.200365 -0.208267 0.188928
0.204863 -0.208826 0.186107
0.20934 -0.208681 0.181612
0.213866 -0.209788 0.17745
0.218633 -0.210128 0.1689
-0.206544 -0.206659 0.165653
-0.202046 -0.206175 0.171252
-0.197011 -0.205688 0.176671
-0.192686 -0.20511 0.179133
-0.188239 -0.205011 0.181471
-0.183923 -0.204774 0.18314
-0.179522 -0.204394 0.186229
-0.175503 -0.204403 0.187528
-0.17185 -0.204288 0.189022
-0.167673 -0.204305 0.189469
-0.163121 -0.203861 0.19247
-0.158836 -0.203492 0.192337
-0.154849 -0.203817 0.19462
-0.150693 -0.203314 0.195385
-0.14666 -0.203234 0.19578
-0.142266 -0.2034 0.196629
-0.137873 -0.203275 0.197008
-0.134001 -0.203301 0.197092
-0.130108 -0.203213 0.198255
-0.12591 -0.202742 0.198041
-0.122075 -0.202859 0.199318
-0.117849 -0.202968 0.199535
-0.113362 -0.203076 0.199385
-0.109687 -0.202758 0.200688
-0.105211 -0.202571 0.201395
-0.101605 -0.203711 0.200824
-0.097445 -0.202475 0.201585
-0.0934318 -0.203173 0.20119
-0.0892393 -0.202897 0.201905
-0.0848606 -0.202685 0.202491
-0.0809052 -0.202719 0.201586
-0.0768881 -0.202659 0.202105
-0.0732278 -0.202876 0.202531
-0.0688039 -0.202389 0.202911
-0.064889 -0.202872 0.203704
-0.0609326 -0.202809 0.202389
-0.0566068 -0.202812 0.203712
-0.0525955 -0.202738 0.203695
-0.0485659 -0.202857 0.203606
-0.0439872 -0.202692 0.203557
-0.0404925 -0.202655 0.203114
-0.036784 -0.202175 0.204471
-0.0326862 -0.202554 0.204388
-0.0280204 -0.202337 0.204705
-0.0247766 -0.202193 0.204691
-0.0201583 -0.202065 0.204309
-0.0167443 -0.202966 0.204393
-0.0120885 -0.202631 0.204348
-0.00794726 -0.202481 0.204609
-0.00429513 -0.202714 0.204777
-0.000146577 -0.202405 0.205002
0.00384724 -0.202795 0.20486
0.00781171 -0.201953 0.205608
0.0121094 -0.202101 0.20629
0.0163187 -0.202403 0.206616
0.0202391 -0.2021 0.206828
0.0241904 -0.202139 0.207021
0.0285099 -0.202119 0.206413
0.0323502 -0.20259 0.205658
0.0365331 -0.20231 0.206211
0.040528 -0.20195 0.207939
0.0443751 -0.202418 0.206825
0.0486154 -0.202305 0.206379
0.05261 -0.202384 0.206697
0.0568973 -0.202448 0.207097
0.0609776 -0.202326 0.205964
0.0644759 -0.202311 0.205985
0.0689083 -0.202678 0.206028
0.0727094 -0.202316 0.206029
0.076829 -0.202586 0.204332
0.0808195 -0.202259 0.204495
0.0848115 -0.202732 0.204256
0.0890866 -0.202696 0.20414
0.0932719 -0.202789 0.203543
0.0972823 -0.202674 0.203892
0.101337 -0.202458 0.202972
0.105756 -0.202842 0.20235
0.109548 -0.202762 0.201876
0.113483 -0.202864 0.200974
0.117802 -0.202551 0.200767
0.121779 -0.202499 0.201543
0.125976 -0.202922 0.201162
0.12999 -0.20284 0.200711
0.134279 -0.203115 0.20061
0.137483 -0.203228 0.200523
0.142296 -0.202884 0.200508
0.146268 -0.202444 0.200245
0.150194 -0.203054 0.199254
0.154281 -0.202538 0.201084
0.158245 -0.202989 0.200011
0.162135 -0.202699 0.199447
0.166173 -0.203013 0.199014
0.170497 -0.203094 0.198422
0.174794 -0.203033 0.197582
0.178821 -0.203062 0.197338
0.183262 -0.203554 0.195596
0.187372 -0.203224 0.195336
0.191401 -0.204134 0.193512
0.195616 -0.204105 0.191245
0.200216 -0.204105 0.189254
0.204898 -0.204451 0.185903
0.208572 -0.205139 0.184375
0.213602 -0.205354 0.177889
0.219028 -0.206787 0.166385
-0.20657 -0.203103 0.166291
-0.201618 -0.201797 0.172268
-0.197912 -0.201751 0.175854
-0.193215 -0.201305 0.179198
-0.189162 -0.201267 0.18077
-0.184252 -0.20032 0.183983
-0.180002 -0.200636 0.186449
-0.175868 -0.200357 0.187942
-0.171569 -0.200289 0.188955
-0.167173 -0.199779 0.191288
-0.162948 -0.199444 0.192887
-0.158911 -0.199912 0.193967
-0.154734 -0.199639 0.194588
-0.150641 -0.199199 0.195262
-0.146781 -0.199262 0.196319
-0.142368 -0.199301 0.197262
-0.138051 -0.199575 0.197014
-0.133999 -0.198875 0.198503
-0.129785 -0.199369 0.19838
-0.125573 -0.198794 0.199053
-0.122098 -0.198613 0.199162
-0.117768 -0.199084 0.200089
-0.113654 -0.199049 0.200978
-0.109669 -0.198837 0.20151
-0.105815 -0.19865 0.201086
-0.101512 -0.198243 0.202051
-0.0978211 -0.198992 0.200937
-0.0931212 -0.198522 0.202269
-0.0895071 -0.19835 0.202266
-0.0854371 -0.198871 0.202697
-0.0809764 -0.198507 0.202493
-0.0771944 -0.198237 0.20367
-0.0731579 -0.198442 0.203459
-0.0686941 -0.198769 0.203594
-0.0648692 -0.198742 0.203954
-0.0607857 -0.198377 0.203672
-0.0566346 -0.198379 0.203115
-0.0525652 -0.198371 0.203743
-0.0485867 -0.198501 0.204017
-0.0447348 -0.198502 0.204621
-0.0404867 -0.198061 0.204684
-0.0362851 -0.198854 0.2037
-0.0327008 -0.198456 0.20374
-0.028625 -0.198263 0.204788
-0.0244671 -0.198414 0.20491
-0.0202387 -0.198312 0.204372
-0.0162025 -0.198589 0.204751
-0.0123122 -0.198518 0.205257
-0.00817079 -0.197993 0.204544
-0.00383243 -0.19836 0.205683
0.000111475 -0.198159 0.205148
0.00393904 -0.198421 0.204571
0.00780602 -0.197996 0.205688
0.0118083 -0.198162 0.206469
0.0161919 -0.198151 0.206474
0.0197637 -0.198138 0.206703
0.0239196 -0.198057 0.207345
0.0282601 -0.198313 0.207304
0.0323525 -0.197987 0.206691
0.0360439 -0.19811 0.206791
0.0406916 -0.198182 0.20639
0.0445063 -0.198298 0.207325
0.0483852 -0.198264 0.207128
0.0528128 -0.1988 0.206829
0.0564587 -0.19811 0.207884
0.0606722 -0.198079 0.206407
0.0644 -0.198195 0.206588
0.0689084 -0.198297 0.206258
0.072792 -0.198281 0.205369
0.0767429 -0.1986 0.204845
0.0806921 -0.19828 0.20598
0.0851456 -0.198744 0.204497
0.089321 -0.198537 0.204289
0.0933142 -0.198752 0.204202
0.0968357 -0.198338 0.203407
0.101105 -0.198481 0.202608
0.105558 -0.19866 0.201386
0.109253 -0.199157 0.201256
0.11342 -0.198516 0.201619
0.117979 -0.198994 0.20059
0.121696 -0.198818 0.200529
0.12582 -0.198974 0.200691
0.130086 -0.199025 0.201076
0.13386 -0.198702 0.201241
0.138067 -0.198857 0.201196
0.142066 -0.198585 0.201491
0.145949 -0.199107 0.200224
0.150074 -0.1989 0.201124
0.154347 -0.199177 0.199853
0.157969 -0.19885 0.200195
0.162264 -0.19887 0.199467
0.16663 -0.199059 0.199681
0.170658 -0.199121 0.19882
0.175033 -0.199012 0.198291
0.178753 -0.199216 0.198017
0.18321 -0.199066 0.196647
0.186933 -0.19957 0.195217
0.191333 -0.199674 0.194424
0.195587 -0.199716 0.192383
0.199656 -0.199785 0.190759
0.204483 -0.20049 0.18617
0.20924 -0.200892 0.183769
0.213742 -0.201194 0.178233
0.219068 -0.202781 0.166371
-0.205919 -0.198682 0.167054
-0.202061 -0.197705 0.171667
-0.196941 -0.197406 0.177214
-0.192943 -0.196516 0.180107
-0.188437 -0.197203 0.182569
-0.184116 -0.196331 0.184257
-0.180074 -0.195992 0.186687
-0.175945 -0.196274 0.187642
-0.171739 -0.195961 0.190148
-0.167547 -0.195457 0.191948
-0.162932 -0.195508 0.193367
-0.15854 -0.195504 0.194565
-0.154701 -0.195292 0.195595
-0.150562 -0.195204 0.196281
-0.14646 -0.195294 0.196562
-0.142325 -0.195038 0.197229
-0.137745 -0.194932 0.198317
-0.134049 -0.194889 0.197851
-0.129849 -0.194794 0.198635
-0.125894 -0.194834 0.19886
-0.121812 -0.194943 0.200069
-0.117866 -0.194609 0.200281
-0.113652 -0.194664 0.201877
-0.109845 -0.194693 0.200881
-0.105644 -0.19458 0.201553
-0.101328 -0.194897 0.202375
-0.0974629 -0.194383 0.202544
-0.0932914 -0.194219 0.202999
-0.0889293 -0.194467 0.203144
-0.0851473 -0.194562 0.203463
-0.0811217 -0.194599 0.202518
-0.0768647 -0.194936 0.203944
-0.0727284 -0.194318 0.204534
-0.0691816 -0.194026 0.205002
-0.0649593 -0.19414 0.204253
-0.0606438 -0.194123 0.204855
-0.0564955 -0.194403 0.20363
-0.0527152 -0.194555 0.204102
-0.048578 -0.194664 0.203699
-0.0447181 -0.194038 0.20446
-0.0400037 -0.194419 0.204654
-0.0363233 -0.194433 0.204817
-0.0322104 -0.193994 0.204444
-0.0284603 -0.194386 0.204515
-0.0241656 -0.194483 0.205073
-0.0204373 -0.194407 0.2043
-0.016299 -0.194469 0.204963
-0.0118189 -0.194195 0.20498
-0.0080864 -0.19443 0.205221
-0.00423259 -0.194262 0.205251
0.000239224 -0.19432 0.205047
0.00406398 -0.194069 0.205257
0.00798071 -0.194155 0.205461
0.0119009 -0.193914 0.206102
0.0162141 -0.194203 0.206826
0.0202824 -0.194159 0.205908
0.0243637 -0.194002 0.2069
0.0285104 -0.194221 0.20679
0.0322464 -0.194073 0.207609
0.0364414 -0.194259 0.207335
0.0404198 -0.193848 0.207993
0.0444691 -0.194189 0.207458
0.0486379 -0.194265 0.207605
0.0525716 -0.193402 0.207372
0.0565806 -0.194041 0.207791
0.0606809 -0.194085 0.206446
0.0648079 -0.194083 0.208111
0.0682577 -0.193868 0.206174
0.0729912 -0.194246 0.206362
0.0769136 -0.194488 0.205719
0.0807381 -0.194501 0.205847
0.0851483 -0.194392 0.204549
0.0889571 -0.194163 0.204444
0.0931992 -0.194364 0.204733
0.0969983 -0.194418 0.203664
0.101358 -0.194615 0.203253
0.104924 -0.194546 0.202546
0.109449 -0.194572 0.202568
0.113448 -0.194708 0.202227
0.117824 -0.194428 0.202585
0.121696 -0.194808 0.202138
0.125521 -0.194507 0.202884
0.129556 -0.194816 0.201466
0.133685 -0.194769 0.200756
0.138295 -0.194867 0.200656
0.142434 -0.19469 0.200939
0.145987 -0.195212 0.201101
0.14982 -0.195041 0.200382
0.154267 -0.194723 0.201122
0.158224 -0.194732 0.200904
0.162135 -0.194716 0.200554
0.166492 -0.19487 0.200264
0.170427 -0.195018 0.199757
0.17432 -0.194906 0.199714
0.178621 -0.194808 0.198232
0.183071 -0.19502 0.196891
0.187238 -0.195226 0.196211
0.191126 -0.1952 0.1959
0.195748 -0.195702 0.192353
0.199591 -0.196005 0.19129
0.204005 -0.196063 0.188279
0.208716 -0.196394 0.18496
0.213493 -0.1974 0.179861
-0.206749 -0.194379 0.164011
-0.201785 -0.194106 0.173028
-0.197698 -0.193074 0.17688
-0.192772 -0.192543 0.181115
-0.188359 -0.193074 0.182964
-0.184243 -0.192607 0.184623
-0.179812 -0.192227 0.186924
-0.175734 -0.191754 0.188195
-0.171235 -0.191596 0.190963
-0.16717 -0.191743 0.192318
-0.163065 -0.191972 0.193377
-0.158883 -0.191144 0.194692
-0.154749 -0.191454 0.195566
-0.150752 -0.19122 0.195927
-0.146258 -0.190926 0.197709
-0.142278 -0.190759 0.197179
-0.138405 -0.190884 0.197823
-0.134062 -0.19079 0.199536
-0.130573 -0.190722 0.1993
-0.126053 -0.190529 0.20038
-0.121451 -0.19073 0.201062
-0.117597 -0.190883 0.200399
-0.11343 -0.19014 0.202226
-0.109586 -0.190468 0.20243
-0.105288 -0.1908 0.203137
-0.10154 -0.190735 0.203072
-0.0975647 -0.190231 0.203226
-0.0932323 -0.190449 0.203329
-0.0891405 -0.190002 0.203923
-0.0850426 -0.190173 0.204521
-0.0812457 -0.190342 0.20419
-0.0772008 -0.190532 0.20393
-0.0732184 -0.190388 0.204144
-0.0690397 -0.190006 0.204908
-0.0651447 -0.19039 0.204412
-0.0608123 -0.189927 0.204771
-0.0567106 -0.190554 0.204725
-0.052622 -0.190413 0.204975
-0.0481663 -0.190332 0.205411
-0.0446582 -0.190059 0.204647
-0.0405582 -0.190264 0.204021
-0.0365405 -0.190117 0.205508
-0.0324425 -0.190254 0.206217
-0.028494 -0.190231 0.205156
-0.0244609 -0.190188 0.204988
-0.0201574 -0.190762 0.205761
-0.0161555 -0.18992 0.205342
-0.012133 -0.190287 0.205501
-0.00812305 -0.190206 0.205207
-0.00411874 -0.190471 0.205821
0.000158472 -0.190115 0.205992
0.00438013 -0.190457 0.205987
0.0079734 -0.190107 0.20624
0.012025 -0.189983 0.206062
0.0160845 -0.190082 0.207192
0.0203732 -0.189687 0.207157
0.0243945 -0.190122 0.207386
0.0284784 -0.190148 0.20689
0.032218 -0.189843 0.207619
0.0365836 -0.190012 0.207571
0.0406627 -0.189911 0.207313
0.0442918 -0.190273 0.206416
0.0484891 -0.189988 0.207358
0.0527105 -0.189702 0.208498
0.0566203 -0.190416 0.207561
0.0604286 -0.190191 0.206529
0.0647884 -0.189963 0.207374
0.0687385 -0.189898 0.206732
0.0723494 -0.190187 0.206413
0.076747 -0.189911 0.20536
0.0809526 -0.190146 0.205772
0.0854513 -0.190382 0.205296
0.0888629 -0.190065 0.204824
0.0932289 -0.190229 0.204179
0.0974464 -0.189979 0.20346
0.10098 -0.190306 0.202988
0.105337 -0.190824 0.20162
0.109408 -0.190121 0.202929
0.113874 -0.190181 0.20317
0.11776 -0.190316 0.203009
0.121752 -0.190414 0.202441
0.125706 -0.19058 0.201145
0.129585 -0.190535 0.202343
0.13394 -0.190418 0.20257
0.138191 -0.190911 0.202228
0.142633 -0.190893 0.200947
0.146106 -0.190764 0.20149
0.150114 -0.191001 0.200492
0.154167 -0.190517 0.199977
0.158235 -0.190693 0.200564
0.162641 -0.191197 0.200169
0.166239 -0.190898 0.200698
0.170799 -0.19118 0.200015
0.174158 -0.19053 0.199486
0.178884 -0.190986 0.198464
0.182658 -0.190866 0.198262
0.186966 -0.1915 0.196111
0.190787 -0.191282 0.196019
0.195555 -0.191571 0.193251
0.199831 -0.191808 0.191074
0.204224 -0.192227 0.188764
0.208571 -0.192515 0.185245
0.21332 -0.192623 0.180354
-0.207672 -0.190843 0.158184
-0.202144 -0.190129 0.172965
-0.19719 -0.18923 0.176898
-0.192561 -0.188807 0.181076
-0.188508 -0.188241 0.182739
-0.18416 -0.188368 0.185436
-0.180156 -0.187707 0.186906
-0.175733 -0.18771 0.189874
-0.171264 -0.187614 0.190946
-0.167164 -0.187842 0.192518
-0.163638 -0.187534 0.192952
-0.158747 -0.187209 0.194818
-0.154985 -0.187352 0.195469
-0.150691 -0.187643 0.196543
-0.146679 -0.186791 0.196993
-0.142166 -0.18697 0.198267
-0.138248 -0.186642 0.198926
-0.134146 -0.18658 0.199425
-0.130044 -0.186888 0.199747
-0.125707 -0.186849 0.199477
-0.121569 -0.186759 0.200992
-0.118033 -0.18652 0.201339
-0.113607 -0.186404 0.202305
-0.109592 -0.186356 0.202326
-0.105125 -0.186331 0.203287
-0.101368 -0.186573 0.202505
-0.0974719 -0.186446 0.203426
-0.0929538 -0.186327 0.20434
-0.0892038 -0.186091 0.204458
-0.0849995 -0.186528 0.203879
-0.0809233 -0.186212 0.203578
-0.0768908 -0.186319 0.204184
-0.072953 -0.186488 0.204243
-0.0684143 -0.186008 0.205146
-0.0649786 -0.186271 0.205438
-0.0610909 -0.185908 0.204979
-0.0566622 -0.185971 0.205524
-0.0529148 -0.186428 0.204566
-0.0489649 -0.186017 0.205026
-0.0443304 -0.186545 0.205908
-0.0403257 -0.185895 0.206676
-0.0364922 -0.186025 0.205468
-0.0324348 -0.186059 0.20545
-0.0283298 -0.186235 0.205781
-0.0240185 -0.186093 0.205109
-0.0201283 -0.18623 0.206697
-0.0161012 -0.186123 0.205881
-0.0124945 -0.186204 0.206049
-0.00798375 -0.186267 0.20646
-0.00403051 -0.185928 0.207393
-0.000401631 -0.185933 0.206005
0.00410118 -0.185933 0.206671
0.00827261 -0.186137 0.206551
0.0116443 -0.186158 0.207055
0.0161844 -0.185834 0.207256
0.0200214 -0.185939 0.207118
0.0242711 -0.18622 0.207676
0.0286528 -0.185787 0.208322
0.0320183 -0.185705 0.207952
0.0366052 -0.185868 0.208219
0.0402148 -0.186172 0.207245
0.0447617 -0.185768 0.208496
0.0480784 -0.185737 0.207976
0.052864 -0.186205 0.207985
0.0568144 -0.185864 0.207451
0.060546 -0.186088 0.208554
0.0645655 -0.186214 0.206597
0.0687986 -0.185935 0.20655
0.0727446 -0.185691 0.207016
0.0766685 -0.186001 0.205769
0.0809115 -0.186037 0.205498
0.085045 -0.185743 0.205356
0.0890306 -0.186242 0.204756
0.0927878 -0.186165 0.2044
0.0971377 -0.186298 0.20467
0.101221 -0.18617 0.203965
0.105357 -0.186321 0.203902
0.109315 -0.186839 0.202785
0.113742 -0.186339 0.20278
0.117598 -0.186593 0.202346
0.121633 -0.186726 0.202517
0.126089 -0.186742 0.202372
0.129443 -0.186581 0.202766
0.133818 -0.186365 0.202102
0.137801 -0.186439 0.201074
0.141773 -0.186468 0.201614
0.145997 -0.186537 0.201588
0.150284 -0.186662 0.201155
0.154121 -0.186889 0.201237
0.158329 -0.186771 0.20003
0.162348 -0.186975 0.200629
0.166293 -0.186457 0.200438
0.17034 -0.186736 0.199821
0.17473 -0.186793 0.198615
0.179043 -0.186901 0.199199
0.182896 -0.186807 0.198306
0.187426 -0.187398 0.195967
0.191375 -0.187308 0.195975
0.195298 -0.187426 0.193171
0.200048 -0.187422 0.191345
0.203941 -0.188108 0.189136
0.208284 -0.187679 0.186628
0.2131 -0.188661 0.180675
-0.208065 -0.187405 0.155221
-0.201526 -0.185445 0.173783
-0.197223 -0.184863 0.177648
-0.192965 -0.184831 0.179722
-0.188406 -0.183991 0.18335
-0.1839 -0.183848 0.18648
-0.179739 -0.183947 0.187107
-0.176015 -0.183679 0.18912
-0.171577 -0.183531 0.191187
-0.167432 -0.183759 0.19265
-0.162757 -0.183474 0.194064
-0.158805 -0.182862 0.194999
-0.154752 -0.183388 0.195858
-0.150475 -0.182931 0.196716
-0.146256 -0.18299 0.1974
-0.142427 -0.182879 0.198736
-0.137966 -0.182823 0.19913
-0.134185 -0.182829 0.199662
-0.129884 -0.182616 0.200503
-0.125633 -0.182653 0.201114
-0.121339 -0.182383 0.201502
-0.117715 -0.182236 0.202697
-0.11348 -0.182495 0.202099
-0.109435 -0.182688 0.202406
-0.10544 -0.182251 0.202814
-0.10161 -0.182347 0.203093
-0.0973481 -0.182071 0.204957
-0.0933321 -0.182209 0.204359
-0.0891359 -0.181788 0.205148
-0.0851898 -0.182284 0.204531
-0.0809892 -0.1821 0.205059
-0.0771423 -0.181963 0.204958
-0.0727952 -0.1821 0.20447
-0.0684322 -0.182284 0.204082
-0.064655 -0.181969 0.206883
-0.0605066 -0.182262 0.204705
-0.0564661 -0.182335 0.206571
-0.0526147 -0.182312 0.206283
-0.0487271 -0.182291 0.205786
-0.0441565 -0.182113 0.206099
-0.0404998 -0.181778 0.207431
-0.0366605 -0.181885 0.206516
-0.032129 -0.182151 0.205802
-0.0282861 -0.182292 0.205542
-0.0244439 -0.182104 0.205468
-0.0199839 -0.182172 0.205959
-0.0162968 -0.182016 0.20573
-0.0123112 -0.181891 0.207487
-0.00755809 -0.182326 0.205947
-0.00399811 -0.182212 0.206686
-0.000293519 -0.181904 0.206689
0.0042616 -0.182059 0.207358
0.00806641 -0.181933 0.206621
0.0121792 -0.181895 0.206817
0.0162247 -0.181956 0.207074
0.0201664 -0.181599 0.206944
0.0238191 -0.181761 0.207123
0.0282933 -0.182013 0.2077
0.0320302 -0.182032 0.207307
0.0358389 -0.181606 0.208222
0.0405375 -0.181982 0.207501
0.0443582 -0.181914 0.207549
0.0484086 -0.181864 0.2081
0.0523208 -0.181739 0.207961
0.05661 -0.182033 0.208091
0.0605847 -0.182054 0.206015
0.0651527 -0.18188 0.207583
0.0687777 -0.181877 0.207798
0.0729572 -0.18188 0.207605
0.0765174 -0.181799 0.206112
0.0810725 -0.18171 0.205159
0.0848762 -0.182109 0.20539
0.0891964 -0.182184 0.204909
0.0933808 -0.182393 0.204057
0.0973285 -0.18199 0.204387
0.10111 -0.181978 0.20339
0.105342 -0.182532 0.203409
0.109537 -0.182185 0.203375
0.113664 -0.182387 0.20261
0.117588 -0.182381 0.202844
0.121682 -0.182428 0.201677
0.125511 -0.182154 0.20264
0.12991 -0.182365 0.202921
0.133787 -0.182694 0.200676
0.13778 -0.183014 0.202257
0.141974 -0.182212 0.202503
0.146194 -0.182548 0.202232
0.150056 -0.182363 0.202183
0.15408 -0.182664 0.201761
0.158169 -0.182453 0.201547
0.162202 -0.182444 0.20179
0.166314 -0.182439 0.201018
0.170612 -0.182557 0.201144
0.174886 -0.182928 0.199813
0.178957 -0.182835 0.199229
0.182697 -0.182774 0.198622
0.187109 -0.183005 0.19772
0.19125 -0.18272 0.195903
0.196171 -0.18295 0.193598
0.199732 -0.183604 0.191797
0.203946 -0.183378 0.190117
0.208452 -0.184393 0.186031
0.213815 -0.184475 0.179674
-0.20205 -0.181336 0.17219
-0.197019 -0.180958 0.178444
-0.192862 -0.180442 0.181232
-0.188492 -0.179936 0.183887
-0.18424 -0.180163 0.1861
-0.179755 -0.180035 0.187603
-0.175307 -0.17948 0.189792
-0.171478 -0.179703 0.192278
-0.167341 -0.179342 0.192915
-0.16287 -0.179257 0.194132
-0.15873 -0.179205 0.195035
-0.154399 -0.179007 0.196646
-0.150177 -0.17905 0.197169
-0.146361 -0.178695 0.198416
-0.142251 -0.178754 0.198216
-0.138115 -0.178658 0.199238
-0.134185 -0.178584 0.200333
-0.130018 -0.178492 0.20035
-0.125816 -0.178685 0.201068
-0.121352 -0.17863 0.201652
-0.11775 -0.178517 0.202006
-0.113397 -0.178064 0.202707
-0.109071 -0.17823 0.202282
-0.105279 -0.177994 0.203871
-0.10148 -0.178309 0.20388
-0.0972255 -0.178171 0.204551
-0.092995 -0.178505 0.203788
-0.0892015 -0.17823 0.204133
-0.0845599 -0.17829 0.204817
-0.081156 -0.177958 0.204892
-0.0771376 -0.178232 0.204618
-0.0729257 -0.17809 0.205194
-0.0686124 -0.1779 0.205892
-0.0647148 -0.178081 0.205256
-0.0604341 -0.178437 0.20693
-0.0563184 -0.177904 0.205764
-0.0527657 -0.178307 0.20633
-0.048425 -0.178448 0.206353
-0.0443083 -0.178244 0.205982
-0.0406401 -0.177888 0.20634
-0.0359785 -0.177458 0.207227
-0.0321345 -0.177835 0.206505
-0.0285304 -0.177747 0.2058
-0.0245588 -0.177652 0.206105
-0.0200757 -0.177735 0.20718
-0.0163042 -0.178005 0.206091
-0.0121511 -0.178121 0.206702
-0.00780976 -0.178212 0.206154
-0.00372954 -0.177928 0.206099
-0.000100081 -0.177825 0.206112
0.00390561 -0.177742 0.207536
0.00798628 -0.177405 0.207572
0.0122449 -0.177898 0.20715
0.0160474 -0.177984 0.206783
0.0202773 -0.177556 0.207627
0.0241919 -0.177908 0.207337
0.0284407 -0.177776 0.208376
0.0325194 -0.1781 0.208059
0.0362956 -0.178119 0.207603
0.0406014 -0.177544 0.20733
0.0450245 -0.177812 0.207565
0.0483911 -0.17735 0.208091
0.0526092 -0.178211 0.207781
0.05654 -0.177726 0.207656
0.060966 -0.178239 0.207914
0.0646893 -0.177968 0.206946
0.0685926 -0.177898 0.207163
0.072485 -0.177712 0.206962
0.0766919 -0.177913 0.206009
0.0808589 -0.177935 0.204941
0.0852222 -0.17829 0.205538
0.0892749 -0.177825 0.205215
0.0933241 -0.178286 0.205509
0.0971621 -0.177831 0.204543
0.101156 -0.178733 0.203552
0.105076 -0.178288 0.20396
0.109431 -0.178124 0.203398
0.113345 -0.178405 0.204105
0.117747 -0.178192 0.203617
0.121315 -0.178427 0.203081
0.125507 -0.178004 0.203507
0.129436 -0.17826 0.202334
0.133894 -0.178314 0.202294
0.138007 -0.178401 0.202138
0.141605 -0.178248 0.202854
0.146044 -0.17857 0.202032
0.150064 -0.178489 0.201883
0.154149 -0.178394 0.201384
0.158264 -0.178547 0.201506
0.16236 -0.178531 0.2019
0.166284 -0.178502 0.202017
0.170578 -0.178568 0.20052
0.174418 -0.178743 0.200715
0.178638 -0.17837 0.200776
0.182415 -0.178541 0.199349
0.186467 -0.178644 0.198063
0.191156 -0.17886 0.197238
0.19528 -0.179208 0.194151
0.199423 -0.179494 0.193059
0.204053 -0.179747 0.19032
0.208243 -0.180116 0.186997
0.213301 -0.180945 0.180303
-0.201545 -0.177099 0.172016
-0.197286 -0.176269 0.178185
-0.192611 -0.17626 0.181554
-0.188463 -0.176304 0.183774
-0.184094 -0.175936 0.185861
-0.179851 -0.175919 0.1883
-0.175226 -0.175513 0.190275
-0.171463 -0.175713 0.190764
-0.166877 -0.175078 0.193292
-0.163183 -0.175248 0.19424
-0.158654 -0.174902 0.19593
-0.154493 -0.174432 0.196373
-0.150424 -0.175004 0.197706
-0.14628 -0.174668 0.1986
-0.142274 -0.174507 0.198993
-0.138067 -0.174517 0.199332
-0.13363 -0.173979 0.200601
-0.129563 -0.174625 0.20113
-0.125271 -0.174494 0.200875
-0.122017 -0.174623 0.201573
-0.117739 -0.17474 0.201583
-0.113111 -0.174422 0.202505
-0.10967 -0.173666 0.20308
-0.105089 -0.173886 0.203886
-0.10122 -0.174072 0.20459
-0.0971797 -0.174427 0.203996
-0.0931317 -0.174077 0.20405
-0.089104 -0.17395 0.2047
-0.0852583 -0.173937 0.205475
-0.0809057 -0.173844 0.206172
-0.0769497 -0.173825 0.206016
-0.0725593 -0.174228 0.205684
-0.068717 -0.173716 0.205673
-0.0650114 -0.173915 0.205703
-0.0606695 -0.174136 0.206202
-0.0566657 -0.173906 0.205537
-0.0525781 -0.173973 0.205867
-0.0485207 -0.174046 0.206276
-0.044646 -0.174419 0.206897
-0.0404852 -0.174275 0.20608
-0.0361106 -0.173763 0.206007
-0.0322162 -0.174253 0.20665
-0.0285768 -0.173822 0.206849
-0.0242017 -0.173875 0.205359
-0.0203527 -0.174438 0.205988
-0.0160704 -0.17383 0.206739
-0.0119595 -0.17396 0.207201
-0.0081646 -0.173934 0.206703
-0.00412336 -0.174001 0.206418
0.000324388 -0.173284 0.207403
0.00386544 -0.173633 0.207238
0.00830388 -0.17381 0.207094
0.0121392 -0.173884 0.20729
0.0164322 -0.173825 0.207868
0.0200636 -0.173428 0.207401
0.0243503 -0.173779 0.207527
0.0278434 -0.173792 0.207825
0.032104 -0.173653 0.207637
0.0364727 -0.173755 0.20815
0.0403327 -0.173794 0.207591
0.0447413 -0.17363 0.20798
0.0486715 -0.173879 0.207603
0.0523185 -0.173679 0.207895
0.0567102 -0.173845 0.207544
0.0604948 -0.173803 0.206894
0.0648713 -0.17357 0.207026
0.0688158 -0.173544 0.207858
0.0726673 -0.173887 0.207252
0.0767015 -0.174052 0.206188
0.0811047 -0.173933 0.206234
0.0849575 -0.174308 0.205241
0.0887759 -0.174308 0.205211
0.0933275 -0.174223 0.204769
0.0969656 -0.173886 0.203734
0.101567 -0.174223 0.20407
0.105416 -0.174128 0.204903
0.109099 -0.173719 0.203903
0.113193 -0.174139 0.204443
0.117432 -0.174079 0.203775
0.121264 -0.174186 0.20279
0.125486 -0.174051 0.203405
0.129676 -0.174256 0.203368
0.133367 -0.173942 0.203295
0.137768 -0.174235 0.2032
0.14215 -0.174545 0.202077
0.145714 -0.17424 0.201566
0.149857 -0.174012 0.203725
0.154226 -0.174118 0.202639
0.15819 -0.174206 0.203045
0.161785 -0.174579 0.201092
0.166317 -0.174392 0.201777
0.170284 -0.174847 0.201266
0.174661 -0.175038 0.199837
0.178116 -0.174497 0.200201
0.182669 -0.1746 0.199804
0.187109 -0.174652 0.197731
0.191441 -0.175069 0.196746
0.19528 -0.175096 0.19484
0.199518 -0.17532 0.192762
0.204363 -0.175484 0.189936
0.208635 -0.17576 0.187936
0.212996 -0.176614 0.181612
-0.202237 -0.173364 0.170907
-0.196998 -0.172975 0.178249
-0.193042 -0.172593 0.181257
-0.18809 -0.171723 0.185457
-0.184397 -0.171693 0.187209
-0.17964 -0.171159 0.189171
-0.175571 -0.17155 0.190032
-0.171624 -0.171014 0.192497
-0.167113 -0.170769 0.193393
-0.162912 -0.171254 0.194294
-0.15855 -0.171053 0.195229
-0.154318 -0.170825 0.196829
-0.150362 -0.170406 0.197482
-0.146242 -0.170496 0.198895
-0.142069 -0.170634 0.198689
-0.137919 -0.170502 0.198623
-0.133933 -0.171046 0.199986
-0.129623 -0.170386 0.201524
-0.125974 -0.170685 0.201064
-0.121514 -0.170657 0.20221
-0.118026 -0.170309 0.202904
-0.113492 -0.170279 0.202736
-0.10904 -0.170139 0.203497
-0.105138 -0.170224 0.203934
-0.10092 -0.170165 0.204831
-0.0975379 -0.169917 0.205147
-0.0928376 -0.170011 0.204334
-0.0893062 -0.170142 0.20444
-0.0850635 -0.169975 0.204403
-0.0807674 -0.16991 0.205381
-0.0767836 -0.17017 0.205313
-0.0725591 -0.170029 0.205583
-0.0690788 -0.169718 0.205232
-0.0646876 -0.169922 0.206133
-0.0603036 -0.169402 0.206243
-0.0565685 -0.169692 0.207052
-0.0524301 -0.169976 0.206051
-0.0485226 -0.170109 0.206259
-0.0442332 -0.169476 0.207517
-0.040927 -0.169945 0.207044
-0.0360188 -0.169776 0.206945
-0.0324582 -0.170376 0.207017
-0.028138 -0.169928 0.206857
-0.024292 -0.169622 0.205868
-0.0202204 -0.169948 0.206375
-0.0164859 -0.170077 0.206613
-0.0120752 -0.170019 0.206898
-0.00767872 -0.169704 0.207094
-0.00424093 -0.169831 0.207061
0.000162305 -0.169994 0.206171
0.00398753 -0.170204 0.207308
0.00782436 -0.169354 0.207465
0.0120021 -0.169753 0.207311
0.0160277 -0.169617 0.207569
0.0201946 -0.169778 0.208038
0.0247454 -0.169597 0.207383
0.0285945 -0.169376 0.208415
0.0326366 -0.16976 0.20791
0.0361516 -0.169587 0.20853
0.0407867 -0.169381 0.208271
0.0447314 -0.169824 0.207358
0.0484708 -0.169856 0.208151
0.0525166 -0.169916 0.207675
0.0568016 -0.170046 0.207706
0.0608393 -0.169731 0.207436
0.0644337 -0.169775 0.207743
0.0691239 -0.169537 0.207452
0.0729216 -0.170174 0.207062
0.0768462 -0.169964 0.206433
0.0807801 -0.170293 0.205071
0.0848386 -0.169677 0.20592
0.089273 -0.169982 0.204878
0.0928403 -0.170058 0.205366
0.0975696 -0.170023 0.204992
0.101264 -0.170188 0.204363
0.105407 -0.170163 0.203084
0.1094 -0.170346 0.203435
0.113268 -0.170254 0.203588
0.117765 -0.1705 0.202631
0.121538 -0.170055 0.203486
0.125435 -0.170129 0.202846
0.129679 -0.17058 0.202691
0.13379 -0.170374 0.203005
0.13788 -0.170278 0.202456
0.14186 -0.169707 0.203007
0.145541 -0.170584 0.203492
0.149686 -0.170199 0.203331
0.154187 -0.170121 0.20173
0.158167 -0.17011 0.201172
0.162077 -0.170633 0.202443
0.166594 -0.170461 0.201372
0.170138 -0.170433 0.201753
0.174358 -0.170598 0.200184
0.178396 -0.170486 0.200955
0.182254 -0.17006 0.199907
0.186695 -0.17071 0.198677
0.191391 -0.170826 0.196356
0.195171 -0.170733 0.195602
0.199531 -0.171493 0.19316
0.203972 -0.171349 0.190459
0.209158 -0.171937 0.185894
0.213073 -0.172231 0.181889
-0.202394 -0.169357 0.17033
-0.197371 -0.168521 0.177851
-0.192606 -0.168313 0.182486
-0.188255 -0.167807 0.184625
-0.183959 -0.167819 0.186858
-0.179938 -0.167632 0.189045
-0.175756 -0.167279 0.189846
-0.171326 -0.167147 0.192689
-0.166804 -0.167224 0.19302
-0.162707 -0.166961 0.194716
-0.159092 -0.166621 0.196105
-0.154556 -0.166974 0.196098
-0.150333 -0.166671 0.198779
-0.146004 -0.166388 0.199242
-0.142192 -0.166583 0.199357
-0.138029 -0.166616 0.198891
-0.134101 -0.166399 0.199477
-0.129769 -0.166115 0.200904
-0.125621 -0.166289 0.201883
-0.121443 -0.166115 0.202961
-0.117477 -0.166441 0.202934
-0.113473 -0.166332 0.20296
-0.109335 -0.16597 0.20367
-0.105691 -0.165838 0.202669
-0.101695 -0.165705 0.203781
-0.0970598 -0.166121 0.204234
-0.0931433 -0.165941 0.205142
-0.0889699 -0.166122 0.20469
-0.0848734 -0.165549 0.205889
-0.0812047 -0.165859 0.205505
-0.0772451 -0.166104 0.206208
-0.0725651 -0.165673 0.207115
-0.0684707 -0.165785 0.206315
-0.0649293 -0.166002 0.205459
-0.0605893 -0.165637 0.20652
-0.0564029 -0.166135 0.206588
-0.0526427 -0.165555 0.207199
-0.0486032 -0.165628 0.208145
-0.0441605 -0.165893 0.207213
-0.0407553 -0.165622 0.207679
-0.0363513 -0.165774 0.207014
-0.0320515 -0.165731 0.207309
-0.0283371 -0.16568 0.206892
-0.024186 -0.165792 0.20789
-0.0201331 -0.165628 0.206841
-0.0158377 -0.16563 0.206318
-0.0120158 -0.16601 0.20689
-0.0080135 -0.165717 0.207124
-0.00424945 -0.165961 0.207072
-0.000415317 -0.165565 0.206931
0.0037249 -0.165431 0.207199
0.00812606 -0.165924 0.207847
0.0118843 -0.16542 0.209154
0.0161821 -0.165732 0.20701
0.0204655 -0.166069 0.206766
0.0243146 -0.166014 0.208504
0.028419 -0.165502 0.207508
0.0321722 -0.165775 0.208039
0.0362827 -0.165545 0.208702
0.0403192 -0.165376 0.207867
0.0445039 -0.165536 0.208024
0.0479027 -0.165869 0.207966
0.0522161 -0.165349 0.207809
0.0563401 -0.165622 0.208503
0.0606112 -0.165837 0.207988
0.0647578 -0.165506 0.207902
0.0689074 -0.165617 0.206668
0.0726365 -0.165535 0.206557
0.077057 -0.165869 0.207425
0.0808803 -0.165561 0.206668
0.0848221 -0.166071 0.205697
0.0891829 -0.16578 0.205207
0.0928185 -0.166034 0.205154
0.0967358 -0.166111 0.204427
0.101333 -0.166169 0.205032
0.105559 -0.165687 0.20441
0.109305 -0.165962 0.204584
0.113203 -0.166063 0.203796
0.117319 -0.166216 0.203769
0.121239 -0.166159 0.204149
0.125449 -0.166306 0.203248
0.129643 -0.165929 0.202551
0.133473 -0.165992 0.20347
0.137931 -0.166232 0.202714
0.142081 -0.165945 0.202708
0.145937 -0.165993 0.202777
0.149814 -0.16648 0.201904
0.153785 -0.166223 0.202851
0.15819 -0.166402 0.202319
0.162043 -0.166419 0.201023
0.166332 -0.16638 0.199974
0.170352 -0.166152 0.201289
0.174806 -0.166313 0.200674
0.178715 -0.166418 0.200993
0.182828 -0.166597 0.199724
0.186783 -0.166179 0.198713
0.191034 -0.166894 0.197589
0.19526 -0.166881 0.196089
0.19967 -0.166697 0.193984
0.204345 -0.167329 0.19074
0.208423 -0.167465 0.187262
0.213409 -0.168479 0.180014
-0.201944 -0.164992 0.170823
-0.197245 -0.164076 0.179211
-0.192546 -0.16368 0.182068
-0.188494 -0.163842 0.185144
-0.184146 -0.163821 0.18651
-0.179695 -0.16321 0.189726
-0.17553 -0.163136 0.190413
-0.171488 -0.162978 0.191822
-0.166804 -0.16283 0.194091
-0.162564 -0.162898 0.194831
-0.158983 -0.16247 0.195483
-0.15431 -0.16282 0.197607
-0.150659 -0.162823 0.197244
-0.146396 -0.162478 0.198538
-0.142508 -0.162508 0.19972
-0.13775 -0.161957 0.20085
-0.134009 -0.162628 0.200149
-0.129806 -0.162301 0.201525
-0.125692 -0.162089 0.201923
-0.121481 -0.1622 0.202035
-0.117706 -0.16215 0.201944
-0.113451 -0.162316 0.202984
-0.1095 -0.161861 0.202616
-0.105216 -0.161964 0.204273
-0.101435 -0.162318 0.204142
-0.0972017 -0.162226 0.205365
-0.0927424 -0.161798 0.205464
-0.0890404 -0.161926 0.205331
-0.085136 -0.161746 0.205375
-0.0809184 -0.161763 0.205823
-0.0767559 -0.161496 0.206531
-0.0726794 -0.162177 0.205698
-0.0684318 -0.161203 0.206762
-0.0648511 -0.16141 0.206728
-0.0605064 -0.161773 0.206048
-0.0566114 -0.161925 0.206343
-0.0526132 -0.161582 0.206407
-0.0487268 -0.162173 0.2063
-0.0444559 -0.161689 0.207911
-0.0404656 -0.162355 0.206948
-0.0365536 -0.161722 0.206715
-0.032547 -0.161703 0.207127
-0.0285851 -0.161514 0.206805
-0.0244015 -0.161685 0.207345
-0.0201312 -0.161719 0.207221
-0.0161734 -0.16164 0.207696
-0.0122479 -0.161779 0.207689
-0.0081449 -0.161592 0.207886
-0.00414819 -0.161864 0.207513
3.16355e-05 -0.161995 0.206905
0.00378323 -0.161646 0.207004
0.00857901 -0.161969 0.208198
0.0122994 -0.16172 0.207402
0.0164541 -0.161731 0.20772
0.0202879 -0.161665 0.207103
0.024494 -0.161508 0.208036
0.0281033 -0.161644 0.20828
0.0324749 -0.161859 0.208499
0.0367402 -0.161893 0.207553
0.0402983 -0.161777 0.208493
0.044225 -0.161709 0.208221
0.0480058 -0.161498 0.20839
0.052583 -0.16215 0.208047
0.0565755 -0.161608 0.207606
0.0607124 -0.161848 0.208117
0.0646765 -0.161968 0.206774
0.0686984 -0.161637 0.205747
0.072746 -0.161521 0.206728
0.0769692 -0.161916 0.206457
0.080936 -0.162124 0.206006
0.0849807 -0.161887 0.205447
0.0890806 -0.162007 0.205445
0.0925938 -0.161989 0.204459
0.0972674 -0.161911 0.204583
0.101078 -0.162046 0.204566
0.105178 -0.162309 0.203761
0.109221 -0.161636 0.204166
0.113541 -0.162164 0.204101
0.117774 -0.162514 0.203573
0.121828 -0.162145 0.203699
0.125247 -0.161931 0.203688
0.129779 -0.162147 0.203721
0.134034 -0.162397 0.202616
0.137875 -0.162372 0.203579
0.142012 -0.162172 0.202496
0.145785 -0.162366 0.203288
0.150138 -0.162075 0.202374
0.154345 -0.162196 0.202024
0.158516 -0.161923 0.202664
0.161836 -0.161888 0.202531
0.166183 -0.162365 0.20229
0.170279 -0.162137 0.201966
0.174222 -0.162356 0.201312
0.178516 -0.162416 0.200988
0.182336 -0.162546 0.200542
0.187168 -0.162406 0.199186
0.191173 -0.162359 0.198281
0.194854 -0.162274 0.19681
0.199706 -0.162975 0.193845
0.2039 -0.162939 0.190943
0.2087 -0.163725 0.186521
0.21304 -0.163853 0.180807
-0.201738 -0.160874 0.171217
-0.197217 -0.160219 0.179413
-0.192916 -0.160003 0.182265
-0.188374 -0.159403 0.185195
-0.183987 -0.159977 0.18623
-0.179811 -0.15931 0.189085
-0.174931 -0.158956 0.191018
-0.171459 -0.158813 0.192747
-0.166462 -0.159065 0.19376
-0.162717 -0.158437 0.194851
-0.158609 -0.158676 0.196251
-0.154551 -0.158696 0.197597
-0.15045 -0.158766 0.197859
-0.146604 -0.15849 0.199173
-0.142159 -0.158349 0.198852
-0.138114 -0.158231 0.200122
-0.133746 -0.158313 0.200734
-0.129792 -0.157977 0.201563
-0.125792 -0.158031 0.202878
-0.121862 -0.158648 0.20178
-0.117566 -0.158208 0.20318
-0.113476 -0.157751 0.203228
-0.10926 -0.157841 0.204132
-0.105196 -0.158063 0.203011
-0.101222 -0.157762 0.204203
-0.0974134 -0.158246 0.205005
-0.0930116 -0.15796 0.204942
-0.0888617 -0.157882 0.205181
-0.0849707 -0.158005 0.205393
-0.0810389 -0.157692 0.205991
-0.0767953 -0.157679 0.205754
-0.0724678 -0.157885 0.206186
-0.0683912 -0.15742 0.206627
-0.0649278 -0.158012 0.206594
-0.0605426 -0.157709 0.205858
-0.0567985 -0.158227 0.206592
-0.0526322 -0.157456 0.207114
-0.0484556 -0.157743 0.207373
-0.0445638 -0.158007 0.206655
-0.040727 -0.157791 0.207087
-0.0366524 -0.15755 0.206212
-0.0321046 -0.157556 0.207255
-0.0285139 -0.15751 0.206769
-0.0245976 -0.15736 0.207005
-0.0206347 -0.157575 0.208592
-0.0161063 -0.157298 0.207006
-0.0123887 -0.15779 0.20672
-0.00767347 -0.157755 0.207621
-0.00399345 -0.157674 0.207339
-6.19557e-05 -0.157927 0.207854
0.00402011 -0.157415 0.206978
0.00807847 -0.157781 0.206745
0.0120153 -0.157927 0.207636
0.0163261 -0.157597 0.20716
0.0204092 -0.157801 0.207941
0.0240807 -0.157872 0.207634
0.0282685 -0.157412 0.208991
0.0322792 -0.157652 0.208291
0.0362325 -0.15773 0.207815
0.0405314 -0.157647 0.208637
0.0442914 -0.157178 0.209014
0.0483642 -0.157571 0.208487
0.0529057 -0.157969 0.207724
0.0564662 -0.15788 0.207468
0.0605251 -0.157429 0.207763
0.0642507 -0.157269 0.20812
0.0684168 -0.157966 0.207715
0.0728407 -0.157851 0.207082
0.0768083 -0.157562 0.206386
0.0805702 -0.157831 0.206119
0.0848934 -0.157798 0.206076
0.0891481 -0.157548 0.205699
0.0932245 -0.158225 0.204469
0.0975836 -0.157774 0.203908
0.100935 -0.157899 0.204049
0.105058 -0.157919 0.204982
0.109147 -0.158378 0.203998
0.113469 -0.157957 0.204012
0.117144 -0.157988 0.204935
0.12134 -0.157994 0.204146
0.125425 -0.157817 0.203872
0.12916 -0.157845 0.203691
0.133542 -0.157955 0.203783
0.137655 -0.15802 0.203648
0.14189 -0.157936 0.203492
0.145965 -0.157889 0.202981
0.150314 -0.157813 0.20246
0.154102 -0.158268 0.202326
0.157871 -0.158111 0.202647
0.162074 -0.157672 0.202534
0.166572 -0.157981 0.202214
0.170463 -0.158125 0.201632
0.174483 -0.158287 0.202034
0.178315 -0.157921 0.201418
0.182284 -0.158243 0.200731
0.1874 -0.158035 0.199129
0.191197 -0.158297 0.197954
0.195596 -0.158496 0.196095
0.199832 -0.15891 0.193535
0.203712 -0.159217 0.190869
0.207995 -0.159399 0.187771
0.213454 -0.160137 0.179835
-0.202193 -0.157142 0.169055
-0.197046 -0.156338 0.179362
-0.192625 -0.156007 0.182109
-0.188246 -0.155822 0.185032
-0.183746 -0.155441 0.187842
-0.179402 -0.154987 0.189439
-0.175313 -0.155042 0.191867
-0.171433 -0.154987 0.191964
-0.166635 -0.154797 0.194271
-0.162649 -0.154097 0.194483
-0.158695 -0.154487 0.195921
-0.154423 -0.154472 0.198001
-0.150376 -0.154744 0.197635
-0.146058 -0.154068 0.19947
-0.142061 -0.154549 0.200075
-0.137603 -0.154052 0.200555
-0.133923 -0.154079 0.201262
-0.129672 -0.154045 0.20036
-0.125767 -0.154304 0.202188
-0.121567 -0.154168 0.20241
-0.117602 -0.154105 0.203504
-0.113758 -0.153666 0.203578
-0.109182 -0.154135 0.204641
-0.105229 -0.153602 0.204617
-0.101358 -0.153945 0.204574
-0.097085 -0.153544 0.205134
-0.0930689 -0.153736 0.205097
-0.0892955 -0.153918 0.205471
-0.0850314 -0.153377 0.20612
-0.081018 -0.153711 0.205692
-0.0770049 -0.153655 0.206504
-0.0731792 -0.15368 0.205511
-0.0689726 -0.153612 0.206475
-0.0651278 -0.153522 0.206185
-0.0604775 -0.153967 0.207439
-0.0564753 -0.153823 0.207437
-0.0523849 -0.154062 0.206903
-0.0485436 -0.153392 0.207324
-0.0444352 -0.153343 0.206496
-0.0405679 -0.154007 0.20713
-0.0363112 -0.153811 0.206493
-0.0324776 -0.15375 0.20782
-0.0286379 -0.153676 0.207061
-0.0242429 -0.153619 0.207784
-0.0201585 -0.153374 0.207436
-0.0164379 -0.153963 0.207386
-0.0118833 -0.153642 0.207275
-0.00823896 -0.153948 0.207733
-0.00426885 -0.153631 0.207093
0.000171818 -0.153445 0.207326
0.00402488 -0.153655 0.207616
0.0081609 -0.153641 0.207609
0.0119612 -0.153541 0.207703
0.0161097 -0.153581 0.207058
0.0202317 -0.15342 0.20824
0.0241041 -0.153298 0.207366
0.0280282 -0.153624 0.208614
0.0325079 -0.153055 0.208352
0.0361952 -0.153864 0.208775
0.0404398 -0.153659 0.208628
0.0445523 -0.153766 0.208597
0.0484893 -0.153196 0.208683
0.0528513 -0.153506 0.208186
0.0567387 -0.153439 0.208
0.0607108 -0.153592 0.207685
0.0643264 -0.153777 0.207072
0.0685145 -0.153408 0.205975
0.0728551 -0.1536 0.206427
0.0768892 -0.153711 0.205511
0.0811016 -0.153411 0.206061
0.0849113 -0.153735 0.205106
0.0890214 -0.15404 0.20495
0.0933508 -0.153646 0.205115
0.0974706 -0.154181 0.203899
0.101396 -0.153821 0.204622
0.105162 -0.154024 0.205284
0.109707 -0.153776 0.204353
0.113146 -0.153669 0.20388
0.117679 -0.154067 0.203834
0.121599 -0.153829 0.204736
0.125533 -0.153429 0.203657
0.129419 -0.154218 0.203592
0.133548 -0.153918 0.203627
0.137724 -0.153986 0.203573
0.141749 -0.154086 0.202759
0.145683 -0.154205 0.202851
0.15019 -0.154346 0.203408
0.153772 -0.153765 0.203591
0.158008 -0.153906 0.202598
0.162288 -0.154059 0.202725
0.166665 -0.154288 0.202565
0.170206 -0.154244 0.202498
0.174346 -0.154015 0.202499
0.178428 -0.154128 0.202401
0.182534 -0.15402 0.200904
0.186958 -0.154484 0.199288
0.191085 -0.154276 0.198209
0.195217 -0.154585 0.19515
0.199422 -0.154648 0.194834
0.204204 -0.155114 0.190744
0.208707 -0.155372 0.187084
0.213008 -0.156064 0.18073
-0.202039 -0.15257 0.168067
-0.197072 -0.151834 0.179081
-0.192584 -0.151889 0.183948
-0.187989 -0.150823 0.185988
-0.183547 -0.151083 0.187462
-0.179206 -0.150662 0.190686
-0.175282 -0.151085 0.191539
-0.170934 -0.150822 0.193155
-0.167336 -0.150749 0.193237
-0.162461 -0.150378 0.195614
-0.158494 -0.150141 0.196103
-0.154809 -0.150307 0.197345
-0.149866 -0.150354 0.198905
-0.146683 -0.150246 0.199459
-0.141878 -0.150139 0.199724
-0.138062 -0.150265 0.199808
-0.133791 -0.150467 0.201588
-0.129569 -0.150213 0.201939
-0.125994 -0.149992 0.202159
-0.121455 -0.150206 0.202697
-0.117219 -0.150054 0.203968
-0.113491 -0.150084 0.203897
-0.109122 -0.150114 0.204234
-0.105404 -0.149711 0.204992
-0.101351 -0.149788 0.204576
-0.0974377 -0.149804 0.204832
-0.092989 -0.149534 0.205671
-0.0891514 -0.149638 0.204668
-0.085065 -0.149294 0.20504
-0.0810289 -0.149826 0.205776
-0.0767316 -0.149281 0.20659
-0.0730754 -0.149866 0.206062
-0.0684147 -0.149594 0.206982
-0.0644418 -0.149827 0.207136
-0.0609624 -0.150188 0.206473
-0.056273 -0.149815 0.207067
-0.0525594 -0.1499 0.206177
-0.0484522 -0.149502 0.206009
-0.0444759 -0.149613 0.207163
-0.0406109 -0.149606 0.207646
-0.0363976 -0.149776 0.206532
-0.0328161 -0.149872 0.207175
-0.028296 -0.149602 0.207492
-0.0243492 -0.150062 0.208029
