ply
format ascii 1.0
element vertex 1708
property float x
property float y
property float z
end_header
-0.19246 0.166309 0.059978
-0.188073 0.165574 0.0622818
-0.18368 0.165851 0.0641062
-0.178867 0.165891 0.0662783
-0.174029 0.165601 0.0692449
-0.169856 0.165737 0.0711613
-0.164976 0.164818 0.0722784
-0.160774 0.164916 0.074612
-0.156073 0.165096 0.0760784
-0.151528 0.165004 0.0781777
-0.147416 0.164358 0.0800711
-0.142705 0.164395 0.0823094
-0.138343 0.164237 0.0843438
-0.133623 0.163405 0.0870804
-0.129142 0.163835 0.0895948
-0.124689 0.163556 0.0912683
-0.120968 0.163307 0.092259
-0.115895 0.162882 0.094698
-0.111379 0.163268 0.0972043
-0.10709 0.163105 0.0988547
-0.102806 0.162409 0.101123
-0.0987012 0.162717 0.102719
-0.0938815 0.162884 0.105802
-0.0894596 0.161783 0.106906
-0.0854505 0.162052 0.108199
-0.0807277 0.161589 0.111427
-0.0763795 0.161944 0.113428
-0.0722665 0.161231 0.11377
-0.0684358 0.161369 0.116512
-0.0636773 0.161523 0.118724
-0.0592488 0.160879 0.120811
-0.0547537 0.16073 0.121649
-0.0508783 0.16066 0.123281
-0.0462554 0.160781 0.126085
-0.0424565 0.160085 0.126695
-0.0375163 0.160399 0.128734
-0.0340747 0.160202 0.131109
-0.0295533 0.160555 0.132257
-0.0255325 0.159845 0.133814
-0.0207975 0.159711 0.137307
-0.0170249 0.159452 0.137613
-0.0121717 0.159179 0.140319
-0.0085283 0.159089 0.141322
-0.00387569 0.159007 0.142724
-0.000308522 0.158748 0.144753
0.00420576 0.159402 0.147133
0.00843398 0.158727 0.148409
0.012231 0.158761 0.14926
0.0169732 0.158626 0.150455
0.0206921 0.158091 0.153604
0.0248759 0.158273 0.155027
0.0292228 0.157857 0.156657
0.0330843 0.157944 0.157432
0.037108 0.158033 0.159953
0.0410931 0.15796 0.160704
0.0454281 0.157561 0.162636
0.0495836 0.157532 0.163787
0.0537113 0.156713 0.165707
0.0576468 0.157286 0.166812
0.0620136 0.156567 0.168004
0.0658124 0.156704 0.16989
0.0700085 0.156629 0.170954
0.0741594 0.156431 0.171435
0.0783684 0.156332 0.173443
0.0822352 0.156487 0.174335
0.086464 0.156421 0.175842
0.0904472 0.156092 0.176928
0.0947682 0.156088 0.17769
0.0985193 0.156372 0.178039
0.1025 0.156375 0.178014
0.106703 0.156301 0.178694
0.11106 0.156056 0.178258
0.114905 0.156244 0.178996
0.119204 0.155898 0.177211
0.123481 0.156505 0.176233
0.127702 0.156474 0.175354
0.131914 0.156153 0.173207
0.136246 0.157014 0.171023
0.140582 0.156902 0.167361
0.144919 0.157533 0.163406
0.149865 0.158106 0.155867
0.154478 0.158957 0.147105
0.159567 0.159685 0.13771
0.164579 0.160576 0.127579
0.17029 0.161161 0.117201
0.175095 0.162331 0.107203
0.179899 0.162805 0.0976864
0.185438 0.163801 0.0873272
0.191004 0.165136 0.074617
0.196394 0.165927 0.0645227
0.202273 0.167002 0.0521412
0.20804 0.168375 0.0376552
0.214266 0.169668 0.0209111
-0.217604 0.17314 0.0310937
-0.211612 0.172194 0.0444436
-0.206923 0.171421 0.0510712
-0.201888 0.171153 0.0548121
-0.197183 0.17095 0.0576606
-0.192796 0.170501 0.0604829
-0.187671 0.170588 0.0628467
-0.183452 0.170159 0.0647802
-0.178503 0.169526 0.0672632
-0.173489 0.169996 0.0702081
-0.169904 0.169605 0.0709955
-0.165509 0.16961 0.0726861
-0.160669 0.169583 0.0742743
-0.155796 0.169208 0.0762385
-0.151285 0.168791 0.0790951
-0.147151 0.168874 0.0814797
-0.142743 0.168404 0.0829433
-0.138326 0.168049 0.0841762
-0.133802 0.167878 0.087149
-0.128878 0.168032 0.0902262
-0.124675 0.167492 0.0915457
-0.12057 0.167704 0.0936365
-0.11571 0.167162 0.0955367
-0.111591 0.167183 0.0968794
-0.10712 0.166908 0.100156
-0.103053 0.166808 0.100745
-0.0980491 0.1667 0.102702
-0.0944671 0.166534 0.105321
-0.0894873 0.166388 0.107255
-0.0851901 0.166352 0.108763
-0.0812551 0.165996 0.110591
-0.0769343 0.165762 0.11356
-0.0722565 0.165739 0.115333
-0.0677767 0.165527 0.116903
-0.0634527 0.165524 0.118835
-0.059431 0.16557 0.120831
-0.0549613 0.165585 0.121664
-0.0507136 0.165376 0.12382
-0.046464 0.165152 0.125879
-0.0419814 0.164567 0.128341
-0.0379509 0.164757 0.129952
-0.0335848 0.164858 0.13158
-0.0295441 0.164311 0.133414
-0.0251075 0.163955 0.13509
-0.0205034 0.164028 0.136522
-0.0165341 0.163549 0.13851
-0.012946 0.163732 0.139472
-0.00842754 0.163492 0.14126
-0.00417682 0.163489 0.14232
-1.9239e-05 0.162925 0.14496
0.00405922 0.163254 0.146168
0.00835016 0.162826 0.148298
0.0125189 0.162563 0.149978
0.0167864 0.162235 0.152619
0.020812 0.162409 0.153197
0.0251492 0.162581 0.153968
0.0292044 0.162185 0.157097
0.0335211 0.16203 0.158955
0.0374811 0.162274 0.160049
0.0412812 0.161493 0.161944
0.045725 0.161348 0.163441
0.049767 0.161755 0.164757
0.0538416 0.161313 0.166132
0.058052 0.161213 0.166231
0.0621974 0.161222 0.16793
0.0659347 0.160736 0.170546
0.0700859 0.160958 0.172041
0.0743869 0.160626 0.172225
0.077687 0.160695 0.173715
0.0820975 0.160518 0.175265
0.0860966 0.160281 0.175946
0.0903413 0.160309 0.177214
0.0947987 0.15983 0.178615
0.0983471 0.160249 0.178601
0.102891 0.160196 0.179214
0.1071 0.160237 0.179771
0.110732 0.159629 0.179275
0.115021 0.160656 0.17826
0.11927 0.160146 0.177839
0.123459 0.16015 0.177317
0.127817 0.160691 0.174868
0.131873 0.16086 0.173259
0.13603 0.160692 0.172027
0.140632 0.161335 0.167512
0.144405 0.161277 0.1641
0.149482 0.161797 0.157265
0.155205 0.163378 0.14636
0.15972 0.163868 0.138021
0.164239 0.16452 0.128694
0.169905 0.165559 0.117596
0.175235 0.166369 0.107491
0.179931 0.167489 0.0982444
0.185315 0.168273 0.0870315
0.191297 0.169472 0.0749007
0.196344 0.170173 0.064514
0.202634 0.171825 0.0503391
0.208427 0.17274 0.0358669
0.21468 0.174233 0.0187278
-0.21164 0.17623 0.0432768
-0.206562 0.17591 0.0502894
-0.201671 0.175493 0.054944
-0.197362 0.175387 0.0569265
-0.19217 0.174446 0.0613172
-0.187924 0.17544 0.0631884
-0.183143 0.174468 0.0663484
-0.178529 0.17466 0.0670168
-0.173841 0.174239 0.0701441
-0.169761 0.17437 0.0718205
-0.16521 0.173623 0.073033
-0.160664 0.173657 0.0755461
-0.156116 0.173297 0.0776832
-0.151585 0.173399 0.0799119
-0.146966 0.173134 0.0813365
-0.142501 0.172759 0.0830737
-0.138378 0.172969 0.0848566
-0.133367 0.172416 0.088441
-0.12903 0.172855 0.0894375
-0.124541 0.172032 0.0917665
-0.120331 0.172122 0.0936693
-0.115716 0.171705 0.0963727
-0.110876 0.171316 0.0978119
-0.107441 0.171812 0.0991942
-0.102873 0.171098 0.101334
-0.0978767 0.171061 0.104153
-0.0937699 0.170959 0.10596
-0.0902786 0.17064 0.106952
-0.0853511 0.170545 0.110231
-0.0807717 0.170382 0.110803
-0.077031 0.169857 0.113505
-0.0724623 0.169612 0.115334
-0.0677917 0.169738 0.116617
-0.0637247 0.169743 0.11841
-0.0592744 0.169683 0.120215
-0.0552214 0.169293 0.122352
-0.0508637 0.169292 0.124189
-0.0460004 0.169393 0.126371
-0.0421278 0.168989 0.128313
-0.0380367 0.168753 0.129659
-0.0337716 0.168746 0.131709
-0.0294786 0.168124 0.133714
-0.0250213 0.168112 0.135108
-0.0207994 0.167821 0.137214
-0.0163122 0.167929 0.138779
-0.0123694 0.167804 0.140429
-0.00811278 0.167614 0.141896
-0.00417717 0.167324 0.143249
-0.000264451 0.167467 0.145171
0.00411046 0.167287 0.147278
0.00848726 0.167065 0.148919
0.0120508 0.166531 0.15068
0.0167575 0.166999 0.151515
0.0208513 0.166884 0.154063
0.0250657 0.166615 0.154488
0.0290266 0.166525 0.157245
0.0334085 0.166056 0.159126
0.0369407 0.165799 0.160344
0.0416457 0.165814 0.161755
0.0454307 0.165576 0.162866
0.0498684 0.165527 0.165573
0.0535572 0.165423 0.166048
0.0577749 0.165511 0.167264
0.0619167 0.165202 0.16894
0.0657587 0.16533 0.170673
0.069666 0.164947 0.171771
0.073867 0.164951 0.172339
0.0782457 0.164836 0.173699
0.0822717 0.164692 0.175297
0.0864711 0.164284 0.175982
0.0904457 0.164504 0.177601
0.0944483 0.164439 0.177992
0.098719 0.164301 0.17885
0.102787 0.164213 0.178793
0.106535 0.164195 0.179183
0.11069 0.164239 0.178767
0.115329 0.164311 0.178336
0.119099 0.164423 0.178321
0.123508 0.164429 0.176923
0.127131 0.165216 0.176275
0.131598 0.164606 0.173674
0.135745 0.16509 0.172086
0.140372 0.165019 0.167904
0.144944 0.165616 0.164195
0.149589 0.166328 0.157374
0.154703 0.167387 0.147775
0.159619 0.167915 0.137634
0.16466 0.16864 0.128016
0.169977 0.169805 0.117251
0.174722 0.170386 0.108641
0.180706 0.171726 0.0967624
0.185545 0.172435 0.0869817
0.190824 0.173675 0.0760379
0.196 0.174314 0.0656219
0.202333 0.176021 0.0514365
0.207539 0.177134 0.0380045
0.215042 0.178872 0.016637
-0.213047 0.181847 0.0319704
-0.20718 0.180599 0.0469477
-0.201722 0.179459 0.05471
-0.197241 0.179463 0.0565305
-0.19266 0.179675 0.0592854
-0.187721 0.179207 0.0633799
-0.183231 0.178892 0.0656009
-0.178634 0.178757 0.068047
-0.174378 0.178803 0.068598
-0.169831 0.178281 0.0722028
-0.165128 0.178176 0.0742294
-0.160439 0.178219 0.0763013
-0.155772 0.177542 0.0776579
-0.151183 0.177292 0.0797951
-0.146913 0.177706 0.080826
-0.142864 0.177061 0.0825856
-0.138791 0.177065 0.0857643
-0.133288 0.177118 0.0883472
-0.129328 0.176951 0.0894265
-0.124743 0.176276 0.091262
-0.120175 0.176389 0.0935298
-0.115867 0.176122 0.0956677
-0.111901 0.176294 0.0972862
-0.107164 0.175519 0.100211
-0.102873 0.175508 0.10172
-0.0983563 0.175236 0.103487
-0.0938185 0.174911 0.105835
-0.0897719 0.175142 0.107329
-0.0850042 0.174548 0.110215
-0.0807115 0.174037 0.111396
-0.0765424 0.174433 0.113931
-0.0724028 0.174119 0.115075
-0.0678767 0.174266 0.117522
-0.0633793 0.174324 0.119514
-0.0594908 0.174151 0.120769
-0.0551919 0.173542 0.123111
-0.0510652 0.17346 0.124819
-0.0466741 0.173186 0.126986
-0.041997 0.173236 0.127607
-0.0380275 0.172705 0.130491
-0.0336767 0.172591 0.132188
-0.0293649 0.173181 0.133604
-0.0255799 0.172209 0.135481
-0.0212819 0.172115 0.137348
-0.016999 0.171813 0.138727
-0.0124715 0.171899 0.140518
-0.00826127 0.171943 0.142524
-0.00400979 0.171429 0.143676
-0.000665194 0.171552 0.146778
0.00429326 0.171123 0.147689
0.00855723 0.171075 0.148723
0.0123341 0.171367 0.150572
0.0168287 0.171022 0.152282
0.0203057 0.170862 0.154032
0.0245568 0.170662 0.155651
0.0295757 0.170523 0.157095
0.0331895 0.170552 0.158724
0.0368733 0.169898 0.161263
0.0418455 0.16982 0.16298
0.0458131 0.169465 0.163638
0.0500168 0.169724 0.165626
0.0537956 0.169111 0.166827
0.0580341 0.169509 0.16706
0.0616059 0.169571 0.169128
0.0661278 0.169469 0.170069
0.0702217 0.169057 0.172419
0.0740959 0.168757 0.172599
0.078314 0.168693 0.174325
0.0822269 0.168511 0.17571
0.0863719 0.168711 0.176551
0.0909912 0.168806 0.177588
0.0942819 0.168686 0.177672
0.0989132 0.168582 0.17884
0.102323 0.168499 0.178647
0.106605 0.168245 0.179989
0.110462 0.168491 0.178257
0.114929 0.168632 0.178586
0.119139 0.168462 0.178824
0.123425 0.168514 0.176964
0.127301 0.168428 0.176015
0.131692 0.169187 0.174383
0.136401 0.169262 0.171333
0.140782 0.169133 0.167542
0.145119 0.169788 0.164883
0.149523 0.170608 0.157159
0.154352 0.171482 0.148481
0.159598 0.171959 0.138478
0.164697 0.172985 0.127902
0.170207 0.174174 0.117714
0.175361 0.174748 0.10718
0.180533 0.175661 0.0971106
0.185246 0.17699 0.0873184
0.190409 0.177682 0.0766562
0.195979 0.179066 0.0653845
0.202341 0.180404 0.0507658
0.208114 0.181223 0.0362537
0.214587 0.183292 0.018169
-0.207729 0.185192 0.0428163
-0.20223 0.18445 0.0517827
-0.197298 0.184253 0.0573387
-0.192493 0.184033 0.0612564
-0.187993 0.183148 0.0637609
-0.183346 0.183442 0.0656067
-0.178431 0.182623 0.0686255
-0.174191 0.183004 0.0694247
-0.16937 0.182622 0.0720328
-0.164967 0.182321 0.0735363
-0.160779 0.18214 0.0750971
-0.155943 0.182268 0.0777724
-0.151413 0.181995 0.0800329
-0.147278 0.181629 0.0821571
-0.142451 0.181482 0.0836829
-0.138275 0.181063 0.0852554
-0.133655 0.180974 0.0877085
-0.129218 0.180963 0.0902251
-0.124625 0.180543 0.0925232
-0.12034 0.180577 0.0941106
-0.116047 0.180307 0.0955873
-0.111604 0.180275 0.0988415
-0.106909 0.180097 0.100044
-0.102723 0.179656 0.103076
-0.0982214 0.17931 0.10516
-0.0939151 0.179836 0.105353
-0.0902187 0.179093 0.108345
-0.0855189 0.1789 0.110405
-0.0808565 0.178494 0.111379
-0.0762236 0.178448 0.114019
-0.0719758 0.17827 0.116005
-0.0680975 0.178292 0.118204
-0.063966 0.177834 0.120081
-0.0593887 0.177637 0.121185
-0.054824 0.177314 0.124217
-0.0508855 0.177819 0.124838
-0.0462082 0.177234 0.12673
-0.0423995 0.176949 0.127939
-0.0376724 0.177279 0.130686
-0.033744 0.176926 0.132557
-0.0293628 0.17693 0.134799
-0.0256427 0.176397 0.135779
-0.0212605 0.176365 0.136717
-0.0165207 0.176369 0.138585
-0.0128135 0.176286 0.140491
-0.00853916 0.175685 0.143006
-0.00398846 0.175936 0.14423
9.55054e-05 0.175842 0.145469
0.00398376 0.175171 0.147445
0.00837884 0.175322 0.149568
0.0128383 0.175257 0.151123
0.0164943 0.17499 0.152975
0.0206555 0.175089 0.155357
0.0251519 0.17461 0.156234
0.029028 0.174428 0.157477
0.0330481 0.174571 0.159071
0.0373273 0.174463 0.159793
0.0417551 0.173942 0.161974
0.0456042 0.173781 0.163783
0.0499801 0.173777 0.16526
0.0540895 0.173427 0.166273
0.0577764 0.17356 0.168449
0.0619279 0.173752 0.16899
0.0659099 0.173204 0.170678
0.0702873 0.173013 0.172153
0.0743321 0.173102 0.173426
0.0779652 0.173315 0.174664
0.0824242 0.172978 0.175771
0.0865566 0.172819 0.177331
0.0905689 0.172508 0.177474
0.0943695 0.172366 0.178488
0.0986052 0.172644 0.178739
0.102521 0.17255 0.179457
0.106989 0.172158 0.179546
0.111104 0.172484 0.179842
0.114776 0.172081 0.179626
0.119208 0.172924 0.178591
0.123204 0.172876 0.176357
0.127561 0.172901 0.175902
0.13175 0.172778 0.174256
0.135833 0.172827 0.171728
0.14063 0.173699 0.1684
0.144817 0.173724 0.164975
0.149677 0.174604 0.156955
0.154591 0.175153 0.147888
0.159677 0.176473 0.13761
0.164233 0.177299 0.12946
0.16956 0.17846 0.118332
0.175065 0.179408 0.108153
0.18062 0.180305 0.0967075
0.185469 0.181022 0.0871407
0.190763 0.182661 0.0759902
0.196255 0.182897 0.0645282
0.201648 0.184402 0.0522017
0.207715 0.186354 0.0364873
0.21487 0.188381 0.0161242
-0.208866 0.190639 0.0307337
-0.202465 0.189312 0.0492364
-0.197341 0.188936 0.0553781
-0.192505 0.187819 0.0597154
-0.187782 0.187807 0.0630389
-0.183275 0.188133 0.0656552
-0.178304 0.187305 0.0690415
-0.17423 0.187096 0.0708162
-0.16962 0.186727 0.0720139
-0.164846 0.186833 0.0750372
-0.160624 0.18648 0.0756634
-0.156356 0.18604 0.0785912
-0.15138 0.186368 0.0804278
-0.146923 0.186018 0.0824783
-0.142386 0.185682 0.0842127
-0.138185 0.185402 0.086543
-0.133575 0.185283 0.0879095
-0.129528 0.185201 0.0897635
-0.125134 0.185115 0.0915276
-0.120212 0.18476 0.0942445
-0.116088 0.184689 0.0972108
-0.11125 0.184592 0.0990598
-0.107253 0.184837 0.100413
-0.102417 0.18414 0.103238
-0.0984721 0.183953 0.105057
-0.0940501 0.183755 0.106532
-0.0895518 0.182961 0.109467
-0.0854168 0.183427 0.109769
-0.0810258 0.183231 0.111663
-0.0766104 0.182547 0.113451
-0.0725232 0.182808 0.116166
-0.0679646 0.182533 0.1175
-0.0636467 0.18204 0.120179
-0.0593389 0.182224 0.120819
-0.0550607 0.181486 0.124661
-0.0510078 0.181743 0.124771
-0.0460738 0.181679 0.127873
-0.0422147 0.181552 0.129353
-0.0380947 0.181563 0.130845
-0.0337801 0.180796 0.132926
-0.0292446 0.180914 0.134449
-0.0256004 0.18074 0.135574
-0.0209665 0.180305 0.138211
-0.0166626 0.180525 0.139448
-0.0131394 0.180287 0.140948
-0.00859003 0.180098 0.142538
-0.00427148 0.179822 0.144199
6.89337e-05 0.179947 0.146609
0.00398401 0.179679 0.147436
0.00814472 0.179411 0.149937
0.0125189 0.179197 0.151356
0.016691 0.179115 0.152947
0.0205271 0.178835 0.154245
0.0249318 0.178845 0.157327
0.0290752 0.17877 0.15817
0.0331618 0.17869 0.16008
0.037407 0.178616 0.160995
0.0412067 0.178065 0.163193
0.0456688 0.178042 0.16394
0.0495379 0.177968 0.164035
0.0540423 0.177803 0.167156
0.0579633 0.177975 0.167827
0.0616508 0.177353 0.16868
0.0660917 0.177227 0.170385
0.0698205 0.177096 0.171983
0.0740774 0.177043 0.173199
0.0785325 0.176645 0.175155
0.0826915 0.177028 0.175969
0.0866335 0.177014 0.176841
0.0903511 0.176745 0.178371
0.0947848 0.17678 0.178892
0.0986208 0.176405 0.179605
0.102509 0.176566 0.179551
0.106445 0.176254 0.181064
0.110488 0.176484 0.180279
0.114877 0.176118 0.180045
0.119264 0.176687 0.178862
0.123233 0.176611 0.178241
0.127633 0.176773 0.175874
0.131682 0.176863 0.174714
0.135864 0.177435 0.171713
0.140421 0.177301 0.168918
0.144782 0.178702 0.164319
0.149561 0.178355 0.157919
0.154597 0.179981 0.147615
0.158986 0.18019 0.13989
0.164728 0.181612 0.127745
0.169775 0.182377 0.118034
0.175129 0.183594 0.10806
0.180173 0.184072 0.0981618
0.185527 0.185318 0.086727
0.191049 0.186695 0.0754583
0.196611 0.187778 0.0637287
0.202113 0.188994 0.0507801
0.207659 0.190637 0.037137
0.21515 0.192392 0.0158987
-0.203501 0.194532 0.0401504
-0.197617 0.193048 0.052812
-0.192569 0.192554 0.0600926
-0.188071 0.192252 0.0624554
-0.183079 0.191848 0.0668395
-0.178766 0.191407 0.0691067
-0.174144 0.191252 0.0704296
-0.169445 0.191257 0.0731455
-0.165163 0.19146 0.0739609
-0.160563 0.191374 0.0765185
-0.155936 0.190413 0.0777663
-0.151241 0.190472 0.0809128
-0.147097 0.190102 0.082646
-0.142496 0.190389 0.0838209
-0.138114 0.18969 0.0861456
-0.133851 0.189903 0.0888349
-0.129357 0.189785 0.0901176
-0.125207 0.189401 0.0922359
-0.120113 0.188919 0.095269
-0.11568 0.188921 0.0980794
-0.111536 0.18893 0.0984552
-0.106844 0.188549 0.101505
-0.102495 0.18812 0.103301
-0.0983499 0.187985 0.104751
-0.0940232 0.18748 0.108085
-0.0893795 0.187851 0.109559
-0.0850101 0.187489 0.111699
-0.0813143 0.187319 0.113029
-0.0760512 0.186565 0.115131
-0.071937 0.187082 0.116435
-0.0682172 0.186894 0.118394
-0.0638058 0.186264 0.120308
-0.0594414 0.186551 0.121819
-0.0546408 0.186163 0.124765
-0.0504657 0.18596 0.125217
-0.0465357 0.185892 0.127685
-0.0422431 0.185863 0.129718
-0.0379419 0.185284 0.131436
-0.0339019 0.185354 0.133008
-0.0293967 0.184868 0.135028
-0.0252226 0.185018 0.136739
-0.0207986 0.184761 0.138618
-0.0167589 0.184326 0.140109
-0.0124807 0.184369 0.141193
-0.00826944 0.183788 0.143226
-0.00400668 0.183899 0.144606
-0.000130415 0.183433 0.145764
0.00448927 0.183588 0.148631
0.00824246 0.183821 0.149481
0.0127431 0.183321 0.151306
0.0164444 0.183474 0.152968
0.0206308 0.182943 0.15458
0.0247825 0.183114 0.15698
0.0292103 0.182737 0.158303
0.0330567 0.182823 0.159656
0.0371956 0.182699 0.161349
0.0413385 0.182339 0.163892
0.0452874 0.1821 0.163128
0.0495701 0.182238 0.16473
0.054157 0.181771 0.167184
0.0579301 0.181987 0.168475
0.0615483 0.182116 0.169521
0.0660166 0.181412 0.170555
0.0698683 0.181133 0.172122
0.0742901 0.181175 0.173315
0.0784944 0.18095 0.174987
0.0821453 0.180708 0.175877
0.0865634 0.180851 0.176754
0.0906138 0.181121 0.1792
0.0945406 0.180914 0.179145
0.0984638 0.180537 0.179594
0.102631 0.18064 0.179728
0.106432 0.180178 0.180267
0.110373 0.180464 0.180089
0.114754 0.180852 0.179593
0.119454 0.180524 0.178571
0.123115 0.180993 0.178223
0.127366 0.180702 0.176543
0.131316 0.181101 0.175956
0.136269 0.181317 0.172055
0.140191 0.181496 0.169105
0.144668 0.181794 0.164735
0.149981 0.182551 0.156848
0.154763 0.183575 0.147879
0.15959 0.184531 0.139002
0.164701 0.185855 0.128138
0.169879 0.187047 0.117921
0.174751 0.18763 0.108629
0.180215 0.18891 0.0984398
0.18478 0.18954 0.0896711
0.190654 0.190814 0.0766041
0.196292 0.192228 0.0643445
0.202121 0.193122 0.0508094
0.208484 0.195234 0.0350052
0.214419 0.196659 0.0181291
-0.203809 0.199633 0.031278
-0.197825 0.197904 0.0496525
-0.193428 0.197603 0.0560353
-0.187686 0.196687 0.0628936
-0.183241 0.196276 0.066084
-0.178585 0.196044 0.0687293
-0.17371 0.195658 0.071323
-0.169766 0.195823 0.0720229
-0.164858 0.19532 0.0752052
-0.160816 0.195252 0.0770774
-0.155914 0.194804 0.078891
-0.151707 0.194419 0.080611
-0.147119 0.194461 0.0825385
-0.14272 0.193915 0.0851835
-0.13817 0.194407 0.0856094
-0.133598 0.193791 0.0883701
-0.128848 0.193808 0.0915796
-0.124808 0.193559 0.092923
-0.120496 0.193217 0.0965464
-0.115526 0.193278 0.0975837
-0.111322 0.192841 0.100465
-0.107112 0.192643 0.10079
-0.102248 0.192556 0.103577
-0.0977605 0.192269 0.105902
-0.0935776 0.191962 0.108491
-0.0899782 0.191968 0.108958
-0.0854864 0.19176 0.111248
-0.0807655 0.191558 0.11349
-0.0763373 0.191413 0.11527
-0.0724933 0.191335 0.116245
-0.0683515 0.190654 0.118061
-0.0634999 0.190805 0.120245
-0.0595418 0.190437 0.122055
-0.0549326 0.190566 0.123792
-0.0505623 0.190329 0.125422
-0.0466248 0.190087 0.127676
-0.0422238 0.189618 0.129021
-0.037713 0.189527 0.131423
-0.0338642 0.189329 0.132826
-0.0292868 0.189523 0.135292
-0.0253077 0.18916 0.136131
-0.0211132 0.18909 0.138636
-0.0167403 0.188744 0.139171
-0.0123504 0.18852 0.142189
-0.00850172 0.188411 0.144125
-0.0043151 0.188123 0.144468
6.20883e-05 0.188123 0.146496
0.00390428 0.187608 0.148274
0.00871276 0.187908 0.15
0.0125729 0.187247 0.151996
0.0167808 0.187691 0.153578
0.0207599 0.187173 0.155033
0.0250878 0.186959 0.156858
0.0293472 0.187276 0.158585
0.0332612 0.187248 0.159483
0.0374364 0.186472 0.161309
0.0414352 0.186507 0.163022
0.0457723 0.186046 0.16394
0.049879 0.186059 0.166645
0.0538596 0.186411 0.167728
0.0576964 0.185901 0.167821
0.0620642 0.185861 0.17041
0.0660055 0.185516 0.171913
0.0703874 0.185346 0.173404
0.0743971 0.185484 0.173434
0.0779604 0.184905 0.17493
0.0820649 0.184959 0.177111
0.0866013 0.185029 0.17863
0.0903468 0.185017 0.178378
0.0946307 0.185212 0.17846
0.0984293 0.185002 0.180144
0.102624 0.184781 0.180252
0.1069 0.184443 0.180389
0.11077 0.184326 0.181132
0.115057 0.185179 0.179189
0.119249 0.184938 0.179528
0.123321 0.184454 0.178401
0.127723 0.185003 0.17634
0.132139 0.185183 0.174273
0.135806 0.185613 0.173134
0.140325 0.185677 0.168923
0.144579 0.186507 0.165163
0.149531 0.187649 0.15765
0.154554 0.187627 0.148116
0.159372 0.188945 0.139318
0.164658 0.18973 0.128114
0.170169 0.191406 0.11718
0.174504 0.191716 0.110262
0.180027 0.192773 0.0995117
0.185471 0.194066 0.0879164
0.191035 0.19556 0.0757085
0.196576 0.196557 0.0635641
0.202455 0.197883 0.0498422
0.208164 0.199443 0.0358266
0.214732 0.201247 0.0166416
-0.198922 0.203306 0.0387352
-0.193087 0.202098 0.0547578
-0.187997 0.201442 0.0614401
-0.183169 0.200408 0.0659567
-0.178985 0.200382 0.0694581
-0.174394 0.199887 0.0708317
-0.169201 0.199693 0.0744193
-0.164959 0.199601 0.0751512
-0.160577 0.1994 0.07717
-0.15562 0.198895 0.0797089
-0.151556 0.199164 0.0811157
-0.147514 0.199085 0.0826211
-0.14245 0.198461 0.0851684
-0.137939 0.198152 0.0878041
-0.133375 0.198058 0.0891914
-0.129485 0.198151 0.0920764
-0.124457 0.197973 0.0937252
-0.120061 0.197578 0.0959787
-0.116181 0.197056 0.0963991
-0.111505 0.197108 0.0997242
-0.106831 0.196922 0.102432
-0.102223 0.196222 0.104895
-0.098418 0.196741 0.105507
-0.0934896 0.196548 0.108418
-0.0895653 0.195587 0.110437
-0.0847497 0.195654 0.111594
-0.0806987 0.19544 0.114651
-0.0765128 0.196059 0.114887
-0.072375 0.195554 0.116716
-0.0680854 0.195317 0.118923
-0.063536 0.195176 0.121251
-0.0592013 0.194784 0.122971
-0.0548985 0.195001 0.124208
-0.0505988 0.194093 0.125833
-0.0460547 0.193972 0.128257
-0.0420431 0.193501 0.129993
-0.0382681 0.193951 0.130988
-0.0335897 0.194131 0.133869
-0.0291016 0.192925 0.134882
-0.025128 0.19316 0.137612
-0.0214712 0.192901 0.138187
-0.0166779 0.193063 0.140761
-0.012619 0.192918 0.141572
-0.00874705 0.192551 0.143378
-0.00446007 0.192738 0.145723
-0.000204337 0.192482 0.146917
0.00437539 0.191715 0.148817
0.00863769 0.191891 0.151953
0.0121423 0.191832 0.152385
0.0166407 0.191471 0.154569
0.0206574 0.191303 0.156173
0.0251327 0.191208 0.157223
0.0292775 0.190855 0.158401
0.0332312 0.190807 0.160502
0.0370859 0.190309 0.161832
0.041429 0.190362 0.16351
0.0456431 0.19027 0.164515
0.0495267 0.19024 0.166207
0.0541143 0.190104 0.168
0.0580718 0.190086 0.169323
0.0617816 0.190166 0.170043
0.0659181 0.190008 0.172
0.0700837 0.189529 0.172814
0.0741674 0.18975 0.174226
0.0783251 0.189476 0.175406
0.0823039 0.188872 0.176611
0.0862981 0.189249 0.177953
0.0901345 0.188659 0.179044
0.0944583 0.189004 0.179844
0.0985612 0.188642 0.179919
0.102837 0.188908 0.180515
0.106859 0.188813 0.181602
0.110909 0.188659 0.181044
0.114861 0.188917 0.179616
0.11903 0.188697 0.179463
0.123566 0.189015 0.177466
0.127237 0.189382 0.177999
0.131386 0.189073 0.175233
0.13602 0.189453 0.173264
0.140019 0.18993 0.170058
0.145074 0.191006 0.163779
0.149855 0.191004 0.157171
0.154457 0.192171 0.147769
0.159195 0.192812 0.139191
0.164493 0.19423 0.129009
0.169793 0.195023 0.119643
0.174852 0.19617 0.10942
0.179995 0.197081 0.098882
0.185464 0.198216 0.0876715
0.190798 0.199461 0.0757352
0.196823 0.201225 0.0629231
0.202167 0.202245 0.0508879
0.207997 0.203943 0.0359446
0.214636 0.205346 0.0167476
-0.193584 0.207037 0.0474019
-0.18787 0.205403 0.0597703
-0.18281 0.204551 0.0662916
-0.178457 0.204892 0.0678419
-0.173843 0.2047 0.0705835
-0.169584 0.204326 0.0732512
-0.165129 0.204243 0.0755401
-0.160411 0.203975 0.077399
-0.155847 0.203563 0.0798649
-0.151491 0.203145 0.0824089
-0.146627 0.20284 0.0842569
-0.142435 0.203112 0.0867362
-0.138047 0.202926 0.0879468
-0.133463 0.202614 0.0891675
-0.128807 0.202421 0.0920111
-0.12457 0.202025 0.0940987
-0.120457 0.201735 0.0962627
-0.115582 0.201648 0.0982927
-0.111827 0.201448 0.10042
-0.107161 0.201196 0.101454
-0.102217 0.200605 0.105915
-0.0982483 0.200542 0.106447
-0.0938114 0.200518 0.108391
-0.0893934 0.200235 0.110676
-0.0852064 0.200003 0.112085
-0.08098 0.19998 0.114721
-0.0767476 0.199618 0.115841
-0.0723407 0.199465 0.117456
-0.0681484 0.199468 0.119383
-0.0640202 0.19897 0.120947
-0.0592184 0.19903 0.12304
-0.0551286 0.198939 0.123987
-0.050585 0.199193 0.126337
-0.0461588 0.198357 0.128271
-0.0426536 0.198546 0.130741
-0.0383404 0.198137 0.131469
-0.033666 0.197713 0.133842
-0.0294981 0.19762 0.135354
-0.0257222 0.197662 0.138179
-0.0211213 0.197365 0.139356
-0.0168388 0.197084 0.140267
-0.0127371 0.196553 0.142503
-0.00829594 0.196951 0.143141
-0.00378257 0.19638 0.145718
0.000230543 0.19638 0.147569
0.00404341 0.196135 0.149559
0.00828481 0.19606 0.151107
0.0124329 0.195952 0.15323
0.0171067 0.195732 0.155538
0.0207214 0.19538 0.15677
0.0248023 0.195378 0.157585
0.0288499 0.195323 0.15883
0.0331895 0.195056 0.160864
0.0375271 0.194742 0.162576
0.0411031 0.194706 0.163459
0.045482 0.194215 0.165206
0.0493916 0.194421 0.167013
0.0538432 0.194052 0.167469
0.0575758 0.194444 0.169377
0.0621074 0.19392 0.17048
0.0658528 0.193773 0.171162
0.0698799 0.193705 0.172669
0.0741186 0.193349 0.175647
0.0781912 0.193074 0.176848
0.0825898 0.193331 0.176567
0.0863364 0.193527 0.177773
0.090433 0.192843 0.178899
0.0945276 0.192781 0.180774
0.0982446 0.192824 0.180781
0.1027 0.193107 0.180762
0.106536 0.192711 0.181843
0.110833 0.192723 0.181413
0.115328 0.192823 0.179832
0.118865 0.193337 0.180241
0.123111 0.193089 0.178799
0.127669 0.193176 0.177209
0.131607 0.193295 0.175936
0.13605 0.194056 0.172455
0.140272 0.194121 0.168786
0.14447 0.194684 0.165905
0.149818 0.195218 0.157146
0.15447 0.196407 0.148912
0.159741 0.197327 0.139034
0.16425 0.198156 0.12964
0.169429 0.198937 0.120292
0.174519 0.200276 0.109875
0.180219 0.201516 0.0991939
0.185452 0.203013 0.0882932
0.191142 0.204205 0.0755657
0.196626 0.205456 0.0633647
0.201963 0.20628 0.0510161
0.20855 0.208721 0.034018
0.214768 0.210191 0.0165262
0.224489 0.215102 -0.031081
-0.194726 0.212319 0.0363759
-0.188962 0.210651 0.0531886
-0.183181 0.209543 0.0642787
-0.178252 0.209473 0.06836
-0.173755 0.208464 0.0712173
-0.169462 0.208686 0.0736033
-0.164654 0.208678 0.0755639
-0.160162 0.20803 0.0783814
-0.156038 0.207725 0.0800912
-0.150959 0.207707 0.0827678
-0.147298 0.207543 0.0832593
-0.142459 0.207038 0.085785
-0.13833 0.207 0.0874991
-0.133506 0.20651 0.0900086
-0.129037 0.206408 0.0920131
-0.124764 0.206204 0.0938531
-0.120302 0.206177 0.0964295
-0.115873 0.205753 0.0982654
-0.111664 0.20549 0.100018
-0.107028 0.205685 0.101705
-0.102437 0.205425 0.10412
-0.0983833 0.20527 0.106708
-0.0938076 0.204888 0.108467
-0.0889774 0.204754 0.111067
-0.0851681 0.204706 0.111856
-0.081041 0.203838 0.113902
-0.0759387 0.203817 0.116606
-0.0719088 0.203592 0.118782
-0.0678369 0.203556 0.119485
-0.0635276 0.203814 0.121014
-0.0593864 0.203404 0.123804
-0.0551692 0.203078 0.125457
-0.0507072 0.202462 0.127187
-0.0461245 0.202774 0.129347
-0.0421601 0.202165 0.130656
-0.0380893 0.202218 0.132512
-0.0338222 0.20229 0.13335
-0.0294382 0.202286 0.135543
-0.0251747 0.201618 0.137246
-0.021087 0.201341 0.139695
-0.016441 0.201485 0.140858
-0.0127899 0.201145 0.141631
-0.00816682 0.200852 0.144665
-0.00424093 0.200506 0.146047
-9.27495e-06 0.200479 0.147527
0.0041038 0.200396 0.149981
0.00842826 0.20006 0.150776
0.0123158 0.200037 0.153093
0.0167455 0.199721 0.154462
0.0208931 0.199238 0.156644
0.0253256 0.199009 0.15829
0.0289735 0.198948 0.159361
0.033307 0.198628 0.160528
0.0373824 0.198816 0.162649
0.0414776 0.198773 0.164326
0.0454984 0.19858 0.165929
0.0494422 0.198234 0.167348
0.0535922 0.198053 0.168857
0.0573932 0.197905 0.169632
0.0618743 0.198205 0.171316
0.0659738 0.197402 0.173111
0.0701591 0.197252 0.174801
0.0740936 0.19773 0.175146
0.0783128 0.197508 0.176921
0.0820746 0.197538 0.177966
0.0857596 0.197032 0.178661
0.0900517 0.196628 0.1809
0.0940211 0.196935 0.181196
0.0988549 0.196489 0.182466
0.102407 0.196662 0.182206
0.106409 0.197049 0.181718
0.110962 0.196722 0.18174
0.114917 0.197007 0.181691
0.119123 0.196889 0.180106
0.123051 0.197491 0.1793
0.127122 0.197284 0.178756
0.131494 0.197272 0.176213
0.136169 0.197603 0.173257
0.140183 0.198134 0.170419
0.144731 0.198623 0.164941
0.149928 0.199247 0.157531
0.154811 0.200684 0.148772
0.159349 0.201231 0.139774
0.1647 0.202246 0.12884
0.169566 0.20359 0.119382
0.174972 0.204372 0.109874
0.179598 0.205698 0.10045
0.184914 0.207109 0.0895193
0.190871 0.208555 0.0760385
0.196507 0.209735 0.0636066
0.201937 0.211149 0.0502708
0.208667 0.21261 0.0330781
0.215105 0.214808 0.0157036
0.222977 0.218345 -0.0179312
-0.189776 0.216366 0.0434939
-0.18371 0.214286 0.0597327
-0.178587 0.213348 0.0689273
-0.173848 0.212836 0.0716215
-0.169364 0.212896 0.0741656
-0.16481 0.212861 0.0767347
-0.160262 0.212432 0.0780121
-0.155959 0.212203 0.0798814
-0.150962 0.212052 0.081732
-0.146939 0.211605 0.0843791
-0.142651 0.211219 0.0865593
-0.138045 0.211273 0.0891445
-0.133722 0.210976 0.0904094
-0.128641 0.21082 0.0924231
-0.124539 0.210756 0.0954711
-0.12027 0.210297 0.0965638
-0.116153 0.21004 0.0990511
-0.111057 0.209907 0.100336
-0.107171 0.209798 0.102582
-0.102418 0.209343 0.105072
-0.0979939 0.209199 0.106802
-0.0936841 0.208828 0.109091
-0.0896458 0.20912 0.110705
-0.0853652 0.20841 0.112056
-0.0809629 0.207992 0.114637
-0.0767249 0.208563 0.115793
-0.0719351 0.208009 0.118862
-0.0678389 0.207856 0.120541
-0.0630685 0.207541 0.122648
-0.0594652 0.207379 0.123794
-0.054862 0.207238 0.12547
-0.050515 0.206628 0.127733
-0.0466772 0.207165 0.129031
-0.042322 0.206517 0.131026
-0.0377481 0.20653 0.132671
-0.0339688 0.206095 0.13421
-0.0297794 0.205926 0.136405
-0.0252858 0.205645 0.137715
-0.0205238 0.205453 0.139492
-0.0169784 0.205357 0.140885
-0.0127568 0.205473 0.142805
-0.00794515 0.204945 0.144884
-0.00408981 0.204913 0.146325
-1.03756e-05 0.20448 0.148147
0.00448332 0.204346 0.149539
0.00808798 0.204777 0.149949
0.0122569 0.203928 0.153709
0.016401 0.203833 0.155246
0.0210547 0.203361 0.157106
0.0248496 0.203299 0.158749
0.0291362 0.20342 0.159339
0.032853 0.203143 0.162602
0.0372778 0.202973 0.163614
0.0411758 0.202497 0.165271
0.0452487 0.202735 0.167073
0.04941 0.202285 0.167624
0.0539661 0.201983 0.17048
0.0576262 0.20228 0.172393
0.0616154 0.202048 0.173568
0.0659593 0.201934 0.174308
0.0700988 0.201711 0.174627
0.0742189 0.201166 0.177046
0.0780872 0.200968 0.177378
0.0821502 0.20155 0.179728
0.0860713 0.20112 0.181626
0.0901884 0.200823 0.183008
0.0941908 0.200694 0.182616
0.0986237 0.200913 0.183669
0.102399 0.200796 0.183476
0.106583 0.200388 0.184544
0.110539 0.200681 0.184496
0.114516 0.201023 0.182359
0.118721 0.200928 0.181918
0.123078 0.200708 0.18008
0.127259 0.201535 0.177844
0.131431 0.201276 0.177386
0.135708 0.201974 0.174436
0.140326 0.202302 0.170736
0.144474 0.202342 0.166078
0.149982 0.203799 0.156865
0.154464 0.20471 0.1479
0.159903 0.205523 0.138749
0.164979 0.206442 0.129097
0.169654 0.207705 0.119818
0.174823 0.208977 0.109495
0.179976 0.21021 0.0994345
0.185845 0.21163 0.0873439
0.19074 0.212706 0.0755004
0.196475 0.214249 0.0633516
0.202503 0.215578 0.0490228
0.208435 0.217233 0.0339398
0.214714 0.219005 0.0162206
0.222352 0.222197 -0.00924134
0.229684 0.224847 -0.0357554
-0.190492 0.221436 0.035264
-0.18436 0.219566 0.0527192
-0.179053 0.218058 0.0640595
-0.173569 0.217706 0.0717332
-0.169256 0.217079 0.0745724
-0.164864 0.216789 0.0759318
-0.160714 0.216824 0.0779712
-0.155893 0.216561 0.0805434
-0.151145 0.216003 0.0829852
-0.146895 0.216083 0.0849833
-0.142599 0.215877 0.0869672
-0.137816 0.215626 0.0886183
-0.133435 0.215112 0.0906328
-0.12922 0.215017 0.0938185
-0.124914 0.215026 0.0953239
-0.120325 0.214773 0.0969199
-0.115779 0.21451 0.0988314
-0.111492 0.214006 0.100076
-0.10706 0.213771 0.103964
-0.102428 0.214051 0.104677
-0.0978553 0.213579 0.107121
-0.0939969 0.213385 0.109027
-0.0891621 0.213113 0.110736
-0.0852235 0.212821 0.112921
-0.0809737 0.212763 0.114867
-0.0764683 0.212368 0.117265
-0.0723593 0.212228 0.118089
-0.0680446 0.212214 0.120399
-0.0636693 0.211819 0.121955
-0.0588699 0.211822 0.123908
-0.0547755 0.211174 0.126486
-0.0504697 0.211302 0.127333
-0.0461501 0.21063 0.130072
-0.0420178 0.210544 0.130804
-0.0377522 0.210675 0.13345
-0.0338412 0.210127 0.134625
-0.0296299 0.210383 0.136096
-0.0253437 0.210083 0.137634
-0.0209963 0.209585 0.140618
-0.0167101 0.209475 0.141787
-0.0127257 0.209228 0.142458
-0.00821557 0.209128 0.145144
-0.00431838 0.20915 0.146766
-0.000292982 0.20873 0.147922
0.00436002 0.208439 0.150187
0.00850787 0.207991 0.152063
0.0127833 0.208107 0.154033
0.0168663 0.208139 0.155327
0.0206379 0.207478 0.156638
0.0251158 0.207633 0.158463
0.02895 0.207774 0.159474
0.0331085 0.207041 0.162661
0.0373629 0.206551 0.164265
0.0412958 0.20659 0.166598
0.0452015 0.206338 0.168337
0.0496916 0.206431 0.169775
0.0539204 0.206381 0.172242
0.0576908 0.205927 0.173309
0.0618865 0.205768 0.175588
0.0661643 0.205765 0.17635
0.0701204 0.205605 0.178847
0.0738991 0.205093 0.181082
0.0778206 0.20492 0.181664
0.0817611 0.204648 0.182661
0.085746 0.204781 0.184616
0.0899911 0.204903 0.184253
0.0940982 0.204332 0.186346
0.0978801 0.204349 0.187097
0.10223 0.20458 0.187368
0.106446 0.204275 0.185462
0.110402 0.204554 0.185999
0.114439 0.204607 0.185038
0.11876 0.204474 0.184492
0.122839 0.205181 0.18106
0.126964 0.205269 0.179347
0.131066 0.20587 0.17823
0.135973 0.205954 0.174512
0.139941 0.206494 0.171176
0.144182 0.206945 0.166602
0.149188 0.20752 0.158364
0.154708 0.209072 0.14783
0.159635 0.209684 0.139298
0.164147 0.211296 0.131099
0.169905 0.212372 0.119527
0.174636 0.212981 0.110425
0.179836 0.213967 0.0996377
0.18562 0.215346 0.0874852
0.191613 0.216999 0.0738661
0.19643 0.218364 0.063826
0.202249 0.220136 0.0488062
0.208849 0.221931 0.0324562
0.215117 0.223585 0.0148687
0.220904 0.225781 -0.00311041
0.228173 0.228419 -0.0263305
-0.191035 0.226133 0.0309049
-0.185506 0.225082 0.0431124
-0.179733 0.22363 0.0580001
-0.173787 0.221897 0.0703597
-0.169869 0.221583 0.072016
-0.164826 0.221285 0.0771379
-0.160525 0.221325 0.0775319
-0.155754 0.220877 0.0806999
-0.151367 0.22068 0.0832033
-0.146741 0.220055 0.0855103
-0.142323 0.219874 0.0869362
-0.137771 0.220135 0.0894653
-0.133293 0.219142 0.0916591
-0.129259 0.219602 0.0933557
-0.124465 0.219318 0.0950943
-0.120387 0.218808 0.0971141
-0.115376 0.218422 0.100324
-0.111287 0.218469 0.101607
-0.107316 0.218014 0.103315
-0.102496 0.217967 0.10585
-0.0982324 0.21775 0.107416
-0.0938331 0.217337 0.108844
-0.0898073 0.217169 0.110961
-0.0850981 0.216585 0.11267
-0.0808298 0.216715 0.114765
-0.0762328 0.216559 0.117512
-0.0722084 0.216335 0.11787
-0.0680791 0.216315 0.121431
-0.0640013 0.216213 0.122292
-0.0590199 0.215868 0.125217
-0.054914 0.215506 0.125999
-0.0506791 0.21549 0.127704
-0.0461175 0.215253 0.128563
-0.0423036 0.214726 0.131573
-0.0380708 0.214904 0.132873
-0.033527 0.21454 0.133655
-0.029525 0.214383 0.136122
-0.0250226 0.214094 0.137922
-0.0212435 0.213713 0.138983
-0.0164957 0.213888 0.142429
-0.0125988 0.213304 0.143776
-0.00795401 0.21331 0.144932
-0.00423222 0.212706 0.146959
0.000259317 0.213151 0.148674
0.00404444 0.212754 0.1503
0.00822797 0.212247 0.152042
0.0123294 0.212346 0.153461
0.0169955 0.212152 0.155934
0.0205295 0.211837 0.158261
0.0249187 0.211313 0.160159
0.0289492 0.21128 0.161474
0.0331834 0.210948 0.164354
0.0371925 0.211076 0.165823
0.0412672 0.210602 0.168961
0.0453043 0.210449 0.168763
0.0495784 0.21016 0.172658
0.0536965 0.210036 0.173589
0.0574659 0.209595 0.176491
0.0618025 0.209429 0.178341
0.0655714 0.209401 0.180705
0.0695211 0.209061 0.182256
0.0734117 0.208553 0.182795
0.0776457 0.208993 0.186073
0.0819509 0.208496 0.187272
0.0856404 0.208416 0.187538
0.0896392 0.208094 0.188591
0.0937839 0.208221 0.18873
0.0980109 0.208094 0.189484
0.101885 0.208191 0.190184
0.106068 0.208135 0.189777
0.110187 0.207954 0.187896
0.114397 0.208246 0.187755
0.118503 0.20908 0.186068
0.122622 0.209036 0.183673
0.12705 0.208975 0.181579
0.131545 0.209331 0.178329
0.135502 0.209701 0.176103
0.139922 0.210135 0.172379
0.144697 0.210789 0.165527
0.149135 0.211776 0.158679
0.154883 0.21288 0.147514
0.159151 0.213972 0.140046
0.164193 0.214867 0.131539
0.169695 0.216057 0.119977
0.174344 0.217576 0.110804
0.179675 0.218583 0.0996697
0.18555 0.219927 0.0875679
0.191284 0.221406 0.075201
0.196465 0.222766 0.0630417
0.203213 0.224751 0.0468769
0.208886 0.226424 0.0317752
0.214723 0.22821 0.0160362
0.22115 0.229922 -0.00218773
0.228337 0.232678 -0.0243521
-0.19664 0.232686 0.0162692
-0.190988 0.230821 0.0295278
-0.185717 0.229814 0.0398774
-0.180336 0.2291 0.0496982
-0.174598 0.227136 0.0661068
-0.169481 0.226135 0.0730236
-0.165278 0.225805 0.0764167
-0.160245 0.225102 0.0794287
-0.156096 0.225013 0.0803434
-0.151485 0.224769 0.0828643
-0.146992 0.224617 0.0857486
-0.142329 0.224635 0.0878851
-0.138009 0.224244 0.0895402
-0.133656 0.22387 0.0919354
-0.128911 0.223424 0.0941395
-0.124423 0.223445 0.095253
-0.120203 0.223283 0.097427
-0.115751 0.222678 0.0995957
-0.111671 0.222516 0.101437
-0.106998 0.222259 0.104068
-0.102312 0.222339 0.106179
-0.0979283 0.22163 0.108099
-0.0937657 0.221356 0.109358
-0.0892781 0.221468 0.111798
-0.0849778 0.221462 0.113208
-0.0809748 0.220991 0.115209
-0.0765031 0.220898 0.117199
-0.0717484 0.220845 0.118329
-0.067396 0.220006 0.121188
-0.0635913 0.219843 0.12256
-0.0596011 0.219966 0.123959
-0.0548041 0.219538 0.126328
-0.0506077 0.219416 0.127613
-0.0463699 0.219159 0.129641
-0.0419626 0.218488 0.131077
-0.0381493 0.218654 0.133605
-0.0336642 0.218676 0.13513
-0.0295847 0.218368 0.136127
-0.0252374 0.218611 0.13804
-0.0207981 0.218042 0.139869
-0.0165249 0.217915 0.142436
-0.0123355 0.217571 0.143134
-0.0084175 0.218028 0.144401
-0.00405694 0.217984 0.1463
-6.88369e-05 0.216776 0.149212
0.00415787 0.217094 0.150554
0.00837315 0.216457 0.152187
0.0124321 0.216451 0.154748
0.0165681 0.216339 0.15591
0.0208802 0.215505 0.157479
0.0248545 0.215738 0.160257
0.0291356 0.215166 0.162836
0.0334714 0.215542 0.165353
0.0372908 0.2146 0.168107
0.0414629 0.214851 0.170496
0.0451894 0.214464 0.172711
0.049484 0.21429 0.177269
0.0534536 0.213354 0.17852
0.0574674 0.213293 0.179956
0.0611749 0.213037 0.182671
0.0653327 0.212766 0.184362
0.0694085 0.212765 0.18689
0.0735273 0.212235 0.188219
0.0776121 0.212678 0.189864
0.08115 0.212044 0.190198
0.0859352 0.212267 0.192304
0.0892664 0.211815 0.192289
0.0936442 0.21171 0.192833
0.0979274 0.211617 0.193878
0.102399 0.211689 0.193713
0.106031 0.211813 0.193899
0.109971 0.21175 0.19234
0.114307 0.212191 0.190126
0.118476 0.212449 0.189869
0.122659 0.21286 0.186059
0.126906 0.212916 0.183883
0.131694 0.213374 0.179257
0.13565 0.214322 0.175965
0.14073 0.214598 0.170943
0.144715 0.215261 0.166051
0.149561 0.215782 0.157101
0.154803 0.217521 0.148211
0.159606 0.218477 0.138901
0.164697 0.219557 0.129288
0.169196 0.22068 0.120745
0.174969 0.221745 0.109337
0.180039 0.223003 0.0985934
0.186142 0.224724 0.0859461
0.191022 0.225549 0.0750666
0.196699 0.227313 0.062258
0.202358 0.228703 0.0485706
0.208364 0.230681 0.0331262
0.214711 0.233191 0.0155774
0.221389 0.234841 -0.00259423
0.227869 0.236671 -0.0208325
0.235097 0.239712 -0.0445147
-0.196383 0.236424 0.0210388
-0.191065 0.23568 0.0289925
-0.185961 0.235007 0.0355916
-0.181153 0.233758 0.0427812
-0.175252 0.232108 0.0583713
-0.169487 0.230703 0.0715611
-0.164711 0.230044 0.076015
-0.16016 0.229583 0.0780956
-0.156064 0.229511 0.0814289
-0.151549 0.229024 0.0836397
-0.14732 0.228942 0.0848988
-0.141815 0.228326 0.0877012
-0.137867 0.228431 0.0904723
-0.133625 0.228404 0.0921742
-0.128693 0.227738 0.0945334
-0.124709 0.227434 0.0957804
-0.120181 0.227474 0.0975922
-0.115783 0.226815 0.0990946
-0.111241 0.226898 0.101939
-0.106898 0.226727 0.104216
-0.102664 0.226917 0.10602
-0.0986076 0.225796 0.107913
-0.0936528 0.226057 0.110341
-0.0895195 0.225662 0.110928
-0.085148 0.225776 0.112356
-0.0806714 0.225417 0.115519
-0.0759066 0.224992 0.117877
-0.0719332 0.22456 0.119667
-0.0672747 0.224667 0.121544
-0.0636408 0.224241 0.122097
-0.0591737 0.224025 0.124569
-0.0546763 0.223874 0.127331
-0.0507298 0.224006 0.128913
-0.0464405 0.223648 0.129437
-0.0418169 0.223342 0.132727
-0.0380446 0.223289 0.132356
-0.0334089 0.222942 0.134663
-0.0291144 0.222697 0.136903
-0.0253524 0.222486 0.137779
-0.0210647 0.222319 0.140338
-0.0167692 0.221586 0.141521
-0.0124451 0.221652 0.143756
-0.00846838 0.221876 0.145418
-0.00418652 0.221291 0.146847
0.000134844 0.2213 0.148679
0.00421221 0.220697 0.150893
0.008498 0.220282 0.152197
0.0124203 0.220338 0.154996
0.0165889 0.220309 0.156263
0.020547 0.220287 0.158577
0.0248133 0.219832 0.160609
0.0290509 0.218961 0.164855
0.0330479 0.21891 0.167136
0.0372635 0.218659 0.169694
0.0410051 0.218467 0.173934
0.0452279 0.218355 0.176974
0.0491349 0.217754 0.179415
0.0534153 0.217362 0.18088
0.0574234 0.216904 0.183942
0.0617817 0.216826 0.187451
0.0656125 0.216266 0.189304
0.069809 0.216413 0.191324
0.0730817 0.216082 0.192825
0.0776848 0.21571 0.194518
0.0814817 0.2155 0.19446
0.0852587 0.21538 0.195498
0.0893914 0.215488 0.197498
0.0935087 0.215714 0.197136
0.097816 0.215299 0.197213
0.101683 0.215397 0.198289
0.105772 0.215602 0.197926
0.109691 0.21588 0.196068
0.114075 0.216134 0.194175
0.118498 0.215811 0.190066
0.12276 0.216721 0.188792
0.126702 0.216818 0.184636
0.131397 0.217233 0.181015
0.135615 0.217786 0.176877
0.140344 0.218678 0.172091
0.144945 0.219277 0.165725
0.14981 0.219867 0.157068
0.154486 0.221124 0.148272
0.159302 0.222151 0.139491
0.164728 0.223982 0.129006
0.169691 0.225202 0.118632
0.174709 0.225975 0.10958
0.179839 0.22737 0.0990514
0.18498 0.22816 0.0884634
0.191186 0.230414 0.0748061
0.197 0.232401 0.060611
0.202783 0.233471 0.0474056
0.208233 0.235003 0.0328664
0.214551 0.237339 0.0154091
0.221599 0.239898 -0.00324059
0.227784 0.241479 -0.0194862
0.235 0.244201 -0.0423162
-0.196853 0.241238 0.0207263
-0.191362 0.240077 0.0301474
-0.18672 0.239351 0.0348409
-0.180896 0.238579 0.0414042
-0.176125 0.237612 0.0494406
-0.169588 0.23487 0.0688744
-0.165292 0.234345 0.0745376
-0.160314 0.233998 0.0784168
-0.155883 0.233838 0.0802802
-0.151137 0.233334 0.0837671
-0.146996 0.232945 0.085411
-0.142465 0.232565 0.0879595
-0.13737 0.232836 0.0898168
-0.133634 0.232272 0.0918688
-0.129205 0.232181 0.0943512
-0.124367 0.231576 0.0964197
-0.120223 0.231611 0.0981144
-0.115578 0.231253 0.100078
-0.111455 0.231125 0.102718
-0.106859 0.230964 0.104314
-0.103053 0.230859 0.105605
-0.0980508 0.230248 0.10833
-0.0938667 0.230033 0.109644
-0.0895567 0.230186 0.110655
-0.0853436 0.229291 0.11323
-0.0806241 0.229892 0.115848
-0.0766073 0.229323 0.117634
-0.0721186 0.228927 0.119416
-0.0678226 0.229161 0.12165
-0.0635976 0.228292 0.123233
-0.058979 0.228334 0.125466
-0.0548514 0.22818 0.126671
-0.0508635 0.228056 0.128245
-0.046036 0.227334 0.130859
-0.0418938 0.227752 0.132147
-0.0379423 0.227202 0.133805
-0.0333955 0.226789 0.134107
-0.0293518 0.226982 0.136879
-0.0254668 0.226836 0.137971
-0.0207117 0.225904 0.141133
-0.0166769 0.226089 0.142573
-0.0125162 0.226167 0.143449
-0.00842594 0.225848 0.144588
-0.00418018 0.225595 0.147601
-4.05987e-05 0.22516 0.149093
0.0038114 0.225225 0.150282
0.00855544 0.225043 0.152779
0.0125526 0.224855 0.15395
0.0167545 0.224604 0.156692
0.0206784 0.224196 0.15878
0.0246318 0.22402 0.161836
0.0287728 0.223471 0.165817
0.0331823 0.223394 0.168741
0.037367 0.222333 0.174241
0.0408181 0.222002 0.177551
0.0454924 0.22146 0.180486
0.0488559 0.221044 0.182777
0.053014 0.220983 0.185851
0.0571861 0.220656 0.18855
0.06093 0.220482 0.190132
0.065351 0.220154 0.192972
0.0690411 0.219926 0.195665
0.073577 0.219546 0.196979
0.0772048 0.219858 0.198407
0.0815643 0.219569 0.198417
0.0852766 0.219359 0.199412
0.0892743 0.219156 0.199336
0.0932152 0.219228 0.201134
0.0976111 0.218949 0.20093
0.101469 0.219674 0.200809
0.10534 0.219061 0.201796
0.109773 0.21925 0.198802
0.114052 0.219292 0.197359
0.11842 0.219875 0.192418
0.122306 0.220479 0.190163
0.126589 0.220825 0.187072
0.131684 0.221761 0.182367
0.135764 0.22188 0.177987
0.139603 0.2226 0.173345
0.14449 0.223391 0.166368
0.149545 0.224498 0.157305
0.154623 0.225626 0.147854
0.159595 0.226648 0.138597
0.164797 0.227893 0.130051
0.169278 0.229062 0.120961
0.17512 0.230362 0.108406
0.180145 0.231622 0.0984875
0.185656 0.233052 0.0861387
0.191079 0.234712 0.0738047
0.196602 0.235989 0.0621535
0.202668 0.237534 0.0478139
0.207974 0.239742 0.0340651
0.215168 0.241694 0.0144382
0.220834 0.244291 -0.00096035
0.227629 0.24616 -0.0196357
0.23494 0.248766 -0.0411854
-0.201606 0.246544 0.0128237
-0.195938 0.245056 0.0248506
-0.190992 0.24456 0.0304263
-0.186042 0.244012 0.0342252
-0.181736 0.243317 0.0376309
-0.176344 0.242494 0.0453588
-0.171315 0.241211 0.0563575
-0.164848 0.238699 0.0739447
-0.160278 0.237826 0.0788275
-0.155658 0.237713 0.0812155
-0.151483 0.237607 0.084235
-0.14666 0.237703 0.0850317
-0.142314 0.237306 0.0876695
-0.137652 0.23671 0.0902723
-0.133242 0.23669 0.0926913
-0.128947 0.236408 0.0951558
-0.124293 0.235948 0.0968949
-0.119986 0.235757 0.0985869
-0.116146 0.235767 0.0994456
-0.111144 0.235155 0.102651
-0.106969 0.235292 0.103545
-0.102468 0.234844 0.106063
-0.0981414 0.234749 0.108286
-0.0937876 0.234982 0.110843
-0.0896484 0.233818 0.11241
-0.0855149 0.233846 0.113263
-0.0805503 0.233843 0.116838
-0.0762811 0.233285 0.118041
-0.0721342 0.233289 0.119383
-0.0675794 0.232855 0.122048
-0.0634894 0.232934 0.122992
-0.0593566 0.232737 0.125418
-0.0547703 0.231954 0.126427
-0.0502861 0.231917 0.128226
-0.0459676 0.231802 0.130124
-0.0420971 0.232055 0.132196
-0.0373721 0.231721 0.133942
-0.0343832 0.231859 0.135619
-0.0292322 0.231411 0.136646
-0.0252668 0.231327 0.138524
-0.0212009 0.230727 0.140193
-0.016608 0.230224 0.141116
-0.0123489 0.229918 0.143247
-0.00806245 0.229919 0.145575
-0.00413883 0.230156 0.147628
-6.0906e-05 0.229809 0.148852
0.00432057 0.229531 0.150365
0.00836091 0.228493 0.152799
0.012747 0.22896 0.154387
0.0168056 0.228592 0.156264
0.0211888 0.228516 0.159612
0.0248 0.227766 0.162098
0.0291762 0.227267 0.16641
0.0329107 0.226446 0.171424
0.0366857 0.226018 0.175859
0.0411771 0.225819 0.181594
0.045227 0.225107 0.184653
0.0493734 0.22444 0.187142
0.0528819 0.224271 0.189898
0.0568572 0.224087 0.192965
0.0614226 0.224066 0.193576
0.0652738 0.223713 0.195243
0.0693843 0.223584 0.197825
0.0732257 0.223624 0.198915
0.0772748 0.223063 0.201206
0.0811959 0.223012 0.201078
0.0852978 0.223041 0.202922
0.0892377 0.222871 0.202495
0.0931544 0.22271 0.204091
0.0971005 0.222749 0.20415
0.101267 0.22292 0.205374
0.10531 0.2229 0.203768
0.109732 0.222722 0.202314
0.113818 0.223208 0.200189
0.118216 0.223994 0.196639
0.122205 0.224292 0.192548
0.126218 0.224809 0.188711
0.130955 0.225314 0.18385
0.135405 0.226036 0.178579
0.140105 0.227046 0.174256
0.144854 0.227912 0.166014
0.149885 0.228485 0.157329
0.154109 0.229349 0.14912
0.159561 0.230588 0.139142
0.164552 0.232148 0.129865
0.170053 0.232984 0.1183
0.174549 0.234404 0.109474
0.179819 0.235807 0.0984666
0.185621 0.237326 0.0862474
