ply
format ascii 1.0
element vertex 1652
property float x
property float y
property float z
end_header
0.0599491 0.316242 0.104492
0.0648824 0.319748 0.0851226
0.069226 0.320036 0.0823144
0.0739706 0.32041 0.0791893
0.0782127 0.320708 0.078377
0.0820555 0.320638 0.0783432
0.0870833 0.32081 0.0769591
0.0913503 0.320794 0.0762619
0.0958498 0.321214 0.0736327
0.0999824 0.321974 0.0717164
0.104349 0.321826 0.0702469
0.108984 0.322351 0.0672452
0.113738 0.322754 0.0638214
0.117728 0.32395 0.0602355
0.122632 0.324158 0.0571513
0.126921 0.324681 0.0551432
0.131913 0.325494 0.0498747
0.137385 0.32742 0.0382192
-0.148386 0.358656 -0.117604
-0.142665 0.356859 -0.109269
-0.137681 0.355922 -0.105756
-0.132208 0.35538 -0.10061
-0.119665 0.332696 0.0326409
-0.114766 0.330637 0.043712
-0.109623 0.329474 0.0516238
-0.105618 0.329348 0.0539834
-0.100549 0.328706 0.0569605
-0.0964176 0.327841 0.0607632
-0.0914679 0.32722 0.0639532
-0.0871259 0.327284 0.0659323
-0.0826806 0.32655 0.0683106
-0.0781222 0.326151 0.0705945
-0.0737602 0.326257 0.07153
-0.0694517 0.325903 0.0741082
-0.0653608 0.325866 0.0751288
-0.060622 0.325315 0.0768144
-0.0564825 0.325083 0.0780391
-0.0522875 0.325282 0.0791466
-0.0475778 0.324486 0.0821066
-0.0431633 0.324173 0.08406
-0.0386412 0.32315 0.0901362
-0.0340065 0.320401 0.104262
-0.0295896 0.316908 0.124867
-0.025262 0.313192 0.14779
-0.0207914 0.309963 0.16997
-0.0163383 0.305959 0.192161
-0.0124567 0.304532 0.1998
-0.00789742 0.30349 0.20611
-0.00416613 0.30254 0.210269
-0.000286887 0.302458 0.213374
0.00405002 0.301801 0.217429
0.00815709 0.301014 0.220143
0.011944 0.300457 0.223671
0.0162525 0.300459 0.222224
0.0201838 0.300822 0.222257
0.0242072 0.301064 0.220945
0.0281656 0.301884 0.21727
0.0320671 0.301897 0.215057
0.0361823 0.303029 0.209359
0.0402564 0.303499 0.20463
0.044777 0.305574 0.194065
0.0494674 0.309053 0.172034
0.0542853 0.314973 0.136681
0.0605834 0.322379 0.0933278
0.06483 0.325405 0.0783471
0.0689728 0.325596 0.0763113
0.0737977 0.326315 0.073661
0.0781361 0.326426 0.0721056
0.0826791 0.326379 0.0714545
0.0867378 0.325378 0.0733283
0.0916003 0.326755 0.0703822
0.0956796 0.326911 0.0684328
0.100227 0.327179 0.066415
0.104733 0.327302 0.0648077
0.10897 0.328368 0.0609343
0.114026 0.328349 0.0587572
0.118082 0.328907 0.0553775
0.123181 0.329528 0.052318
0.127697 0.329879 0.049347
0.132643 0.330707 0.0437484
0.137502 0.333073 0.030642
-0.148407 0.362994 -0.118618
-0.143236 0.361636 -0.112197
-0.137796 0.361356 -0.107211
-0.13254 0.360345 -0.103262
-0.120253 0.338342 0.0260943
-0.114745 0.33608 0.0384806
-0.110276 0.335377 0.0451798
-0.105698 0.334541 0.0488344
-0.101177 0.333951 0.0519125
-0.0965628 0.333469 0.0552024
-0.0918912 0.33269 0.057777
-0.0874453 0.332186 0.0605409
-0.0831735 0.332512 0.0616801
-0.0785348 0.331416 0.0660444
-0.074044 0.331391 0.0666912
-0.0696941 0.331156 0.0686318
-0.0653223 0.330756 0.0700212
-0.0610727 0.330545 0.0716634
-0.0563634 0.330501 0.0723332
-0.0518289 0.329853 0.0744914
-0.047624 0.330139 0.0761482
-0.0434273 0.329508 0.0778022
-0.0389264 0.328226 0.0846053
-0.0347329 0.326958 0.0933241
-0.0293924 0.323055 0.11588
-0.0249721 0.318827 0.138886
-0.020623 0.315934 0.156255
-0.0164234 0.312615 0.175195
-0.0121975 0.310937 0.187673
-0.00811784 0.309434 0.195524
-0.00401857 0.308782 0.200588
-0.000183586 0.307435 0.205091
0.0037341 0.307301 0.208321
0.00792534 0.306871 0.211151
0.012 0.305898 0.214876
0.0160103 0.305916 0.215437
0.0198136 0.305925 0.215363
0.0238773 0.306135 0.214169
0.0283228 0.306685 0.209551
0.0325223 0.307791 0.204005
0.0364416 0.309122 0.198547
0.0408768 0.310087 0.189799
0.045395 0.313533 0.172161
0.0502046 0.318016 0.147187
0.0550802 0.322407 0.119356
0.0606766 0.328489 0.0842977
0.0653724 0.330891 0.0712461
0.0696108 0.330497 0.0692768
0.0733857 0.330877 0.0685252
0.0788234 0.331125 0.0666627
0.0830727 0.331257 0.06672
0.0873045 0.331796 0.0653096
0.0916195 0.331771 0.0647286
0.0958648 0.33155 0.0641757
0.100637 0.332188 0.0614445
0.105447 0.332734 0.0591629
0.109427 0.333517 0.0563771
0.113668 0.333665 0.0533808
0.11876 0.333781 0.0509232
0.123377 0.334508 0.047973
0.127976 0.335444 0.0436528
0.132863 0.336618 0.0373414
0.149608 0.366087 -0.137092
-0.148429 0.368995 -0.124655
-0.143189 0.367545 -0.115999
-0.137992 0.367022 -0.112544
-0.132805 0.365857 -0.105741
-0.120477 0.344058 0.0208302
-0.115714 0.341383 0.032703
-0.110427 0.340765 0.0388578
-0.105698 0.339415 0.0444772
-0.101193 0.33852 0.0476844
-0.0966885 0.338974 0.0495564
-0.0921229 0.337843 0.0524433
-0.087801 0.338446 0.0536247
-0.0831505 0.336914 0.057927
-0.0787284 0.337007 0.0594161
-0.073727 0.336368 0.0617611
-0.0699972 0.336543 0.0625495
-0.0655016 0.335956 0.0654137
-0.0610069 0.33566 0.0659579
-0.0566976 0.335564 0.0672537
-0.0523223 0.335233 0.0688853
-0.0483344 0.335241 0.0695572
-0.0434216 0.335063 0.0719845
-0.038753 0.3338 0.0781653
-0.0344014 0.332387 0.0872285
-0.03029 0.329053 0.10462
-0.0250387 0.325462 0.125684
-0.021127 0.322254 0.143162
-0.0164847 0.319677 0.158995
-0.0121798 0.317063 0.174564
-0.00795663 0.315678 0.182918
-0.00415564 0.314211 0.189842
-4.47774e-05 0.313441 0.194136
0.00399404 0.312488 0.198879
0.00807814 0.312439 0.20039
0.0123126 0.311819 0.203384
0.0161285 0.312137 0.203909
0.0202209 0.311922 0.203272
0.0242066 0.312617 0.20121
0.0282447 0.313145 0.197359
0.0326266 0.313886 0.191722
0.0369195 0.315547 0.183038
0.041431 0.317618 0.170989
0.045696 0.320047 0.156137
0.0509833 0.324254 0.133132
0.0554272 0.328055 0.108848
0.0609901 0.334154 0.0756537
0.0656903 0.3361 0.0663217
0.0697686 0.336179 0.0638316
0.0743539 0.336236 0.0632055
0.0784984 0.336581 0.0620543
0.0828618 0.33676 0.0606349
0.0877177 0.337281 0.059149
0.0920247 0.336584 0.0600183
0.0964436 0.337443 0.0571376
0.100864 0.337891 0.0554755
0.105123 0.337951 0.053962
0.109659 0.338408 0.0514973
0.114379 0.338981 0.0482814
0.118816 0.339335 0.0452553
0.123543 0.340382 0.0410798
0.12817 0.34045 0.0382134
0.133341 0.341765 0.031644
-0.149801 0.37686 -0.142546
-0.143489 0.374209 -0.125776
-0.138627 0.372236 -0.117021
-0.132957 0.371105 -0.110125
-0.120979 0.348849 0.0165997
-0.115895 0.346977 0.0283393
-0.110993 0.345781 0.0345767
-0.106409 0.344646 0.0391277
-0.101418 0.34435 0.0429986
-0.0974097 0.344139 0.0445921
-0.0923069 0.34324 0.0474162
-0.087847 0.343012 0.0492802
-0.0832271 0.342854 0.052575
-0.0788073 0.342327 0.0539136
-0.0745516 0.341713 0.0566062
-0.0702089 0.341839 0.0567935
-0.065551 0.341201 0.0595274
-0.0612011 0.340814 0.061017
-0.0567263 0.340642 0.0627632
-0.0521887 0.340761 0.0643055
-0.0482282 0.340353 0.0646031
-0.0437863 0.340405 0.0656811
-0.0389759 0.339105 0.0718759
-0.0348644 0.337501 0.0782974
-0.0300388 0.334629 0.0964255
-0.02553 0.331078 0.116904
-0.0209935 0.328608 0.13243
-0.016871 0.326025 0.146379
-0.0124628 0.323491 0.159085
-0.00822016 0.322468 0.168799
-0.0040719 0.320963 0.175635
0.000152015 0.320079 0.180893
0.0041832 0.319445 0.184718
0.00808584 0.318934 0.187411
0.0123534 0.318358 0.190128
0.0162414 0.318409 0.190118
0.0204115 0.318758 0.188717
0.0243962 0.318869 0.186756
0.0287072 0.319848 0.181375
0.0327843 0.321545 0.17295
0.0372544 0.322765 0.164595
0.0418852 0.324883 0.152728
0.0459306 0.327293 0.139909
0.0509686 0.329734 0.123645
0.0558912 0.335053 0.0961908
0.0612622 0.340198 0.0658113
0.0657118 0.341034 0.0614648
0.0696884 0.341634 0.0579859
0.0746022 0.342014 0.0564839
0.0788961 0.342477 0.0552523
0.0832274 0.34197 0.0553073
0.0874923 0.342026 0.0547968
0.0920197 0.342303 0.0536493
0.0960227 0.342801 0.0522672
0.100673 0.342633 0.0513037
0.105491 0.343245 0.0481447
0.109878 0.343642 0.0456898
0.114656 0.344777 0.0414336
0.119412 0.344779 0.0398175
0.124119 0.345294 0.0358919
0.12867 0.346105 0.0321589
0.133829 0.347648 0.0240463
0.150424 0.378632 -0.151349
-0.150222 0.383495 -0.149163
-0.144011 0.380608 -0.136251
-0.139068 0.37943 -0.128797
-0.133597 0.376996 -0.116646
-0.121025 0.354134 0.0120074
-0.115751 0.351954 0.0252264
-0.111191 0.350874 0.0301867
-0.106763 0.350408 0.034444
-0.101901 0.349582 0.0379102
-0.0972628 0.349057 0.0402812
-0.0927484 0.348775 0.0426767
-0.0883676 0.34782 0.0455202
-0.0835578 0.347741 0.0468812
-0.0792153 0.347425 0.0492774
-0.0746442 0.347062 0.0507152
-0.070275 0.347234 0.0525669
-0.0660283 0.347041 0.0542762
-0.0614499 0.346751 0.0547012
-0.0571326 0.345989 0.0566806
-0.052766 0.345931 0.0583533
-0.0479948 0.345755 0.0584686
-0.0435849 0.34548 0.0605644
-0.0391733 0.345122 0.0635036
-0.0347409 0.343955 0.0700418
-0.03044 0.34135 0.0868289
-0.0258175 0.337599 0.105971
-0.0210896 0.334322 0.121888
-0.0168166 0.33298 0.132718
-0.0123607 0.329513 0.147744
-0.00814804 0.329066 0.154229
-0.00407694 0.327226 0.163076
0.000125848 0.326548 0.167199
0.00394712 0.325288 0.171985
0.008397 0.325334 0.174347
0.012673 0.324836 0.175337
0.0165706 0.325057 0.174628
0.0200939 0.325575 0.172295
0.0247515 0.326175 0.169171
0.0293075 0.326181 0.165635
0.0335753 0.328777 0.155173
0.0376071 0.330339 0.147643
0.0421053 0.33155 0.140144
0.0471176 0.334149 0.12543
0.0510686 0.337157 0.108944
0.0560308 0.340957 0.0855424
0.0610984 0.345853 0.0592657
0.0657646 0.346427 0.0540683
0.0701561 0.34691 0.052084
0.0749184 0.347059 0.0508236
0.0789935 0.347438 0.0497972
0.0831014 0.347196 0.0503172
0.0882066 0.347402 0.0499407
0.0921995 0.34766 0.0479558
0.0968992 0.347952 0.0468795
0.101279 0.34814 0.0444529
0.105889 0.348429 0.042693
0.110236 0.349577 0.0399561
0.114974 0.349845 0.037091
0.119767 0.350311 0.0339172
0.124342 0.351163 0.0298052
0.129216 0.351305 0.0260112
0.134058 0.353079 0.0180035
-0.149682 0.38758 -0.148829
-0.144822 0.385514 -0.137444
-0.139518 0.384186 -0.130353
-0.134199 0.382583 -0.121554
-0.121478 0.359268 0.00788856
-0.115604 0.356832 0.0210167
-0.111092 0.355884 0.0266675
-0.106785 0.355667 0.0300286
-0.101872 0.354687 0.0335312
-0.0973164 0.354267 0.0355542
-0.092541 0.354252 0.0379709
-0.0884759 0.353734 0.0397718
-0.0840358 0.352619 0.0429809
-0.0792699 0.352733 0.0439119
-0.074821 0.35247 0.0459412
-0.0701404 0.352091 0.0474796
-0.065881 0.351828 0.0495503
-0.061307 0.351918 0.0495734
-0.057148 0.351524 0.0510153
-0.0525189 0.351212 0.0527282
-0.0480766 0.351172 0.0533274
-0.0436935 0.350971 0.0549155
-0.0396102 0.35035 0.0584297
-0.0346897 0.349226 0.0626484
-0.0298272 0.345781 0.08215
-0.0256061 0.342994 0.0986511
-0.0212032 0.341015 0.111094
-0.0168193 0.338306 0.124493
-0.0125275 0.336202 0.13488
-0.0081344 0.335638 0.141004
-0.00411635 0.33465 0.147808
2.72962e-05 0.33303 0.153411
0.00414575 0.332795 0.155941
0.00817742 0.332597 0.157673
0.0129101 0.331616 0.161232
0.016601 0.33144 0.161007
0.021137 0.331801 0.158258
0.0249455 0.333291 0.153421
0.0292758 0.334024 0.148942
0.0338289 0.335331 0.141602
0.037556 0.336336 0.136261
0.0423765 0.337815 0.127406
0.0462965 0.339028 0.117154
0.0516406 0.342396 0.0993642
0.0566948 0.347424 0.0722289
0.06115 0.350504 0.0555133
0.0656337 0.352478 0.0478334
0.0704868 0.352376 0.0461888
0.0748855 0.35254 0.0456549
0.0796284 0.352989 0.0446728
0.0840354 0.352909 0.0438544
0.0884851 0.35289 0.0438236
0.0922475 0.353151 0.0426613
0.0976956 0.35296 0.0411019
0.101613 0.353593 0.0395973
0.106058 0.35375 0.0371408
0.110736 0.354389 0.0350375
0.115485 0.355279 0.0315298
0.120229 0.356487 0.0267751
0.125019 0.356448 0.0239111
0.129868 0.357633 0.0185025
0.134976 0.359942 0.00438476
-0.149736 0.392254 -0.147326
-0.144116 0.390376 -0.136058
-0.138958 0.389072 -0.129246
-0.133659 0.387234 -0.120507
-0.121569 0.364898 0.00295103
-0.116557 0.362622 0.0152416
-0.111026 0.360889 0.0230806
-0.107043 0.360848 0.0253876
-0.102161 0.360213 0.0288208
-0.0974994 0.359072 0.0327588
-0.0934291 0.359457 0.0329729
-0.0883987 0.35924 0.034354
-0.0842231 0.358252 0.0378245
-0.0795928 0.358362 0.0386502
-0.0753583 0.358415 0.0403875
-0.0705435 0.358124 0.0410678
-0.0660196 0.357234 0.044067
-0.0616568 0.357206 0.0444008
-0.0577836 0.357306 0.0451448
-0.0526399 0.357111 0.0457803
-0.0486425 0.356225 0.0481745
-0.0437703 0.356588 0.0492305
-0.0397334 0.355817 0.0511515
-0.0349742 0.355208 0.0550461
-0.0301445 0.351983 0.0728226
-0.0256042 0.34881 0.0889813
-0.0211228 0.346547 0.102657
-0.0170269 0.34468 0.114877
-0.0128769 0.343331 0.121442
-0.00833886 0.341433 0.130491
-0.00430577 0.340986 0.135
3.10499e-06 0.33992 0.139532
0.00427744 0.339909 0.140648
0.00818946 0.338376 0.145749
0.012696 0.33833 0.146633
0.0164392 0.339353 0.143637
0.0206003 0.33866 0.145223
0.0252182 0.339768 0.141075
0.0296601 0.341574 0.133481
0.0339561 0.341225 0.130722
0.0380225 0.342701 0.123733
0.042435 0.343766 0.116487
0.0471585 0.346204 0.104875
0.0517839 0.349656 0.0870336
0.0573861 0.35469 0.058944
0.0617514 0.357187 0.0439365
0.0660857 0.357239 0.0433819
0.0705712 0.35768 0.0412862
0.0748191 0.358008 0.0404929
0.0795718 0.358477 0.0390363
0.0839154 0.357897 0.0393183
0.0888861 0.358335 0.0383865
0.0932583 0.358356 0.0373522
0.0973637 0.359303 0.0345277
0.102242 0.35934 0.0333856
0.106814 0.359757 0.0305263
0.111088 0.359975 0.0283182
0.115616 0.361145 0.0247891
0.120365 0.361762 0.0220107
0.124931 0.362103 0.0188168
0.130071 0.363018 0.0117915
0.135538 0.36514 -0.00179338
-0.150504 0.397299 -0.147899
-0.144509 0.395045 -0.134635
-0.139451 0.393593 -0.128202
-0.133385 0.391683 -0.119173
-0.121821 0.369534 -9.17912e-05
-0.116151 0.367497 0.0123068
-0.111713 0.366408 0.0180233
-0.107125 0.366077 0.0218155
-0.102616 0.365072 0.024542
-0.0979856 0.364804 0.0269269
-0.0932577 0.364336 0.0294063
-0.0891686 0.364256 0.0304886
-0.0845372 0.363535 0.0326281
-0.0796395 0.363491 0.0339189
-0.075368 0.363076 0.0370628
-0.0705454 0.362764 0.0382696
-0.066167 0.362701 0.0387571
-0.0622368 0.362691 0.0390552
-0.0576392 0.362967 0.0386546
-0.0530838 0.362327 0.0405984
-0.0485135 0.361828 0.0435344
-0.0440798 0.362328 0.0422175
-0.0396067 0.361707 0.0445813
-0.035063 0.360107 0.0519891
-0.0305489 0.358719 0.0616422
-0.0258813 0.355435 0.0794009
-0.0211864 0.351938 0.0958648
-0.0170092 0.35026 0.105559
-0.0126794 0.349152 0.111925
-0.00847273 0.347109 0.121365
-0.0045785 0.346932 0.123821
-4.10396e-05 0.34587 0.128993
0.00428277 0.345834 0.130583
0.00812786 0.345295 0.132118
0.0129272 0.345148 0.132571
0.0165766 0.345188 0.132193
0.0216148 0.345949 0.130198
0.0252784 0.347309 0.125916
0.0292229 0.347399 0.123105
0.0337203 0.348047 0.118565
0.0386146 0.348764 0.11213
0.0431014 0.350797 0.103228
0.047115 0.352431 0.0938669
0.0518736 0.35619 0.0758739
0.0573903 0.360873 0.0485247
0.0611896 0.362405 0.0404524
0.0662268 0.363585 0.0368041
0.0707898 0.362957 0.0361159
0.0751152 0.363329 0.0351601
0.0795138 0.363873 0.0337538
0.0842373 0.363265 0.0337588
0.0887034 0.363871 0.0330427
0.0934108 0.364048 0.0316352
0.0974975 0.364201 0.0307127
0.102316 0.365116 0.0277778
0.106531 0.365201 0.0261035
0.111794 0.365136 0.0241203
0.116003 0.366114 0.0209165
0.120644 0.366586 0.0171912
0.125939 0.367808 0.0123352
0.130006 0.368673 0.00733232
0.14506 0.395565 -0.137724
-0.149964 0.401728 -0.145241
-0.143859 0.399027 -0.13129
-0.138653 0.397554 -0.125975
-0.133893 0.396941 -0.119762
-0.12236 0.374898 -0.0037055
-0.116887 0.372699 0.00937772
-0.111658 0.371562 0.0162817
-0.107111 0.370353 0.019223
-0.102229 0.370296 0.021482
-0.0979331 0.369587 0.0238937
-0.0938934 0.369735 0.0244035
-0.0893559 0.369506 0.0262685
-0.0845804 0.369236 0.0282516
-0.0805357 0.368581 0.0295507
-0.0756285 0.368416 0.0315127
-0.0711494 0.368457 0.0324513
-0.0667611 0.368658 0.0321287
-0.0621795 0.367721 0.0349243
-0.0574435 0.36785 0.035264
-0.0536696 0.367409 0.0360528
-0.0485487 0.367377 0.0369798
-0.0441465 0.36712 0.0381982
-0.0397387 0.366796 0.0396932
-0.0353684 0.366046 0.044258
-0.030592 0.364444 0.0529883
-0.0261463 0.3614 0.0693359
-0.0210471 0.358884 0.0846021
-0.0171003 0.356747 0.0949879
-0.0124723 0.355491 0.101974
-0.0085016 0.353305 0.110918
-0.00419924 0.353235 0.113951
9.92593e-05 0.352962 0.116182
0.00420533 0.352276 0.118366
0.00865465 0.351311 0.121105
0.0129961 0.351284 0.121658
0.0169221 0.352264 0.119406
0.0213137 0.352241 0.119086
0.0255241 0.352138 0.116924
0.0300259 0.353105 0.11322
0.0342742 0.353692 0.108428
0.0384447 0.35523 0.10231
0.0429798 0.356635 0.094496
0.047346 0.359303 0.0822544
0.0524391 0.362322 0.0636221
0.0575126 0.3673 0.039423
0.061902 0.367944 0.0355092
0.0663675 0.36837 0.032523
0.0709362 0.368239 0.0312592
0.0753803 0.368508 0.0305362
0.0800543 0.368778 0.0297842
0.0842054 0.369085 0.029161
0.0888891 0.369093 0.0286596
0.0936726 0.369303 0.0270438
0.0976645 0.369741 0.0246916
0.102498 0.370099 0.0236298
0.106588 0.370065 0.0218977
0.111418 0.37103 0.0192562
0.116511 0.371307 0.0169542
0.12076 0.371912 0.0129894
0.125917 0.37258 0.00946367
0.130919 0.373487 0.00458288
0.14498 0.400148 -0.136686
-0.1501 0.406908 -0.147516
-0.144256 0.403989 -0.131291
-0.139389 0.402187 -0.123707
-0.133538 0.401138 -0.116936
-0.121294 0.37872 0.000185013
-0.116304 0.377521 0.00885427
-0.111753 0.376842 0.0129765
-0.107345 0.375644 0.0162141
-0.102997 0.375835 0.0181202
-0.0980146 0.374472 0.0215703
-0.0933696 0.374804 0.0221041
-0.0892278 0.374557 0.023103
-0.0851001 0.373789 0.0258259
-0.0799743 0.374133 0.0254802
-0.0759452 0.373387 0.0283728
-0.0712976 0.373535 0.0287941
-0.0667723 0.373202 0.0296443
-0.062051 0.373376 0.0296769
-0.057869 0.372966 0.0305868
-0.0533543 0.372968 0.0327704
-0.0487046 0.372265 0.033446
-0.0440586 0.372193 0.0353693
-0.0401132 0.371855 0.0357252
-0.0357654 0.371707 0.0375578
-0.0306908 0.370323 0.044575
-0.0263663 0.367683 0.0600241
-0.0218949 0.364924 0.0742755
-0.0169893 0.362662 0.0857909
-0.0125047 0.361378 0.0930572
-0.00900222 0.360124 0.098502
-0.00438603 0.359458 0.102787
0.000142673 0.358815 0.106287
0.00459709 0.358155 0.109091
0.00860022 0.358406 0.108545
0.0125226 0.358667 0.108321
0.017192 0.358174 0.10875
0.0214552 0.358181 0.108114
0.0254833 0.359517 0.103819
0.0300665 0.359463 0.102168
0.0341705 0.360587 0.0968874
0.0386162 0.361508 0.0918564
0.0429416 0.36234 0.0852798
0.04777 0.365773 0.070727
0.0523186 0.369528 0.0502082
0.0575063 0.372074 0.0348645
0.0623825 0.373316 0.030997
0.0669907 0.373085 0.0297781
0.0711341 0.373935 0.0288383
0.0755754 0.373574 0.0281048
0.0801407 0.373581 0.0270668
0.0847666 0.374313 0.0260131
0.0893436 0.374248 0.0249537
0.0933749 0.374679 0.0230753
0.0982581 0.374281 0.0223974
0.102621 0.374536 0.021431
0.107137 0.375454 0.0191836
0.111467 0.375451 0.0179642
0.116232 0.375923 0.0147235
0.120856 0.375945 0.013247
0.125299 0.377081 0.009655
0.130973 0.378295 0.00324702
0.144751 0.404502 -0.136277
-0.144186 0.408299 -0.131278
-0.138851 0.406647 -0.122262
-0.133668 0.405729 -0.115063
-0.122057 0.384192 -0.0041163
-0.11672 0.381772 0.00920284
-0.111775 0.380541 0.01454
-0.107248 0.379957 0.0173725
-0.102791 0.379574 0.0197289
-0.0977956 0.379281 0.0219395
-0.0938469 0.379616 0.0217695
-0.0893431 0.378821 0.0229177
-0.0843122 0.379094 0.0234864
-0.0796805 0.378823 0.024891
-0.0757695 0.378466 0.0258651
-0.0712535 0.378189 0.0268135
-0.0666684 0.378169 0.0282079
-0.0622747 0.377924 0.0294529
-0.0580569 0.377656 0.0307049
-0.0535893 0.377746 0.030044
-0.048639 0.376853 0.0322936
-0.044093 0.377114 0.0328943
-0.0396892 0.376439 0.0358855
-0.0353647 0.376206 0.0379481
-0.0308173 0.375145 0.0413538
-0.0264206 0.374158 0.0488573
-0.0215403 0.37109 0.0663569
-0.0172941 0.369421 0.0740285
-0.0127057 0.367588 0.0821457
-0.0087263 0.366805 0.0870862
-0.00488432 0.365692 0.0919899
6.74313e-05 0.36512 0.0954387
0.0041766 0.364585 0.0979465
0.00858611 0.364711 0.0979354
0.0125416 0.364362 0.098462
0.0172483 0.364521 0.0981921
0.0215541 0.364718 0.0969456
0.026167 0.365226 0.0940326
0.0302152 0.366376 0.0898523
0.0345682 0.366747 0.0861878
0.0388872 0.368007 0.0797293
0.0436318 0.370486 0.0690762
0.048142 0.372324 0.0582455
0.0530836 0.376402 0.0376967
0.0570595 0.376533 0.0340568
0.0624311 0.377934 0.029609
0.0667055 0.377822 0.0277919
0.0711936 0.378184 0.026674
0.0757928 0.378369 0.0249866
0.0802658 0.378403 0.0251998
0.0846169 0.378442 0.0246896
0.0889977 0.378701 0.0237062
0.0936146 0.378656 0.0236012
0.0981164 0.378872 0.0236987
0.102532 0.379449 0.0208852
0.107033 0.379783 0.0185792
0.111719 0.379901 0.0170012
0.116456 0.380903 0.0135829
0.121159 0.380923 0.0111358
0.1257 0.38193 0.00784838
0.13111 0.383193 0.00265491
0.144701 0.409347 -0.137642
-0.14453 0.413582 -0.131382
-0.138239 0.410882 -0.121078
-0.133375 0.409667 -0.114005
-0.121969 0.388496 -0.00308418
-0.116601 0.386597 0.00940073
-0.111745 0.384809 0.0151272
-0.107093 0.384729 0.0176902
-0.102762 0.384007 0.0194412
-0.0980472 0.383591 0.0216448
-0.0936577 0.383923 0.0230551
-0.0892017 0.38322 0.0242178
-0.0848609 0.383341 0.024804
-0.0803427 0.382987 0.0262192
-0.0756516 0.382787 0.0267843
-0.071162 0.382404 0.0285337
-0.0666248 0.382502 0.0279957
-0.0618854 0.382169 0.0287896
-0.0575891 0.382078 0.0312796
-0.0536802 0.381882 0.0321183
-0.0488261 0.381569 0.0335469
-0.0444055 0.380698 0.0355537
-0.0401857 0.380707 0.0369993
-0.0353472 0.380428 0.0381769
-0.0311361 0.380052 0.0396239
-0.0264657 0.378945 0.0456516
-0.0222437 0.377493 0.053616
-0.0175039 0.375247 0.0644717
-0.0132555 0.374357 0.0710961
-0.00855436 0.373191 0.0763681
-0.00479949 0.371517 0.0818928
-0.000243385 0.37162 0.0847449
0.00452629 0.371068 0.087383
0.00895835 0.370458 0.0888073
0.0134979 0.370862 0.0884155
0.0171343 0.37141 0.086211
0.0215312 0.370824 0.0868444
0.0259579 0.37159 0.0837225
0.0305083 0.372619 0.0790513
0.0345894 0.37357 0.0742973
0.0393851 0.374782 0.0676258
0.0436512 0.376882 0.058117
0.0484703 0.379677 0.0419701
0.0530914 0.380203 0.0365072
0.057977 0.381423 0.0322129
0.0620807 0.381438 0.0309556
0.0664058 0.382092 0.0301423
0.0711705 0.382459 0.028721
0.0754279 0.382867 0.0277508
0.0800452 0.382418 0.0271252
0.0845132 0.382574 0.0253894
0.088931 0.382354 0.0260546
0.0935034 0.383151 0.0250739
0.0983027 0.383468 0.0232828
0.102953 0.383844 0.0213526
0.107349 0.384082 0.0192776
0.111541 0.384613 0.0171685
0.116761 0.384588 0.0150805
0.120678 0.385729 0.0123423
0.126123 0.386653 0.00767708
0.130455 0.387546 0.00274765
0.144892 0.416179 -0.145474
-0.139106 0.416308 -0.123949
-0.133819 0.415023 -0.115337
-0.12165 0.392558 -0.00196433
-0.116755 0.390429 0.0106544
-0.111613 0.388892 0.0170349
-0.107391 0.388466 0.0191463
-0.102682 0.387981 0.0216476
-0.0984371 0.387882 0.0244403
-0.0935932 0.387465 0.0261904
-0.0888768 0.387402 0.0268444
-0.0845627 0.386767 0.0274043
-0.0800055 0.386933 0.0286474
-0.0751966 0.386776 0.0295062
-0.0708096 0.386396 0.0295033
-0.0666171 0.386409 0.0299635
-0.0624069 0.386396 0.0318975
-0.0577995 0.385939 0.0331676
-0.0531145 0.385732 0.0344157
-0.048688 0.385852 0.0345594
-0.0444721 0.385318 0.0359403
-0.0395562 0.385208 0.0381974
-0.035565 0.385024 0.0386612
-0.0310063 0.384407 0.0402058
-0.0266001 0.383858 0.0433184
-0.0223196 0.382773 0.0484451
-0.0173543 0.381351 0.0570855
-0.0128522 0.380177 0.062601
-0.00876588 0.379036 0.0668914
-0.0044909 0.378399 0.0712483
-0.000338095 0.377893 0.0745755
0.00432722 0.377702 0.0758346
0.00851905 0.377644 0.0769373
0.0127587 0.376831 0.0785936
0.0172372 0.377237 0.0769
0.0216355 0.377801 0.0750487
0.0259023 0.377577 0.0737418
0.0306687 0.378666 0.0689229
0.0349 0.380188 0.0625898
0.0395464 0.381403 0.0561523
0.0438597 0.382512 0.0489485
0.0486286 0.384471 0.0398259
0.0532166 0.38508 0.0366549
0.0576138 0.385532 0.033288
0.0616952 0.385979 0.03295
0.0666791 0.38621 0.0317299
0.0709863 0.386351 0.0307683
0.075812 0.386658 0.0295539
0.080241 0.386954 0.0292879
0.0847911 0.387064 0.0275052
0.0891998 0.387196 0.0276338
0.0936332 0.387287 0.0263739
0.0975351 0.387673 0.0248173
0.102469 0.387834 0.0225619
0.106821 0.388527 0.0212142
0.111613 0.389022 0.0188828
0.116117 0.389624 0.0162644
0.120655 0.389712 0.0129083
0.125758 0.390712 0.00956142
0.130431 0.391398 0.00357389
-0.134298 0.421505 -0.123277
-0.122341 0.397925 -0.00522542
-0.116495 0.394429 0.0132806
-0.111453 0.393108 0.0186244
-0.107039 0.392323 0.0226954
-0.102534 0.391708 0.0248163
-0.0979227 0.391606 0.0262369
-0.0928499 0.391458 0.0280031
-0.0886606 0.391399 0.0276455
-0.084387 0.391058 0.0295073
-0.079717 0.391022 0.0303837
-0.0755528 0.390632 0.030655
-0.071095 0.390655 0.0318732
-0.0668997 0.390269 0.0327291
-0.061916 0.390411 0.03465
-0.0579209 0.390296 0.0344107
-0.053166 0.390065 0.0354315
-0.048559 0.389577 0.0372351
-0.0440994 0.389556 0.0380764
-0.0401573 0.389041 0.039299
-0.035671 0.388856 0.0405346
-0.0306379 0.388735 0.0419374
-0.0265719 0.387806 0.044279
-0.0222774 0.387683 0.0461469
-0.0174947 0.386445 0.0513573
-0.0129439 0.386241 0.0539178
-0.00875565 0.385364 0.0580699
-0.00448906 0.384618 0.0619144
1.84544e-05 0.38365 0.0649142
0.00405345 0.383662 0.0662652
0.00854882 0.383307 0.0676671
0.013046 0.383388 0.0679425
0.0175562 0.383972 0.0659724
0.0218658 0.384251 0.0641104
0.0262789 0.384877 0.0609124
0.0305314 0.385379 0.0590068
0.0351448 0.386419 0.052659
0.0395459 0.387102 0.048834
0.0436345 0.387899 0.042701
0.0487678 0.388875 0.0387636
0.05354 0.389019 0.0377318
0.0578467 0.389549 0.036293
0.0618068 0.390245 0.0348594
0.0664363 0.390506 0.0336609
0.0710282 0.390492 0.0331899
0.0753334 0.39063 0.0315405
0.0801918 0.390555 0.0307266
0.0846017 0.390743 0.0308917
0.0890703 0.39141 0.0291377
0.0936246 0.390965 0.029175
0.0976378 0.391614 0.0271006
0.101926 0.391539 0.0262487
0.106961 0.392122 0.0235034
0.11126 0.392653 0.0203292
0.116301 0.39384 0.0183898
0.12124 0.394074 0.0143117
0.125896 0.394861 0.00992548
0.130775 0.396798 0.00187325
-0.122447 0.402708 -0.00640464
-0.116651 0.398371 0.0129657
-0.111377 0.397413 0.021096
-0.106766 0.39628 0.0249679
-0.102271 0.396118 0.0265504
-0.0980747 0.396128 0.0278583
-0.0930867 0.394904 0.0303304
-0.0887811 0.395083 0.0304614
-0.0840316 0.395416 0.0310867
-0.0798483 0.395008 0.0331975
-0.0755589 0.394822 0.0330672
-0.0706876 0.393855 0.0342616
-0.0663422 0.394632 0.0349598
-0.0617669 0.393794 0.0363966
-0.0575981 0.394049 0.0370362
-0.052944 0.393619 0.0380952
-0.0486241 0.393466 0.0386976
-0.044157 0.393199 0.0403169
-0.0395816 0.393087 0.0408643
-0.0348559 0.393114 0.0421957
-0.0307586 0.392773 0.0435525
-0.0262735 0.392575 0.0450573
-0.0216633 0.392434 0.0468712
-0.0174784 0.391885 0.0475218
-0.0137297 0.391027 0.0492754
-0.00878234 0.391235 0.0517364
-0.00461763 0.389942 0.054958
0.000112183 0.390171 0.0556558
0.00432249 0.390034 0.0566168
0.00889393 0.38994 0.0573434
0.0130976 0.389928 0.0579967
0.0173864 0.390087 0.0567602
0.0221369 0.390559 0.0553546
0.0261034 0.390978 0.0527555
0.0308804 0.391158 0.0504844
0.0350856 0.392097 0.0484248
0.0399274 0.39232 0.0445977
0.0442212 0.393043 0.0428413
0.0486108 0.392877 0.0411834
0.0528588 0.393648 0.0398821
0.0573711 0.393521 0.0380301
0.0614904 0.393888 0.0381594
0.0664032 0.394109 0.0362945
0.0707911 0.394147 0.0359361
0.075203 0.394324 0.0348022
0.0795611 0.394898 0.0337832
0.0843197 0.395192 0.0319884
0.0890695 0.394866 0.0318652
0.0933129 0.395259 0.03075
0.0979948 0.395312 0.0290312
0.101911 0.395717 0.0281097
0.106847 0.39624 0.0254272
0.111342 0.396471 0.0229584
0.115935 0.397626 0.0211774
0.120711 0.398289 0.016253
0.125614 0.398924 0.0115502
0.131035 0.402434 -0.00329828
-0.12225 0.407548 -0.00717402
-0.116201 0.403223 0.0147034
-0.111538 0.401273 0.0226322
-0.106784 0.400386 0.0262777
-0.102266 0.399618 0.0293676
-0.0976054 0.39979 0.030151
-0.0933382 0.399203 0.0322309
-0.0889287 0.399419 0.0330074
-0.0843256 0.399198 0.0333326
-0.0793372 0.398474 0.034604
-0.0752795 0.398489 0.0365944
-0.0708983 0.398617 0.0370049
-0.0661529 0.39847 0.0375671
-0.061762 0.397964 0.0377648
-0.0574025 0.39848 0.0391374
-0.0527685 0.397452 0.0403541
-0.04852 0.397601 0.0418034
-0.0445306 0.397206 0.0419887
-0.0394283 0.397341 0.0438896
-0.0352215 0.397151 0.0444058
-0.0312357 0.396182 0.0465652
-0.0268409 0.39625 0.0467752
-0.0219259 0.396202 0.0483698
-0.0176291 0.396213 0.0477399
-0.0134415 0.395693 0.0513105
-0.00900697 0.395307 0.0521288
-0.00421511 0.395551 0.052709
-0.000128739 0.395025 0.054153
0.00477 0.39513 0.0535252
0.00850252 0.395526 0.0524197
0.0130653 0.395129 0.053332
0.017449 0.395265 0.0520977
0.0218655 0.3954 0.0511136
0.026194 0.395611 0.0513911
0.0304265 0.395339 0.0513089
0.0352086 0.396338 0.0477825
0.0399108 0.39671 0.0457379
0.0434951 0.396813 0.0444554
0.0485703 0.396988 0.042758
0.0530712 0.39706 0.0415717
0.0581175 0.397627 0.0409125
0.061262 0.397757 0.0399082
0.0662835 0.398167 0.0390595
0.0704463 0.398076 0.0380385
0.0745619 0.398436 0.0371301
0.0795261 0.399033 0.0357592
0.0842847 0.398865 0.0358775
0.0887662 0.399092 0.0343668
0.0929814 0.399459 0.0333806
0.0974663 0.399134 0.0321258
0.10206 0.40011 0.0299681
0.106707 0.400138 0.0283135
0.111181 0.400798 0.0248508
0.115518 0.401175 0.0225796
0.120732 0.402699 0.0177182
0.125196 0.403346 0.0130527
-0.122397 0.4129 -0.0100257
-0.116529 0.407457 0.0147269
-0.111116 0.40577 0.0248997
-0.106807 0.404468 0.02817
-0.102296 0.40374 0.0314022
-0.0973485 0.403574 0.032932
-0.0933428 0.402949 0.034569
-0.0883126 0.402904 0.035549
-0.0846706 0.403137 0.0363485
-0.0799724 0.402571 0.0375334
-0.0751014 0.402676 0.03836
-0.0707134 0.402573 0.0389143
-0.066692 0.402079 0.0398417
-0.0619647 0.402001 0.0409027
-0.0574974 0.402404 0.0406684
-0.0529881 0.401444 0.0433235
-0.0486263 0.401628 0.0446262
-0.0439092 0.401098 0.0452099
-0.0395577 0.40062 0.045699
-0.0355038 0.401079 0.0461379
-0.0306305 0.400329 0.0480336
-0.0262865 0.400314 0.0485538
-0.0219115 0.400373 0.0483271
-0.0172722 0.400495 0.0505168
-0.0132007 0.399772 0.0511136
-0.00882261 0.399558 0.0526918
-0.00458724 0.399731 0.0523078
-0.000109496 0.399099 0.0539879
0.00427549 0.399472 0.0537541
0.00887616 0.399394 0.0532156
0.0132427 0.39994 0.0534872
0.0174641 0.399576 0.0539119
0.0223859 0.400114 0.052415
0.0262884 0.399586 0.0515515
0.0306231 0.400021 0.0506078
0.0353012 0.40015 0.0492342
0.0394914 0.400971 0.0482287
0.043871 0.400949 0.0478338
0.0481512 0.400908 0.046272
0.0531205 0.401369 0.0442467
0.0576598 0.401765 0.0427593
0.0623445 0.401405 0.0413566
0.0662132 0.401922 0.0415479
0.0702587 0.402695 0.0402443
0.0744838 0.402041 0.038902
0.0795178 0.402412 0.038379
0.0838906 0.402721 0.0375929
0.0885918 0.402824 0.0360161
0.0935265 0.403327 0.0350168
0.0975659 0.403556 0.0339664
0.10191 0.404039 0.0317177
0.106389 0.404432 0.0303196
0.111218 0.404583 0.0270357
0.116034 0.405692 0.0232806
0.120446 0.406573 0.0190622
0.125638 0.407987 0.0132631
-0.122363 0.417596 -0.0136452
-0.116223 0.411718 0.0151392
-0.111458 0.40984 0.025367
-0.106205 0.408515 0.0312371
-0.101857 0.407816 0.0339404
-0.0972207 0.407584 0.0363133
-0.0930091 0.407126 0.0371211
-0.0883189 0.407173 0.0386137
-0.0834343 0.406308 0.0390898
-0.0792309 0.406761 0.0403728
-0.0754602 0.40647 0.0405635
-0.0707445 0.406141 0.0416079
-0.0661834 0.406468 0.0432097
-0.0616903 0.4057 0.0434141
-0.0578154 0.405614 0.0447248
-0.0531364 0.405318 0.0452543
-0.0483504 0.405472 0.0458078
-0.0438332 0.40519 0.046615
-0.0397902 0.404939 0.0483047
-0.0351894 0.404913 0.0486808
-0.0307688 0.404348 0.0503842
-0.0261874 0.404685 0.0508269
-0.0220122 0.403999 0.0510247
-0.0178054 0.404375 0.0517989
-0.0133508 0.403586 0.0538214
-0.00877307 0.403566 0.0540501
-0.00445432 0.403511 0.0544856
0.000216143 0.403906 0.0545757
0.0044643 0.40321 0.0562007
0.00863647 0.40364 0.0547758
0.0133314 0.403587 0.0541196
0.0174683 0.403557 0.0549743
0.02185 0.40385 0.0546522
0.0262376 0.403959 0.0523795
0.0306154 0.404315 0.0518688
0.0357161 0.404508 0.049983
0.0397873 0.40461 0.0496484
0.0444727 0.404898 0.0484105
0.0491697 0.405432 0.0466592
0.053183 0.405505 0.0465485
0.0575576 0.405454 0.0451285
0.061922 0.405821 0.0444646
0.0662501 0.406158 0.0434655
0.070755 0.406163 0.0430099
0.0752038 0.40656 0.0411885
0.0790153 0.406268 0.0413156
0.0838174 0.40658 0.0394464
0.0885992 0.407116 0.0380965
0.0931883 0.407503 0.0366198
0.0975418 0.407972 0.0350791
0.102052 0.408192 0.0331284
0.107016 0.408986 0.0301384
0.110922 0.408823 0.0287677
0.115595 0.408867 0.0261265
0.120544 0.410534 0.02064
0.125438 0.412696 0.0124117
-0.123468 0.424843 -0.0260015
-0.116669 0.417007 0.011216
-0.111063 0.414359 0.0262378
-0.107162 0.412852 0.0315421
-0.102157 0.412328 0.0361658
-0.0973165 0.411336 0.0383891
-0.0925963 0.410635 0.0398519
-0.0885015 0.410924 0.0408087
-0.0838437 0.410359 0.0419983
-0.0799438 0.410525 0.0431304
-0.074941 0.410288 0.0430614
-0.0706444 0.410301 0.0446941
-0.0658081 0.410191 0.0451407
-0.0615769 0.409882 0.0452427
-0.0570815 0.409484 0.0471929
-0.0531053 0.409442 0.0481119
-0.0485892 0.40978 0.047382
-0.0436759 0.409169 0.0494905
-0.039422 0.408837 0.0505435
-0.0350669 0.408931 0.0506366
-0.030953 0.40828 0.0518
-0.0262459 0.408574 0.0524869
-0.0217615 0.408248 0.0530809
-0.0173529 0.408198 0.0536665
-0.0131745 0.407759 0.0553305
-0.00829946 0.407516 0.0557172
-0.00459298 0.407807 0.0568534
-0.00028057 0.407429 0.0564892
0.00433923 0.407698 0.0572101
0.00885966 0.407589 0.057292
0.013043 0.407603 0.0567908
0.0175566 0.407672 0.0575182
0.0219991 0.408332 0.0552
0.0264514 0.407995 0.0548205
0.030824 0.408152 0.0540763
0.0353333 0.408493 0.0531054
0.0394925 0.408854 0.0522828
0.0441533 0.408674 0.0506662
0.0480867 0.40928 0.050236
0.053193 0.409416 0.0487179
0.0573233 0.409566 0.0477102
0.0617511 0.409431 0.0470876
0.0658628 0.41022 0.0461041
0.0704807 0.410173 0.0446957
0.075102 0.410153 0.0432078
0.0794905 0.410663 0.0422225
0.0836333 0.410534 0.0413558
0.0884196 0.411031 0.0406299
0.0931011 0.411273 0.039204
0.0974446 0.411512 0.0377539
0.101884 0.412263 0.0347834
0.106631 0.412483 0.0328064
0.110823 0.41306 0.0315793
0.116011 0.413748 0.0265557
0.120831 0.414731 0.0219189
0.125645 0.417191 0.00996625
-0.12372 0.43065 -0.0326188
-0.116487 0.422248 0.00942481
-0.111398 0.418408 0.0257179
-0.106206 0.416951 0.0330757
-0.101639 0.416494 0.0363396
-0.0970878 0.415563 0.0400703
-0.0928475 0.415351 0.0420536
-0.0884991 0.415068 0.0427164
-0.0841557 0.414579 0.0441431
-0.0795986 0.414332 0.0445975
-0.0750592 0.414312 0.0456517
-0.0706553 0.414042 0.0459336
-0.0658879 0.414316 0.0473623
-0.0616523 0.41367 0.0484492
-0.0572266 0.413596 0.0482376
-0.0528408 0.413148 0.0497233
-0.0485071 0.413124 0.0503817
-0.0439573 0.412826 0.0518472
-0.0391628 0.412652 0.0530815
-0.0348399 0.412737 0.0537142
-0.030853 0.41254 0.0548668
-0.0264922 0.41216 0.0556226
-0.0217657 0.411947 0.055817
-0.0175447 0.411989 0.0569856
-0.0131631 0.412077 0.0570426
-0.00877694 0.412335 0.0573528
-0.00455701 0.411652 0.0573739
-0.000288435 0.411192 0.0581344
0.00419103 0.411659 0.0585942
0.00863971 0.411256 0.058112
0.0134063 0.411746 0.0588893
0.017556 0.411775 0.0569655
0.0219102 0.411485 0.0577836
0.0258603 0.411735 0.0568814
0.030656 0.412064 0.0549506
0.0351232 0.412791 0.0543556
0.0401637 0.412657 0.0537167
0.0436697 0.412918 0.0538157
0.0483756 0.413119 0.0512408
0.0526869 0.413216 0.051753
0.0574035 0.41323 0.0500691
0.0610872 0.413835 0.0497788
0.066199 0.413791 0.0489037
0.0706024 0.413844 0.0468609
0.0749341 0.414498 0.0452797
0.0791498 0.414579 0.0449485
0.0837559 0.414826 0.0432813
0.087741 0.414985 0.0420445
0.0928362 0.415787 0.0396709
0.0975833 0.416037 0.0381955
0.101722 0.416432 0.0367383
0.106367 0.416893 0.0341861
0.111052 0.417383 0.0314108
0.115419 0.418076 0.0280043
0.120245 0.4197 0.0218989
0.125354 0.421889 0.00812924
-0.116352 0.426989 0.00663948
-0.111015 0.423518 0.0237232
-0.106408 0.421646 0.031758
-0.102162 0.420463 0.0373255
-0.0969963 0.419556 0.040728
-0.0928538 0.419379 0.0430223
-0.0884495 0.419279 0.0448278
-0.0838009 0.418837 0.0458103
-0.0789387 0.41817 0.0476511
-0.0749227 0.418066 0.0472958
-0.0705562 0.418195 0.0489455
-0.0660405 0.417972 0.0490352
-0.0614568 0.41785 0.0506403
-0.0573047 0.41752 0.0509011
-0.0525534 0.417507 0.0525005
-0.0485015 0.417036 0.0539892
-0.0440156 0.416873 0.0540657
-0.0397038 0.41681 0.0551167
-0.0353082 0.416661 0.0551033
-0.0309191 0.416713 0.0557228
-0.0263001 0.416435 0.0575715
-0.0221558 0.416193 0.0577673
-0.0171844 0.415919 0.0580255
-0.0128772 0.416074 0.0590793
-0.00845208 0.415368 0.0603708
-0.00409428 0.415464 0.0603517
0.000438705 0.41558 0.0600313
0.00432205 0.415909 0.0606611
0.00836732 0.415422 0.0612597
0.0134773 0.415622 0.0604589
0.0174212 0.41546 0.0601126
0.0217037 0.415686 0.0595375
0.0262391 0.416278 0.0586598
0.0304629 0.416133 0.0580776
0.0348802 0.416049 0.0579404
0.0396837 0.416423 0.0561
0.0436769 0.416331 0.0553569
0.0483212 0.416746 0.0543022
0.052638 0.417186 0.0536284
0.057037 0.41728 0.0534233
0.0614384 0.417452 0.0522407
0.0662083 0.417986 0.0505136
0.0705142 0.417789 0.0489086
0.0745117 0.418562 0.0476042
0.079269 0.418903 0.0462964
0.0837379 0.419138 0.0448598
0.0885011 0.419249 0.0433927
0.092728 0.419392 0.0415074
0.0974851 0.420089 0.0394007
0.101946 0.420048 0.0385493
0.106437 0.420947 0.0357763
0.111279 0.421405 0.0326264
0.116003 0.422975 0.0271015
0.120001 0.424009 0.0214238
0.126496 0.429468 -0.00395846
-0.117908 0.433755 -0.00396776
-0.111822 0.429193 0.017074
-0.106541 0.425784 0.0314564
-0.101991 0.425054 0.0363375
-0.0968829 0.424113 0.041383
-0.0927856 0.423168 0.0442625
-0.0881773 0.423218 0.0463922
-0.0838778 0.42259 0.0479832
-0.0793343 0.422513 0.0488045
-0.0746694 0.422046 0.0505055
-0.070057 0.422066 0.0515418
-0.0661897 0.421689 0.0522619
-0.0616136 0.421092 0.0533515
-0.0569703 0.421609 0.0540031
-0.0522862 0.420817 0.0550799
-0.0481834 0.421377 0.0557346
-0.0440258 0.420682 0.0554566
-0.0389679 0.420907 0.0570099
-0.034793 0.420714 0.0590116
-0.0305725 0.420342 0.0588338
-0.0257316 0.420163 0.0602268
-0.0216035 0.420283 0.0601473
-0.0173034 0.419868 0.0612347
-0.0129644 0.419695 0.0616056
-0.00853448 0.419774 0.0616125
-0.00443367 0.419898 0.0622953
0.000127453 0.419426 0.0631328
0.00445896 0.419717 0.0622455
0.00848948 0.419481 0.0631268
0.0135116 0.419103 0.0631672
0.0172347 0.419456 0.0627258
0.0220589 0.41961 0.0620883
0.0257783 0.419754 0.0609256
0.0303956 0.419663 0.0611296
0.0352549 0.420007 0.0605983
0.0392126 0.419968 0.0589801
0.043942 0.42017 0.059026
0.0482647 0.420427 0.0572914
0.0529504 0.420971 0.0556113
0.0566841 0.421201 0.0544018
0.0614844 0.421789 0.0534822
0.0659174 0.421699 0.0515079
0.0704474 0.421957 0.0508596
0.074968 0.422472 0.0501571
0.0792424 0.422745 0.0479283
0.083656 0.42266 0.0470874
0.0881502 0.423252 0.0452886
0.0929106 0.424012 0.0427153
0.0974581 0.424368 0.0398246
0.101544 0.424669 0.0390207
0.106623 0.425381 0.0353274
0.110911 0.425356 0.033262
0.115589 0.426978 0.0272856
0.120889 0.429386 0.017074
0.126704 0.435779 -0.0115995
-0.117757 0.439317 -0.00837731
-0.111753 0.434529 0.0132142
-0.107219 0.432314 0.0238571
-0.101546 0.429799 0.0349692
-0.0971502 0.428349 0.0408512
-0.0926507 0.427549 0.04412
-0.087934 0.427221 0.0472648
-0.0837032 0.426653 0.0495527
-0.0791797 0.426036 0.0508159
-0.0749336 0.425961 0.0519401
-0.0700138 0.425881 0.052652
-0.0659719 0.425847 0.0539818
-0.0617123 0.425524 0.0544708
-0.0571689 0.425083 0.0558252
-0.0523082 0.424587 0.0570128
-0.04868 0.425277 0.0574216
-0.0440559 0.424519 0.0594921
-0.0394486 0.424403 0.0592726
-0.0350596 0.423852 0.0602973
-0.0307777 0.42488 0.0599604
-0.0262705 0.423892 0.0615275
-0.022083 0.424304 0.0616734
-0.0175097 0.423443 0.0629343
-0.0129615 0.423183 0.0638682
-0.00852358 0.42346 0.0639834
-0.00424516 0.423674 0.0646212
-0.000161681 0.42317 0.0652192
0.004758 0.422727 0.0651979
0.00852941 0.423396 0.0655402
0.0133431 0.423283 0.0653054
0.0175317 0.423064 0.0645806
0.0220262 0.423251 0.0645176
0.0262145 0.423412 0.0635313
0.0308362 0.424152 0.0630996
0.035308 0.4239 0.0623657
0.0393543 0.423909 0.0619599
0.0438988 0.42487 0.0595547
0.0483431 0.42447 0.0589976
0.0522673 0.42494 0.0580244
0.0571058 0.425495 0.0564511
0.0613353 0.425608 0.0551716
0.0661409 0.426095 0.0535963
0.0703309 0.426519 0.0517908
0.074864 0.426025 0.0513514
0.079189 0.426376 0.049736
0.0839086 0.427029 0.0485445
0.0885828 0.427745 0.0461693
0.0924931 0.427516 0.0436608
0.096884 0.428134 0.0424887
0.101508 0.429277 0.0384828
0.106331 0.429841 0.0355487
0.111274 0.431281 0.0295432
0.115864 0.432796 0.0230116
0.121004 0.435465 0.0115244
-0.118135 0.445668 -0.0164404
-0.112885 0.440164 0.00591683
-0.106878 0.437073 0.0217655
-0.102189 0.43573 0.0301367
-0.0974415 0.433637 0.0390271
-0.0922341 0.432788 0.0429059
-0.088218 0.432029 0.0468882
-0.0831981 0.431024 0.0500119
-0.0788897 0.430385 0.0519483
-0.0749337 0.43072 0.0526979
-0.0701584 0.429838 0.0546854
-0.0658387 0.429607 0.0560917
-0.0612515 0.429267 0.0576669
-0.057026 0.429269 0.0574956
-0.0525701 0.428821 0.0592694
-0.0480798 0.428617 0.0606128
-0.0437547 0.42858 0.0614588
-0.0394364 0.428213 0.0614419
-0.035057 0.428219 0.0631925
-0.030431 0.42811 0.063202
-0.026116 0.428158 0.0646766
-0.0217696 0.427805 0.063987
-0.0180553 0.427623 0.0645955
-0.0131896 0.427464 0.0662009
-0.00868307 0.427619 0.0664982
-0.0043515 0.427128 0.0663712
0.000140331 0.427642 0.067029
0.0046173 0.427362 0.0675189
0.00857394 0.427286 0.0667826
0.0128864 0.426998 0.0672419
0.0174665 0.427335 0.0661819
0.0219841 0.427288 0.0668186
0.0263379 0.427609 0.0658779
0.0305307 0.427574 0.0652537
0.0350205 0.427941 0.0644435
0.0390839 0.427884 0.0629146
0.043638 0.428205 0.0620646
0.0479586 0.428287 0.0604196
0.0528056 0.428969 0.0599003
0.0571451 0.428707 0.0592552
0.06145 0.429549 0.0576378
0.0655662 0.429824 0.0549031
0.0702639 0.429937 0.0541209
0.0746755 0.430203 0.0526671
0.079253 0.431253 0.0500201
0.083388 0.430978 0.0485226
0.0880485 0.431543 0.0470476
0.0925096 0.432035 0.0454303
0.0975322 0.433298 0.0403931
0.101895 0.43394 0.0375646
0.106507 0.434702 0.0321857
0.111583 0.435914 0.0263041
0.116348 0.438161 0.0180067
0.121512 0.441082 0.00381339
-0.117883 0.451325 -0.0207419
-0.112937 0.446754 -0.000366211
-0.107443 0.442278 0.0173578
-0.102389 0.441045 0.0257893
-0.0977871 0.438723 0.0337968
-0.0930581 0.437686 0.0391111
-0.0881097 0.436611 0.0448682
-0.0836475 0.436002 0.0479234
-0.0788282 0.435421 0.0507411
-0.0748637 0.434119 0.0537513
-0.0703026 0.433658 0.0550351
-0.0655075 0.433813 0.057559
-0.0612936 0.433102 0.0591272
-0.0569263 0.432999 0.0606652
-0.0524426 0.432954 0.0618867
-0.0479724 0.432903 0.0620399
-0.0440532 0.432282 0.0635173
-0.0391056 0.432619 0.0636556
-0.0350933 0.432373 0.0641907
-0.0305463 0.432078 0.0649649
-0.0257569 0.431881 0.06636
-0.0217082 0.43156 0.0669479
-0.0173674 0.431805 0.0665604
-0.0132404 0.431104 0.0677749
-0.00861843 0.431238 0.0689489
-0.00438981 0.431118 0.0688869
-0.000104524 0.431008 0.0686951
0.00433459 0.431005 0.0691808
0.00878466 0.431105 0.0691969
0.0131125 0.430726 0.0692698
0.0176253 0.431203 0.0685585
0.0220782 0.431489 0.068585
0.0260653 0.431192 0.0679356
0.0305737 0.431526 0.0666791
0.0345931 0.431741 0.0662653
0.0390118 0.431787 0.0653204
0.0439398 0.432293 0.0641692
0.0481187 0.432393 0.0635793
0.0522451 0.432607 0.0625559
0.056576 0.433397 0.0602598
0.0611164 0.433287 0.0595903
0.0657259 0.433601 0.0568597
0.0701175 0.434064 0.0559887
0.0747377 0.434728 0.0535762
0.0790082 0.43568 0.0520381
0.0835216 0.435218 0.0498682
0.0883925 0.436169 0.0474776
0.0927038 0.437165 0.0420809
0.0974335 0.438239 0.0377282
0.102013 0.439197 0.0329434
0.107138 0.440652 0.0270849
0.111838 0.442313 0.0211837
0.117044 0.443839 0.011645
0.122275 0.447033 -0.00451112
-0.11909 0.45903 -0.0344393
-0.112968 0.451839 -0.0047822
-0.10765 0.448978 0.0100771
-0.102518 0.44662 0.0204188
-0.0975904 0.444347 0.0287793
-0.0934605 0.443048 0.0352179
-0.0883566 0.442201 0.0402346
-0.0834219 0.440693 0.0458205
-0.0790864 0.440109 0.0499955
-0.0747966 0.438946 0.0533296
-0.0699511 0.438377 0.0563476
-0.065776 0.438243 0.0579386
-0.0610718 0.437959 0.0598595
-0.0566956 0.437322 0.0605218
-0.0521618 0.436899 0.0611027
-0.0481193 0.436679 0.0636106
-0.0437082 0.436506 0.0640221
-0.0392663 0.436215 0.0651001
-0.0348985 0.436239 0.0653346
-0.0303374 0.436085 0.0671977
-0.0260116 0.435568 0.0675989
-0.0219546 0.435889 0.0680106
-0.0174187 0.435398 0.0696597
-0.0131503 0.435145 0.0699042
-0.00904872 0.435121 0.0693324
-0.00443979 0.434891 0.0701748
0.00033125 0.435071 0.0703294
0.00467449 0.435165 0.0698724
0.00897957 0.435176 0.0704916
0.0128383 0.43506 0.0707278
0.0172996 0.435131 0.070374
0.0216172 0.435246 0.0699844
0.0264287 0.435185 0.0704083
0.0307038 0.435738 0.0684097
0.0345497 0.435593 0.0681858
0.0392416 0.435809 0.0674319
0.043589 0.436374 0.0661466
0.0483048 0.436405 0.0640416
0.0526036 0.43676 0.0628239
0.0570749 0.437379 0.0615124
0.061141 0.437192 0.0607401
0.0655061 0.437849 0.0580596
0.0701367 0.437823 0.0575484
0.0747007 0.438945 0.0544116
0.0789404 0.439518 0.0510064
0.083361 0.439861 0.0486813
0.0883928 0.440758 0.0442165
0.093375 0.442526 0.0379249
0.0975842 0.443284 0.0337497
0.102098 0.444335 0.0290029
0.107005 0.445928 0.0231042
0.112102 0.448062 0.0154321
0.117035 0.450421 0.00554609
0.123432 0.455569 -0.0210011
-0.113819 0.459265 -0.015404
-0.108044 0.454407 0.00424337
-0.10371 0.452458 0.0141734
-0.0983872 0.450265 0.022794
-0.0934856 0.448901 0.0298994
-0.0882626 0.447242 0.036287
-0.0836257 0.445979 0.0422219
-0.0794351 0.445185 0.0461528
-0.0744915 0.444009 0.0505767
-0.0703904 0.443323 0.0545031
-0.0654631 0.442633 0.0573096
-0.0614336 0.442174 0.0596328
-0.0568347 0.441744 0.0610528
-0.0526492 0.441435 0.0625485
-0.0479624 0.441037 0.0642877
-0.0433328 0.440745 0.0651824
-0.0393748 0.440522 0.0661397
-0.034986 0.440094 0.0668086
-0.0300354 0.439754 0.0687032
-0.0261635 0.440091 0.0682869
-0.0216513 0.439703 0.0703341
-0.0172886 0.439057 0.0709877
-0.0134372 0.439614 0.0710357
-0.00869857 0.439194 0.0722589
-0.00435861 0.439523 0.0716916
8.50378e-06 0.4392 0.0720305
0.00470086 0.438959 0.0733045
0.00874915 0.43912 0.0722533
0.0131202 0.439163 0.0722659
0.0172898 0.439005 0.0724446
0.0220219 0.439202 0.0718584
0.0261108 0.439452 0.0715355
0.0304803 0.43963 0.0707059
0.0349156 0.439487 0.0688272
0.0394447 0.440194 0.0676386
0.0436714 0.440354 0.0664092
0.0481394 0.440158 0.0663366
0.052572 0.440896 0.0640635
0.0567655 0.441138 0.0628129
0.0613863 0.441472 0.06187
0.0656295 0.442324 0.0577791
0.0701666 0.443345 0.0548632
0.0744602 0.443543 0.0519071
0.0789153 0.444239 0.0487888
0.0837904 0.445473 0.0441687
0.0884291 0.446087 0.0396481
0.0929648 0.447461 0.0347142
0.0974424 0.448835 0.0297348
0.102536 0.450455 0.0231059
0.106886 0.451273 0.0181485
0.112289 0.453346 0.00990355
0.117267 0.455947 -0.0010004
0.123793 0.463197 -0.0336399
-0.113823 0.46535 -0.0230262
-0.108248 0.460832 -0.00228572
-0.103071 0.457695 0.0100812
-0.0983342 0.455459 0.0181367
-0.0934762 0.454082 0.0256684
-0.0883823 0.452542 0.0318918
-0.0840664 0.45167 0.0365189
-0.0798394 0.451388 0.039858
-0.0752185 0.450288 0.0449024
-0.0704349 0.448774 0.0498937
-0.0655919 0.447646 0.0543817
-0.0609992 0.447807 0.0565895
-0.0569198 0.446393 0.0603877
-0.0522686 0.445894 0.0612446
-0.0479613 0.445474 0.0634485
-0.0436278 0.445199 0.0652428
-0.0389731 0.444822 0.0656993
-0.035183 0.44508 0.0661651
-0.0306464 0.444916 0.0670322
-0.0261688 0.444114 0.0693058
-0.0219807 0.443689 0.0712812
-0.0175191 0.443821 0.0706449
-0.0129611 0.443519 0.0722743
-0.00852382 0.443378 0.0726969
-0.00431298 0.44321 0.0735923
4.06382e-05 0.442871 0.0740231
0.00449993 0.443625 0.072991
0.00918724 0.443318 0.0730543
0.0127559 0.443181 0.0735599
0.0170924 0.443434 0.0727807
0.0218559 0.443312 0.0724087
0.0259272 0.44366 0.0716116
0.0305836 0.443651 0.0708922
0.0348856 0.444087 0.0697993
0.0393187 0.443942 0.0693464
0.0434985 0.444946 0.0668088
0.0480002 0.444828 0.0661291
0.0522346 0.44506 0.0644659
0.0570753 0.445251 0.0623256
0.0612383 0.446288 0.0597438
0.0656622 0.44752 0.0549511
0.0703643 0.448175 0.0527489
0.0746445 0.448652 0.0492615
0.0791735 0.449637 0.0451983
0.0837981 0.451031 0.0401337
0.0887901 0.451691 0.0357302
0.0934435 0.453425 0.029108
0.0978539 0.454528 0.0245146
0.102818 0.455772 0.0184478
0.108163 0.457226 0.0108361
0.112532 0.459455 0.00289321
0.117958 0.462432 -0.0115263
-0.11479 0.472669 -0.0343959
-0.1086 0.466449 -0.00926518
-0.103472 0.463927 0.00399458
-0.0986764 0.46182 0.0125011
