ply
format ascii 1.0
element vertex 1658
property float x
property float y
property float z
end_header
0.0119378 -0.235883 0.225102
0.0160201 -0.235743 0.226644
0.0199689 -0.235666 0.228354
0.023918 -0.235477 0.229527
0.0278845 -0.235602 0.23109
0.0319385 -0.235094 0.232967
0.0356605 -0.234529 0.235701
0.03939 -0.234485 0.23725
0.0438738 -0.234048 0.238881
0.0474341 -0.234274 0.240263
0.0516174 -0.233957 0.242289
0.0553331 -0.234071 0.243793
0.0595465 -0.233629 0.245965
0.0630975 -0.233249 0.246364
0.0668715 -0.233172 0.248399
0.0710745 -0.232728 0.249758
0.0749108 -0.232653 0.250302
0.0788587 -0.232518 0.25229
0.0829636 -0.232382 0.252806
0.0865968 -0.232244 0.253156
0.0909503 -0.232427 0.252887
0.0945351 -0.232633 0.253126
0.0988313 -0.232765 0.252221
0.10223 -0.232266 0.253013
0.106619 -0.23251 0.252699
0.110434 -0.233044 0.250799
0.114524 -0.232748 0.250469
0.118673 -0.233149 0.247179
0.122316 -0.233559 0.24665
0.127198 -0.233944 0.240763
0.131591 -0.234614 0.234553
0.135865 -0.236418 0.227189
0.140319 -0.236995 0.218088
0.146078 -0.238382 0.206292
0.15025 -0.239754 0.198475
0.155328 -0.241053 0.188519
0.16035 -0.2426 0.177435
0.16551 -0.244597 0.16396
0.175803 -0.252871 0.1019
0.18088 -0.25343 0.0932813
0.185892 -0.254556 0.0839785
0.191826 -0.257022 0.0677177
0.1972 -0.258493 0.0543336
-0.255537 -0.255701 0.0473359
-0.248535 -0.25329 0.0641115
-0.243307 -0.251917 0.0727731
-0.238001 -0.251077 0.0800953
-0.233223 -0.250538 0.086121
-0.228014 -0.249419 0.091766
-0.223844 -0.249215 0.0942038
-0.218531 -0.248813 0.0994809
-0.213533 -0.248132 0.103632
-0.20925 -0.247535 0.106082
-0.205124 -0.247742 0.108174
-0.199804 -0.246613 0.112838
-0.195433 -0.245988 0.116545
-0.190802 -0.245815 0.119667
-0.186532 -0.245438 0.121288
-0.181976 -0.245281 0.123736
-0.177322 -0.245037 0.127004
-0.172859 -0.244708 0.130128
-0.16832 -0.244401 0.133464
-0.164241 -0.243601 0.136375
-0.159532 -0.243074 0.138512
-0.155305 -0.243144 0.141257
-0.150799 -0.242791 0.143357
-0.146416 -0.242534 0.14631
-0.141778 -0.24224 0.148374
-0.137575 -0.24197 0.150679
-0.133342 -0.24192 0.153748
-0.129041 -0.241517 0.156594
-0.124496 -0.24111 0.159429
-0.119952 -0.240291 0.161884
-0.115527 -0.240097 0.16403
-0.112005 -0.239764 0.166006
-0.107602 -0.239719 0.168121
-0.103526 -0.239293 0.16996
-0.0990747 -0.2389 0.172951
-0.0942228 -0.238399 0.175945
-0.0902419 -0.238113 0.177882
-0.0865299 -0.238668 0.179379
-0.0818833 -0.237452 0.183026
-0.0780325 -0.237054 0.185018
-0.0737531 -0.237107 0.187028
-0.0694584 -0.236664 0.190158
-0.0653615 -0.236834 0.192191
-0.0614403 -0.236123 0.19465
-0.0568241 -0.236011 0.195452
-0.0525935 -0.235579 0.19796
-0.0486157 -0.235161 0.200503
-0.0449152 -0.235325 0.20154
-0.0403874 -0.234896 0.204276
-0.0361081 -0.234305 0.206578
-0.0320713 -0.23448 0.207923
-0.0281916 -0.234461 0.20948
-0.0243795 -0.234443 0.210541
-0.0204364 -0.233975 0.212395
-0.0159653 -0.234275 0.213711
-0.0121104 -0.233863 0.215258
-0.008225 -0.233382 0.216735
-0.00362992 -0.233122 0.218884
-0.000231135 -0.233119 0.219558
0.0039989 -0.23252 0.221735
0.00838805 -0.232417 0.223623
0.0120088 -0.232055 0.225394
0.0163616 -0.231351 0.228215
0.0199354 -0.231667 0.228777
0.0240635 -0.231366 0.229783
0.0278363 -0.231248 0.232314
0.0318614 -0.231247 0.233734
0.0353591 -0.230729 0.235577
0.0393897 -0.230796 0.237564
0.0438507 -0.230166 0.239109
0.0474422 -0.229978 0.240095
0.0514031 -0.229799 0.243647
0.0556033 -0.229582 0.244777
0.0591423 -0.229646 0.245916
0.063141 -0.229297 0.247777
0.067136 -0.229084 0.249908
0.0708891 -0.228511 0.250694
0.0748917 -0.228399 0.25264
0.0786892 -0.228584 0.25254
0.0827639 -0.22843 0.253672
0.0866144 -0.228625 0.253733
0.0906081 -0.228383 0.253189
0.094504 -0.228809 0.253101
0.0985449 -0.228181 0.25387
0.102594 -0.228412 0.253478
0.106724 -0.228355 0.252247
0.110045 -0.228553 0.25194
0.114162 -0.229138 0.250498
0.118601 -0.229029 0.249373
0.122728 -0.229556 0.246224
0.127131 -0.23024 0.239817
0.130933 -0.230667 0.235911
0.136049 -0.231982 0.226229
0.140841 -0.233454 0.21624
0.145562 -0.234564 0.206897
0.1507 -0.236074 0.196135
0.155705 -0.237305 0.185435
0.16051 -0.238796 0.175772
0.16633 -0.240704 0.158717
0.176589 -0.249849 0.0912706
0.181623 -0.251143 0.0825807
0.187367 -0.252999 0.0659267
0.194587 -0.256539 0.0390923
-0.255148 -0.25034 0.0511459
-0.248165 -0.248602 0.0666965
-0.242919 -0.247293 0.0749973
-0.237736 -0.246761 0.0822777
-0.23273 -0.245803 0.0883107
-0.22781 -0.244773 0.0932064
-0.22275 -0.244759 0.0968194
-0.218778 -0.244345 0.0997572
-0.213486 -0.243558 0.104594
-0.209143 -0.243195 0.107074
-0.204277 -0.242643 0.11142
-0.200183 -0.242797 0.113514
-0.195181 -0.241741 0.117611
-0.190715 -0.241813 0.120557
-0.186278 -0.241205 0.122172
-0.181941 -0.240921 0.125637
-0.176803 -0.240097 0.129318
-0.172946 -0.23982 0.131961
-0.167554 -0.239542 0.135434
-0.164017 -0.239513 0.136989
-0.159446 -0.239013 0.140036
-0.155198 -0.238595 0.141954
-0.150477 -0.238744 0.144711
-0.146707 -0.23835 0.147331
-0.141847 -0.237975 0.149743
-0.137363 -0.237979 0.152028
-0.133116 -0.23734 0.154588
-0.128819 -0.236412 0.156837
-0.124798 -0.236736 0.15988
-0.120359 -0.236153 0.162028
-0.115847 -0.235898 0.163849
-0.111665 -0.235631 0.166375
-0.107253 -0.235299 0.170137
-0.103055 -0.234661 0.17112
-0.0991699 -0.234689 0.173681
-0.0944395 -0.23434 0.176579
-0.0905356 -0.234461 0.177896
-0.0861538 -0.234042 0.181173
-0.0819539 -0.233693 0.183748
-0.0778664 -0.233259 0.185354
-0.0735601 -0.232743 0.188279
-0.0691871 -0.232483 0.190583
-0.0650553 -0.232471 0.192531
-0.0611643 -0.232228 0.194939
-0.0572781 -0.231617 0.196903
-0.0530384 -0.231407 0.199389
-0.0487214 -0.231485 0.200451
-0.044614 -0.230836 0.202599
-0.0406732 -0.2306 0.20432
-0.0358983 -0.230756 0.206164
-0.032555 -0.230641 0.207956
-0.0282681 -0.230303 0.209851
-0.0242204 -0.229998 0.211121
-0.0200606 -0.229432 0.213624
-0.0163215 -0.229499 0.214139
-0.012201 -0.229816 0.215318
-0.0079489 -0.229085 0.218297
-0.00408953 -0.229029 0.219379
6.12749e-05 -0.228433 0.221415
0.00373686 -0.22835 0.222149
0.00818451 -0.228293 0.224505
0.011732 -0.2278 0.225248
0.0159297 -0.227757 0.227483
0.0197486 -0.228036 0.228578
0.0242302 -0.227658 0.231561
0.0279344 -0.226988 0.233615
0.0319496 -0.227145 0.233655
0.0356385 -0.226828 0.236501
0.0394152 -0.226509 0.237241
0.0435927 -0.226444 0.240296
0.047543 -0.225772 0.241421
0.0515403 -0.22575 0.243281
0.0553614 -0.225585 0.244946
0.0588796 -0.225099 0.246939
0.0630984 -0.225212 0.248636
0.0674046 -0.225188 0.248769
0.0713401 -0.224649 0.250675
0.0746005 -0.224622 0.251599
0.0787176 -0.224746 0.252622
0.0830055 -0.22469 0.253607
0.086534 -0.224432 0.254737
0.0904323 -0.2244 0.255054
0.0943819 -0.22428 0.255845
0.0986416 -0.224038 0.254099
0.102279 -0.22481 0.254665
0.106188 -0.224701 0.25243
0.110198 -0.22469 0.252613
0.114522 -0.224797 0.25124
0.118351 -0.224918 0.248588
0.122693 -0.225376 0.246398
0.127123 -0.226161 0.240114
0.131873 -0.22707 0.233311
0.13609 -0.227815 0.225462
0.140793 -0.229229 0.21642
0.145774 -0.230619 0.205836
0.150354 -0.231848 0.195775
0.155196 -0.233114 0.186775
0.160296 -0.234617 0.17562
0.166529 -0.236783 0.156511
0.177691 -0.246868 0.0774565
0.183013 -0.249183 0.0635905
0.189911 -0.252195 0.0401856
0.199219 -0.257571 -0.00461674
-0.254529 -0.245538 0.0551851
-0.247616 -0.24375 0.0691583
-0.243088 -0.243189 0.0760956
-0.237438 -0.242032 0.0836248
-0.233071 -0.24118 0.088747
-0.227891 -0.240452 0.0946077
-0.223218 -0.239894 0.0989102
-0.218678 -0.239878 0.101545
-0.213178 -0.239192 0.106519
-0.208983 -0.239008 0.108929
-0.204118 -0.238293 0.112282
-0.199873 -0.238416 0.115201
-0.195196 -0.237911 0.117946
-0.190549 -0.237009 0.121562
-0.186098 -0.237149 0.124407
-0.181394 -0.236152 0.127687
-0.177043 -0.236129 0.128946
-0.172708 -0.235467 0.132921
-0.168048 -0.2353 0.135234
-0.163899 -0.234996 0.138509
-0.159333 -0.234739 0.140573
-0.155021 -0.234453 0.142445
-0.150454 -0.234385 0.145395
-0.146415 -0.233909 0.147408
-0.141959 -0.233579 0.150137
-0.137555 -0.233478 0.151933
-0.133154 -0.233093 0.15422
-0.128671 -0.232526 0.157718
-0.124549 -0.232602 0.160655
-0.120188 -0.232075 0.163016
-0.116191 -0.231983 0.164489
-0.111645 -0.231629 0.167141
-0.107866 -0.231381 0.168467
-0.103031 -0.230416 0.171955
-0.0987853 -0.230691 0.173944
-0.0944757 -0.230118 0.176687
-0.0905699 -0.230246 0.178572
-0.085915 -0.229701 0.181627
-0.0821336 -0.22931 0.183804
-0.077372 -0.229268 0.186701
-0.0731531 -0.22823 0.190057
-0.0693356 -0.22852 0.190219
-0.065237 -0.22814 0.192668
-0.0610555 -0.228236 0.195469
-0.0568955 -0.227626 0.197775
-0.0525798 -0.227286 0.199833
-0.0487606 -0.226734 0.201654
-0.0443737 -0.227105 0.203592
-0.0399767 -0.226605 0.205684
-0.0367963 -0.225912 0.207828
-0.0322035 -0.226445 0.208701
-0.0282138 -0.225711 0.211239
-0.0245325 -0.22596 0.212746
-0.0198909 -0.225745 0.21312
-0.0159748 -0.225195 0.214824
-0.011916 -0.225033 0.216928
-0.00790214 -0.224945 0.217922
-0.00399791 -0.224931 0.219723
-4.64107e-05 -0.224354 0.222276
0.00387881 -0.224465 0.222849
0.00806925 -0.224438 0.225043
0.0118246 -0.224061 0.226273
0.0161424 -0.223711 0.22782
0.0201113 -0.223717 0.229629
0.0239667 -0.223293 0.230952
0.0280289 -0.223038 0.233019
0.0320906 -0.223121 0.234635
0.0356463 -0.223109 0.236998
0.0401336 -0.222702 0.238832
0.043345 -0.222097 0.240518
0.0475426 -0.221512 0.242413
0.0510648 -0.221616 0.2435
0.0552081 -0.221524 0.246001
0.0591517 -0.221429 0.247077
0.063019 -0.221018 0.248657
0.0670677 -0.220941 0.249187
0.0709637 -0.220946 0.25143
0.075038 -0.220816 0.25238
0.0789161 -0.220642 0.253318
0.0829323 -0.22053 0.253334
0.0864981 -0.220382 0.254887
0.0907953 -0.220723 0.254498
0.0947297 -0.219981 0.254628
0.0986159 -0.220377 0.254499
0.102241 -0.220655 0.25406
0.105898 -0.2203 0.253906
0.110198 -0.220948 0.253016
0.114378 -0.220705 0.251666
0.118605 -0.221524 0.24825
0.122945 -0.221805 0.244961
0.127154 -0.222053 0.24015
0.131497 -0.223035 0.234421
0.136043 -0.224189 0.225223
0.141033 -0.225815 0.214344
0.145449 -0.226814 0.205905
0.150581 -0.227634 0.195487
0.155483 -0.229534 0.185423
0.160947 -0.231208 0.171968
0.166829 -0.23303 0.15411
0.179032 -0.244814 0.0620115
0.185318 -0.246941 0.0436169
0.191178 -0.248949 0.0279726
0.20054 -0.255021 -0.0204365
-0.254448 -0.240683 0.0568517
-0.247955 -0.239682 0.0702543
-0.24287 -0.238705 0.0776263
-0.237929 -0.237569 0.0849252
-0.232578 -0.236735 0.0912536
-0.227858 -0.236366 0.0950375
-0.222941 -0.235841 0.0989285
-0.218079 -0.235304 0.102265
-0.213636 -0.23499 0.106577
-0.208858 -0.23407 0.110843
-0.204324 -0.234153 0.113514
-0.19944 -0.233571 0.116713
-0.19515 -0.233249 0.119775
-0.19071 -0.233155 0.122308
-0.186203 -0.232706 0.124049
-0.182145 -0.232577 0.127132
-0.176785 -0.231775 0.131123
-0.172617 -0.231737 0.133721
-0.168388 -0.231034 0.135664
-0.163541 -0.231357 0.138976
-0.159503 -0.230708 0.141963
-0.154619 -0.230456 0.14389
-0.149858 -0.229984 0.146266
-0.146284 -0.229427 0.148753
-0.14201 -0.229687 0.150103
-0.137587 -0.228965 0.153537
-0.132801 -0.22873 0.155961
-0.128602 -0.228467 0.15809
-0.125043 -0.228289 0.16112
-0.12016 -0.227672 0.162595
-0.115766 -0.227418 0.165757
-0.111413 -0.226946 0.167747
-0.107622 -0.226586 0.169345
-0.103067 -0.226486 0.172032
-0.0986993 -0.226189 0.174355
-0.0946304 -0.226018 0.177986
-0.0903371 -0.225969 0.179786
-0.0861792 -0.225344 0.182751
-0.081774 -0.225215 0.184891
-0.0777653 -0.224817 0.187565
-0.0732933 -0.22446 0.189529
-0.0692238 -0.22433 0.192029
-0.0651178 -0.224378 0.194337
-0.0610468 -0.223867 0.196427
-0.0568031 -0.223798 0.198248
-0.0525665 -0.223632 0.200466
-0.0489526 -0.222726 0.202556
-0.0444472 -0.222708 0.204239
-0.040103 -0.222764 0.20566
-0.0361932 -0.222381 0.208141
-0.0322515 -0.222142 0.209447
-0.0283459 -0.221807 0.211702
-0.0240663 -0.221321 0.212904
-0.01967 -0.221424 0.214691
-0.0160251 -0.221367 0.21635
-0.0120196 -0.22133 0.217393
-0.00795251 -0.220979 0.219153
-0.00394802 -0.220426 0.2203
0.000210084 -0.220753 0.221681
0.00383097 -0.220274 0.223816
0.00789189 -0.220299 0.225149
0.0121481 -0.219675 0.226954
0.0158065 -0.219658 0.227962
0.019964 -0.219291 0.231008
0.02364 -0.219242 0.231975
0.0277457 -0.219256 0.233802
0.0316524 -0.219245 0.234951
0.0356015 -0.21822 0.236884
0.0397643 -0.217896 0.238886
0.0436339 -0.218426 0.241341
0.0474958 -0.217924 0.243191
0.0515803 -0.217941 0.243724
0.0555012 -0.217523 0.246014
0.0593348 -0.217405 0.247228
0.0629486 -0.217084 0.249619
0.0674351 -0.216933 0.251068
0.0707566 -0.217014 0.252309
0.0748919 -0.216679 0.253339
0.0786092 -0.216658 0.254006
0.0827838 -0.216466 0.254302
0.0866166 -0.216571 0.254662
0.0904905 -0.216247 0.255199
0.094352 -0.216481 0.254625
0.0984591 -0.2165 0.254897
0.102239 -0.216194 0.254814
0.106259 -0.216466 0.254531
0.110476 -0.216955 0.25266
0.114527 -0.216821 0.251305
0.118934 -0.217294 0.248696
0.122771 -0.217418 0.245947
0.127004 -0.218119 0.241823
0.131483 -0.219331 0.233377
0.1365 -0.220322 0.223347
0.140637 -0.221405 0.215474
0.145859 -0.222708 0.203921
0.150581 -0.224129 0.194333
0.155211 -0.225483 0.184312
0.160834 -0.226552 0.170836
0.166901 -0.229284 0.150722
0.179134 -0.24095 0.0589811
0.185789 -0.243597 0.0385079
0.19132 -0.24497 0.0229948
0.201542 -0.251673 -0.0308731
-0.253725 -0.23599 0.0609981
-0.247791 -0.234917 0.0719219
-0.242295 -0.233467 0.0801042
-0.23706 -0.232729 0.0874178
-0.232729 -0.23259 0.0913143
-0.228031 -0.232155 0.0957222
-0.223081 -0.23169 0.100075
-0.21794 -0.231232 0.10403
-0.213562 -0.230193 0.107183
-0.208662 -0.229978 0.110401
-0.204138 -0.229877 0.113284
-0.199794 -0.228822 0.11714
-0.194777 -0.229135 0.120315
-0.190614 -0.228745 0.123111
-0.185716 -0.227928 0.1265
-0.182019 -0.228105 0.128023
-0.17744 -0.227712 0.131401
-0.17242 -0.227486 0.133935
-0.168398 -0.227027 0.136979
-0.163499 -0.226362 0.139848
-0.15913 -0.226298 0.142473
-0.154651 -0.225974 0.144675
-0.150633 -0.22569 0.146897
-0.146102 -0.225033 0.149556
-0.141981 -0.225008 0.152195
-0.137536 -0.224682 0.154056
-0.132702 -0.224615 0.157676
-0.128894 -0.22403 0.158941
-0.124303 -0.223699 0.161765
-0.119741 -0.223558 0.164304
-0.115451 -0.223141 0.165844
-0.111173 -0.223014 0.168634
-0.107511 -0.222957 0.170591
-0.103141 -0.222839 0.173288
-0.0988882 -0.222207 0.175576
-0.0945982 -0.222264 0.177112
-0.090623 -0.221458 0.180188
-0.0862569 -0.221527 0.182136
-0.0818858 -0.221326 0.186247
-0.0779637 -0.220473 0.188694
-0.0732769 -0.220202 0.190467
-0.0691984 -0.220239 0.192349
-0.0651435 -0.21968 0.194715
-0.0610551 -0.219971 0.196938
-0.0571587 -0.219483 0.198688
-0.0528683 -0.218935 0.200619
-0.0487157 -0.218855 0.203153
-0.0441978 -0.218637 0.205769
-0.0403395 -0.218255 0.207326
-0.0362998 -0.21813 0.208688
-0.0323752 -0.218116 0.210338
-0.028409 -0.217433 0.212269
-0.0240915 -0.217907 0.213529
-0.0201745 -0.217216 0.214789
-0.0162898 -0.217064 0.217235
-0.0119258 -0.216912 0.218704
-0.00845578 -0.216665 0.220555
-0.00404873 -0.216755 0.220984
-0.00039517 -0.216841 0.221604
0.00411987 -0.21617 0.224414
0.00774395 -0.216143 0.225208
0.0120447 -0.216061 0.227339
0.0159864 -0.215497 0.229486
0.0201842 -0.215574 0.230822
0.0234985 -0.215089 0.232775
0.0277347 -0.214816 0.234741
0.0315241 -0.214882 0.235258
0.0359592 -0.214246 0.238411
0.0401814 -0.214402 0.240344
0.043901 -0.214251 0.241241
0.0475551 -0.21357 0.243289
0.0515345 -0.213643 0.244654
0.0551364 -0.213433 0.246898
0.0591999 -0.213277 0.24808
0.0632714 -0.213408 0.249446
0.0672401 -0.213248 0.252208
0.0712184 -0.213334 0.252873
0.0752208 -0.212752 0.253341
0.0786404 -0.212404 0.254811
0.0824759 -0.212265 0.255755
0.0863449 -0.212633 0.255092
0.0907995 -0.212177 0.255797
0.0948146 -0.212208 0.256067
0.0984051 -0.212576 0.254995
0.102117 -0.212161 0.255427
0.106394 -0.212821 0.254048
0.110376 -0.212693 0.253858
0.114284 -0.21243 0.251851
0.118301 -0.213095 0.250262
0.122843 -0.213713 0.246044
0.127246 -0.214318 0.239509
0.131471 -0.215111 0.233459
0.136461 -0.216168 0.223249
0.141312 -0.217479 0.212978
0.145795 -0.218708 0.203092
0.150876 -0.220241 0.193735
0.155657 -0.221415 0.183068
0.161087 -0.22286 0.168832
0.16675 -0.225596 0.14871
0.179905 -0.237007 0.0531427
0.185977 -0.238869 0.0370172
0.192354 -0.24137 0.0172406
-0.253225 -0.231669 0.063761
-0.247178 -0.230289 0.0746171
-0.242255 -0.229359 0.0816513
-0.23683 -0.228459 0.0881695
-0.232243 -0.227771 0.0926816
-0.227565 -0.227391 0.097098
-0.222433 -0.226926 0.101487
-0.217743 -0.226757 0.105399
-0.213642 -0.226324 0.107974
-0.20888 -0.225785 0.111829
-0.204127 -0.225345 0.114325
-0.199385 -0.224917 0.118256
-0.194846 -0.224544 0.121194
-0.19017 -0.224165 0.123752
-0.186425 -0.223971 0.125777
-0.181087 -0.223349 0.13024
-0.177148 -0.22318 0.131646
-0.172258 -0.222815 0.13515
-0.167937 -0.222692 0.138054
-0.163716 -0.222233 0.140124
-0.159496 -0.22218 0.142217
-0.154508 -0.221655 0.14528
-0.150575 -0.221243 0.147605
-0.146252 -0.221467 0.149448
-0.141876 -0.22105 0.152442
-0.137529 -0.220662 0.155201
-0.133112 -0.220568 0.15726
-0.12856 -0.220064 0.159694
-0.124642 -0.219348 0.16198
-0.120133 -0.2197 0.16306
-0.115936 -0.219917 0.166413
-0.111941 -0.219235 0.167552
-0.107343 -0.218705 0.171276
-0.10278 -0.21822 0.173853
-0.0991418 -0.218093 0.175649
-0.0943657 -0.217803 0.178604
-0.0905082 -0.217163 0.180713
-0.0857855 -0.216778 0.184806
-0.0824202 -0.216581 0.186008
-0.0776942 -0.216677 0.18762
-0.0732522 -0.216209 0.191635
-0.0693499 -0.21546 0.192922
-0.0647356 -0.215929 0.195756
-0.0612103 -0.215153 0.197493
-0.0572857 -0.215224 0.198856
-0.0527103 -0.214861 0.201093
-0.0488634 -0.214947 0.203843
-0.0444614 -0.214546 0.205336
-0.0401794 -0.214346 0.20745
-0.0365505 -0.214553 0.208178
-0.0322892 -0.213727 0.211002
-0.0280877 -0.213317 0.213011
-0.0238749 -0.21342 0.213674
-0.0200971 -0.213665 0.214821
-0.0161051 -0.213286 0.217447
-0.0121816 -0.212791 0.218447
-0.00797063 -0.212805 0.220037
-0.00396616 -0.212466 0.222629
-0.000112495 -0.212527 0.222829
0.00451109 -0.212309 0.224809
0.00815514 -0.212037 0.226335
0.0120223 -0.21216 0.227524
0.0158149 -0.211872 0.228872
0.0198447 -0.211065 0.230987
0.0239571 -0.211275 0.23312
0.0277156 -0.210961 0.233802
0.0321365 -0.21072 0.236413
0.0359274 -0.210369 0.238775
0.03967 -0.210466 0.239904
0.0435202 -0.210341 0.241582
0.0474461 -0.209719 0.2435
0.0515926 -0.210122 0.245008
0.0548948 -0.209628 0.246779
0.0588615 -0.20945 0.248192
0.063143 -0.208899 0.250507
0.0670735 -0.208817 0.251028
0.0712067 -0.208709 0.252949
0.0752291 -0.209069 0.253435
0.0785108 -0.208322 0.256126
0.0825738 -0.20845 0.255234
0.086297 -0.208225 0.256891
0.0905618 -0.208289 0.255849
0.09423 -0.208467 0.255236
0.0985228 -0.208452 0.256051
0.102397 -0.208739 0.255181
0.106345 -0.208584 0.255412
0.110464 -0.208766 0.253511
0.114292 -0.209112 0.251366
0.118594 -0.209203 0.249443
0.122827 -0.209961 0.245806
0.127197 -0.210239 0.239808
0.131442 -0.211147 0.232822
0.135941 -0.21221 0.223935
0.14084 -0.213655 0.213568
0.146139 -0.214463 0.202175
0.150976 -0.216381 0.191289
0.155966 -0.216953 0.181044
0.161555 -0.219378 0.165643
0.17464 -0.231472 0.0661498
0.180345 -0.233123 0.0516371
0.186076 -0.234711 0.0351757
0.192053 -0.237133 0.017199
-0.252664 -0.226701 0.0663065
-0.247135 -0.225877 0.0758458
-0.242325 -0.224962 0.0830995
-0.237093 -0.224478 0.088143
-0.231703 -0.223458 0.0943284
-0.22719 -0.222946 0.099116
-0.222439 -0.222518 0.10294
-0.217921 -0.222109 0.106033
-0.213377 -0.222304 0.109067
-0.208525 -0.221376 0.113679
-0.20376 -0.221067 0.116088
-0.199454 -0.220685 0.11877
-0.19497 -0.220438 0.121671
-0.190971 -0.219761 0.123851
-0.185831 -0.219704 0.127876
-0.181276 -0.219524 0.130475
-0.176995 -0.21918 0.132411
-0.172199 -0.218668 0.135708
-0.167951 -0.218373 0.137856
-0.162966 -0.217774 0.142214
-0.159094 -0.21768 0.143262
-0.154748 -0.217409 0.146331
-0.15018 -0.216999 0.148967
-0.145792 -0.216688 0.151283
-0.141541 -0.216254 0.153593
-0.137404 -0.216591 0.155158
-0.133053 -0.216348 0.156571
-0.128558 -0.215888 0.159473
-0.124406 -0.215414 0.162895
-0.119899 -0.215167 0.165089
-0.116019 -0.214961 0.16714
-0.111435 -0.214963 0.169101
-0.107028 -0.214607 0.171959
-0.102951 -0.213878 0.174567
-0.0988034 -0.213267 0.176635
-0.0943848 -0.213617 0.178633
-0.0900741 -0.213241 0.181902
-0.0862931 -0.212894 0.183818
-0.0815919 -0.212514 0.18675
-0.0772738 -0.212004 0.189154
-0.0732225 -0.212193 0.190847
-0.0694852 -0.211844 0.193626
-0.0650504 -0.211654 0.19469
-0.0611539 -0.21124 0.198744
-0.0570621 -0.211213 0.199333
-0.0529464 -0.210624 0.202187
-0.0487845 -0.210626 0.203396
-0.0444854 -0.210292 0.205892
-0.0405689 -0.209942 0.207396
-0.0364356 -0.210402 0.208891
-0.0323243 -0.209845 0.211338
-0.0281768 -0.209621 0.213785
-0.0240535 -0.209291 0.21523
-0.0201895 -0.209057 0.216527
-0.0160077 -0.209247 0.216962
-0.0119194 -0.208682 0.21929
-0.00775381 -0.20832 0.220274
-0.00448749 -0.20862 0.222167
0.000360086 -0.208238 0.223165
0.00340037 -0.208198 0.224219
0.00814713 -0.207787 0.226099
0.0120928 -0.207779 0.228494
0.0159657 -0.207657 0.230243
0.0203122 -0.207251 0.231573
0.0239375 -0.207272 0.232283
0.0281146 -0.207006 0.234755
0.0313709 -0.206714 0.236687
0.0359262 -0.206726 0.238238
0.0398052 -0.20649 0.240495
0.0437342 -0.206075 0.2417
0.047714 -0.206049 0.243983
0.0517643 -0.205633 0.246655
0.0553663 -0.205466 0.248246
0.0590927 -0.20525 0.24915
0.0631828 -0.204879 0.251068
0.0669083 -0.204987 0.251644
0.0709103 -0.204445 0.25333
0.0746132 -0.20503 0.255245
0.078592 -0.204428 0.255191
0.0827425 -0.204646 0.255663
0.086684 -0.204289 0.257619
0.0901111 -0.204392 0.256379
0.0946284 -0.204244 0.2561
0.0985506 -0.204557 0.257024
0.102055 -0.20437 0.256567
0.106564 -0.204848 0.25585
0.110401 -0.204348 0.254516
0.114164 -0.204868 0.252153
0.118719 -0.204938 0.250192
0.122782 -0.205975 0.245299
0.127318 -0.206435 0.239396
0.131551 -0.207484 0.232157
0.136142 -0.208639 0.222925
0.140858 -0.209617 0.212192
0.145987 -0.21073 0.202181
0.150846 -0.212076 0.191537
0.156002 -0.21315 0.1795
0.161164 -0.215217 0.165608
0.17451 -0.226609 0.0653825
0.180156 -0.228688 0.0517977
0.18603 -0.230171 0.0350701
0.19267 -0.232815 0.0148211
-0.252863 -0.222541 0.0676081
-0.247271 -0.221274 0.0768108
-0.241933 -0.220521 0.0838518
-0.236881 -0.219676 0.0902939
-0.232043 -0.218817 0.0945715
-0.227201 -0.218852 0.100024
-0.222586 -0.217977 0.10273
-0.217702 -0.217537 0.10729
-0.213032 -0.217682 0.109954
-0.208503 -0.216507 0.113101
-0.20366 -0.216425 0.117091
-0.199215 -0.216372 0.120075
-0.194527 -0.216051 0.123377
-0.190089 -0.215493 0.124839
-0.185446 -0.215261 0.12859
-0.18147 -0.215441 0.130103
-0.176791 -0.214635 0.133513
-0.172422 -0.214574 0.135524
-0.167631 -0.21351 0.139273
-0.163295 -0.213725 0.141128
-0.159211 -0.213558 0.144418
-0.154623 -0.213334 0.146715
-0.150066 -0.213077 0.149892
-0.14609 -0.212607 0.151028
-0.141109 -0.212231 0.154195
-0.137291 -0.211653 0.156369
-0.13299 -0.211414 0.15828
-0.128548 -0.21157 0.161157
-0.124356 -0.21132 0.162654
-0.1199 -0.210617 0.165999
-0.115688 -0.210649 0.167366
-0.111453 -0.210696 0.169263
-0.107371 -0.21027 0.171428
-0.102796 -0.209936 0.175221
-0.0982715 -0.209716 0.176486
-0.093862 -0.209048 0.180258
-0.0901984 -0.20902 0.182038
-0.0862133 -0.208735 0.184675
-0.0821911 -0.208015 0.186668
-0.0774555 -0.208343 0.189226
-0.0735935 -0.207744 0.191967
-0.0691756 -0.207667 0.194665
-0.0650625 -0.207525 0.196292
-0.0606173 -0.207272 0.198041
-0.0568704 -0.206949 0.200385
-0.0527944 -0.206905 0.20256
-0.0485068 -0.206812 0.204385
-0.0446131 -0.206316 0.206856
-0.0409104 -0.206048 0.208176
-0.0363706 -0.206141 0.210598
-0.0321993 -0.206007 0.211886
-0.0280922 -0.205208 0.213762
-0.0241595 -0.205701 0.214095
-0.0200094 -0.205143 0.216664
-0.0158509 -0.205194 0.218414
-0.0121995 -0.204866 0.219577
-0.00789606 -0.204703 0.220442
-0.00444262 -0.204574 0.222314
-4.48745e-05 -0.203969 0.224367
0.00387696 -0.204261 0.22496
0.00807327 -0.203813 0.227643
0.012027 -0.203986 0.228486
0.0159306 -0.203874 0.229316
0.0200059 -0.202995 0.232362
0.0237694 -0.202758 0.233729
0.0278062 -0.202502 0.235439
0.0313369 -0.202654 0.237407
0.0358235 -0.202626 0.238823
0.0399442 -0.202725 0.241271
0.043534 -0.202144 0.242313
0.0474411 -0.20223 0.243996
0.0512143 -0.201791 0.246829
0.0554382 -0.20154 0.247068
0.0586166 -0.201122 0.249831
0.0628302 -0.201122 0.250675
0.067282 -0.200941 0.252214
0.0704526 -0.200452 0.254471
0.0749073 -0.200622 0.254983
0.078614 -0.200668 0.25587
0.0823629 -0.200469 0.256634
0.086403 -0.200324 0.256936
0.0903541 -0.200788 0.257232
0.0945474 -0.200314 0.257872
0.0982308 -0.200757 0.257153
0.102235 -0.200478 0.256633
0.106042 -0.200551 0.255865
0.110245 -0.20081 0.254203
0.114446 -0.201059 0.253923
0.118442 -0.201274 0.250552
0.122213 -0.201786 0.247267
0.127245 -0.202864 0.238374
0.131697 -0.202981 0.231554
0.136708 -0.204693 0.221394
0.141009 -0.20597 0.211566
0.146257 -0.206965 0.200611
0.150949 -0.208284 0.189903
0.156332 -0.209313 0.177314
0.161463 -0.21118 0.163364
0.175199 -0.222795 0.0630188
0.180124 -0.223804 0.0513589
0.18624 -0.225994 0.0353528
0.192038 -0.227946 0.016611
-0.252516 -0.217647 0.0694865
-0.24736 -0.217024 0.0773845
-0.24205 -0.216051 0.0846174
-0.236862 -0.215355 0.0899528
-0.232119 -0.215329 0.0953146
-0.226628 -0.214357 0.100314
-0.222309 -0.213826 0.104007
-0.217187 -0.213332 0.108736
-0.212614 -0.212877 0.111067
-0.207934 -0.212751 0.115479
-0.204119 -0.211757 0.1173
-0.199087 -0.211884 0.120174
-0.194633 -0.211558 0.123595
-0.189928 -0.211113 0.126645
-0.185222 -0.210689 0.130418
-0.181095 -0.210681 0.13253
-0.176478 -0.21052 0.134893
-0.172463 -0.21036 0.136887
-0.167981 -0.2098 0.139262
-0.163463 -0.209048 0.142389
-0.159235 -0.209383 0.144792
-0.154567 -0.208807 0.146882
-0.149884 -0.208619 0.149778
-0.146005 -0.208284 0.152968
-0.141716 -0.208342 0.153486
-0.137178 -0.207668 0.156792
-0.133124 -0.207559 0.158057
-0.128595 -0.207096 0.162138
-0.124205 -0.207207 0.16306
-0.120224 -0.206238 0.165838
-0.115835 -0.206468 0.168374
-0.111299 -0.206481 0.169942
-0.106598 -0.205995 0.17315
-0.103018 -0.205525 0.174975
-0.0989348 -0.205351 0.178211
-0.0942754 -0.20553 0.180046
-0.0903506 -0.20515 0.182518
-0.0859844 -0.205013 0.184096
-0.0821377 -0.204282 0.186639
-0.0779558 -0.204258 0.188948
-0.0734876 -0.203711 0.191732
-0.0692235 -0.203724 0.193848
-0.0646887 -0.203397 0.196546
-0.061416 -0.203119 0.199149
-0.0570176 -0.202677 0.200379
-0.0530092 -0.20316 0.202445
-0.0488469 -0.202458 0.204132
-0.0444729 -0.202123 0.206649
-0.040455 -0.201826 0.209411
-0.0364582 -0.201721 0.210298
-0.0321444 -0.201507 0.212367
-0.028194 -0.201677 0.213631
-0.023988 -0.201347 0.215722
-0.0198645 -0.200964 0.217304
-0.0155817 -0.20094 0.218038
-0.0122442 -0.200812 0.21916
-0.0078076 -0.20068 0.220586
-0.00389712 -0.200129 0.222422
-0.00023371 -0.200232 0.22418
0.00392093 -0.200168 0.225551
0.00776318 -0.199891 0.227773
0.0121059 -0.199846 0.229383
0.0160973 -0.199358 0.231265
0.0197296 -0.199001 0.232685
0.0234826 -0.199345 0.233433
0.0278537 -0.198955 0.236443
0.0317092 -0.198702 0.238019
0.0354796 -0.198558 0.239077
0.0397915 -0.19826 0.242213
0.0435171 -0.198327 0.243263
0.0475589 -0.197632 0.245884
0.0514718 -0.197987 0.246108
0.0550711 -0.197718 0.248796
0.0591281 -0.197505 0.249173
0.0629303 -0.197311 0.25127
0.0670047 -0.197014 0.253294
0.0707515 -0.196859 0.253786
0.0746142 -0.196967 0.255515
0.078283 -0.19661 0.255815
0.0826222 -0.196218 0.256709
0.0866739 -0.196806 0.25789
0.0904097 -0.196594 0.257254
0.0943402 -0.19673 0.257917
0.0983231 -0.196507 0.257543
0.101984 -0.196296 0.25724
0.106037 -0.1963 0.256736
0.110108 -0.196732 0.254678
0.114184 -0.197045 0.253737
0.118732 -0.197248 0.249821
0.122625 -0.197788 0.245837
0.12709 -0.198619 0.239669
0.132158 -0.1995 0.229028
0.136546 -0.200647 0.219942
0.141927 -0.202328 0.208473
0.146467 -0.202899 0.199589
0.151284 -0.204313 0.188091
0.156534 -0.205784 0.175922
0.161848 -0.207533 0.160932
0.174874 -0.218308 0.0650578
0.180803 -0.21988 0.0504539
0.186317 -0.221449 0.0349199
0.192948 -0.223939 0.0137993
-0.252892 -0.213776 0.068998
-0.247107 -0.212179 0.0789068
-0.241068 -0.211533 0.087235
-0.236785 -0.210966 0.0911707
-0.232223 -0.210402 0.0965518
-0.226859 -0.20978 0.101111
-0.221902 -0.209517 0.105182
-0.217239 -0.208759 0.10923
-0.21287 -0.208441 0.112926
-0.208444 -0.207897 0.114928
-0.203652 -0.208132 0.117796
-0.199086 -0.208005 0.12143
-0.1942 -0.207292 0.123865
-0.190157 -0.206937 0.126945
-0.185534 -0.206577 0.129653
-0.181075 -0.206263 0.132768
-0.17704 -0.206318 0.135858
-0.172031 -0.205974 0.138173
-0.167651 -0.205699 0.140192
-0.1636 -0.20496 0.143162
-0.15859 -0.204532 0.146474
-0.154795 -0.204931 0.148047
-0.149941 -0.204546 0.150814
-0.145951 -0.204225 0.152541
-0.141453 -0.203456 0.155596
-0.137278 -0.203858 0.157038
-0.132898 -0.202863 0.159822
-0.12862 -0.203284 0.161724
-0.123847 -0.203434 0.164268
-0.12075 -0.202453 0.16559
-0.115743 -0.202298 0.168934
-0.111362 -0.202114 0.17143
-0.107284 -0.201988 0.173462
-0.1031 -0.201349 0.175472
-0.098445 -0.201152 0.177425
-0.0943686 -0.201024 0.180303
-0.0901159 -0.200742 0.182663
-0.0858312 -0.200675 0.184878
-0.0816756 -0.2002 0.187755
-0.0776302 -0.200074 0.19036
-0.0736936 -0.199631 0.191817
-0.0694249 -0.199151 0.194731
-0.0650647 -0.199071 0.196393
-0.0609101 -0.199314 0.198948
-0.056779 -0.199129 0.200617
-0.0527778 -0.19866 0.203111
-0.0482968 -0.197916 0.206133
-0.0440937 -0.198189 0.207609
-0.0403856 -0.197461 0.209291
-0.0363219 -0.197439 0.210433
-0.0319599 -0.197152 0.21309
-0.0283157 -0.197464 0.214036
-0.0237263 -0.197098 0.216539
-0.020118 -0.196965 0.217554
-0.0163909 -0.19691 0.218442
-0.0120712 -0.196701 0.219369
-0.00813018 -0.196661 0.221387
-0.00407817 -0.196256 0.223679
-0.000118111 -0.196168 0.224397
0.00379757 -0.195929 0.226261
0.00786846 -0.195961 0.227756
0.0117872 -0.195688 0.22882
0.0155551 -0.19523 0.230413
0.0198407 -0.195371 0.233313
0.0237167 -0.195249 0.234801
0.0280166 -0.19479 0.23623
0.0320339 -0.194606 0.238564
0.0357797 -0.194494 0.239803
0.0397946 -0.194215 0.241472
0.0437277 -0.194036 0.243791
0.0474058 -0.194082 0.245604
0.0517071 -0.193416 0.247223
0.0554293 -0.193611 0.248742
0.0590633 -0.193279 0.250498
0.0629675 -0.193152 0.25179
0.067253 -0.193062 0.25353
0.0706613 -0.192883 0.255161
0.0750615 -0.192597 0.256128
0.079005 -0.192327 0.257612
0.0828018 -0.192349 0.257644
0.0864388 -0.192394 0.258202
0.0903628 -0.19239 0.258049
0.0945394 -0.192485 0.258126
0.0983616 -0.192491 0.258704
0.102053 -0.192467 0.2581
0.106387 -0.192655 0.257155
0.110811 -0.193233 0.254438
0.114 -0.192979 0.254077
0.118746 -0.193256 0.249743
0.122317 -0.193439 0.246994
0.1271 -0.19472 0.238326
0.131658 -0.195307 0.229788
0.136638 -0.19675 0.219157
0.14106 -0.197934 0.210315
0.14597 -0.19915 0.199135
0.151427 -0.200235 0.186767
0.156692 -0.201775 0.173415
0.16163 -0.203243 0.15967
0.174334 -0.213677 0.0661938
0.179587 -0.215206 0.0536308
0.185676 -0.216523 0.0374625
0.191455 -0.218965 0.0199921
-0.252179 -0.208454 0.0723658
-0.246849 -0.208081 0.0797217
-0.241539 -0.20744 0.086859
-0.236652 -0.206353 0.091593
-0.231768 -0.206199 0.0975436
-0.226637 -0.205491 0.102078
-0.222021 -0.205205 0.105793
-0.217411 -0.204481 0.109792
-0.212912 -0.204319 0.112977
-0.20821 -0.203841 0.115783
-0.203827 -0.203495 0.118487
-0.199193 -0.203343 0.121547
-0.194646 -0.203324 0.124554
-0.189773 -0.202784 0.127558
-0.185712 -0.202545 0.130341
-0.181128 -0.202199 0.132822
-0.177059 -0.201524 0.13515
-0.171994 -0.201597 0.139063
-0.167494 -0.201071 0.141469
-0.163208 -0.200698 0.144555
-0.158825 -0.2004 0.146122
-0.154097 -0.200421 0.148714
-0.150048 -0.199828 0.151812
-0.145336 -0.199675 0.154201
-0.141273 -0.199209 0.156429
-0.136718 -0.199463 0.159156
-0.132607 -0.199154 0.159843
-0.128636 -0.198812 0.162757
-0.124284 -0.19868 0.164411
-0.120068 -0.198673 0.167089
-0.115717 -0.19853 0.16896
-0.111249 -0.19828 0.171697
-0.107271 -0.197573 0.173913
-0.102896 -0.196919 0.175538
-0.0988133 -0.197378 0.178084
-0.0942162 -0.196662 0.180192
-0.0900128 -0.197287 0.183235
-0.0861078 -0.196387 0.185338
-0.0815369 -0.1964 0.187227
-0.0778352 -0.195867 0.190757
-0.0737121 -0.195661 0.192274
-0.0692284 -0.1955 0.194765
-0.0653599 -0.195182 0.196594
-0.0610283 -0.194922 0.199757
-0.0567477 -0.194502 0.201602
-0.0526545 -0.194612 0.203288
-0.0482627 -0.194411 0.206187
-0.0448598 -0.194247 0.207265
-0.0406668 -0.193979 0.208255
-0.0362959 -0.194005 0.21124
-0.0322431 -0.193223 0.213452
-0.027848 -0.193471 0.214214
-0.0240615 -0.193044 0.216514
-0.0203875 -0.19347 0.217366
-0.0159263 -0.192822 0.218483
-0.0117755 -0.192905 0.220814
-0.00795046 -0.192293 0.222271
-0.00416216 -0.192704 0.223441
9.03477e-05 -0.192453 0.225078
0.00413663 -0.191631 0.226216
0.00791447 -0.192365 0.22772
0.0122558 -0.191873 0.230356
0.0161548 -0.192228 0.230998
0.0198016 -0.190967 0.233799
0.0239887 -0.19147 0.234898
0.0274419 -0.190603 0.236628
0.0317359 -0.190612 0.238958
0.0357897 -0.190637 0.239921
0.0392777 -0.190153 0.241489
0.043541 -0.190256 0.243838
0.0477683 -0.189983 0.246647
0.0512282 -0.189988 0.247482
0.0552516 -0.189338 0.249234
0.05935 -0.189422 0.25101
0.0630738 -0.188949 0.252881
0.0672495 -0.189089 0.253657
0.0706519 -0.188901 0.255496
0.0749774 -0.189058 0.256778
0.0784166 -0.188595 0.257647
0.0824138 -0.188786 0.257767
0.0863725 -0.188734 0.25869
0.0901579 -0.188373 0.25936
0.0941162 -0.188592 0.258523
0.0981069 -0.188237 0.258512
0.102242 -0.188883 0.258275
0.106245 -0.188239 0.257676
0.110287 -0.188936 0.255775
0.114355 -0.189012 0.253612
0.118292 -0.189056 0.251278
0.122486 -0.189866 0.245475
0.126909 -0.19066 0.238478
0.132136 -0.192231 0.227606
0.136739 -0.192994 0.218141
0.141399 -0.193903 0.208288
0.146548 -0.195454 0.19659
0.151549 -0.196171 0.185337
0.157109 -0.198174 0.171889
0.161877 -0.199406 0.157727
0.174928 -0.209212 0.0652627
0.180674 -0.211158 0.0510893
0.18578 -0.21201 0.0371805
0.193253 -0.215463 0.0135992
-0.251789 -0.204274 0.0738192
-0.246612 -0.203208 0.0820427
-0.241617 -0.202755 0.0876522
-0.235963 -0.20202 0.0941026
-0.231502 -0.201653 0.0987797
-0.226462 -0.201264 0.102815
-0.222276 -0.20073 0.106339
-0.217363 -0.199954 0.110621
-0.212522 -0.199861 0.114427
-0.207928 -0.199302 0.117132
-0.203678 -0.199124 0.119202
-0.198798 -0.198917 0.123062
-0.194557 -0.198686 0.125558
-0.189989 -0.198485 0.128433
-0.185359 -0.198001 0.13089
-0.181109 -0.197594 0.134712
-0.176259 -0.197454 0.137235
-0.172165 -0.197286 0.139246
-0.167669 -0.196627 0.141776
-0.163428 -0.196616 0.144004
-0.158926 -0.19639 0.146507
-0.1544 -0.196714 0.148829
-0.149801 -0.19613 0.151722
-0.145643 -0.195837 0.154715
-0.141372 -0.195246 0.156757
-0.137644 -0.195026 0.157887
-0.132837 -0.194997 0.160178
-0.128439 -0.194735 0.162622
-0.124288 -0.194174 0.165075
-0.120074 -0.194046 0.168032
-0.115887 -0.193988 0.169353
-0.111365 -0.193928 0.171228
-0.107174 -0.193325 0.173308
-0.102575 -0.193416 0.176393
-0.0985886 -0.193093 0.17824
-0.0943378 -0.192905 0.180997
-0.0904526 -0.192533 0.182884
-0.0858925 -0.192299 0.18506
-0.0815771 -0.192431 0.187899
-0.0778963 -0.191627 0.191199
-0.0734388 -0.191624 0.192477
-0.0692304 -0.191433 0.194769
-0.0648651 -0.19153 0.197394
-0.0611154 -0.19104 0.199031
-0.0567869 -0.190651 0.202063
-0.0529122 -0.190468 0.204167
-0.048801 -0.190649 0.205316
-0.0443047 -0.189948 0.207902
-0.0402505 -0.189544 0.209602
-0.0363166 -0.189577 0.211503
-0.0325043 -0.189355 0.21205
-0.0286031 -0.189402 0.214476
-0.0239832 -0.188802 0.216661
-0.0201525 -0.188835 0.217528
-0.0158894 -0.188677 0.218839
-0.0118591 -0.188413 0.220526
-0.00787687 -0.188205 0.223047
-0.00401128 -0.188011 0.224513
-1.10002e-05 -0.188014 0.225461
0.00371462 -0.187748 0.226797
0.00795185 -0.187842 0.229088
0.0122124 -0.187722 0.229707
0.0159391 -0.187523 0.231956
0.0194673 -0.18692 0.233737
0.0239811 -0.186843 0.235039
0.0279062 -0.186784 0.237056
0.0318333 -0.186756 0.239772
0.0356121 -0.1867 0.240784
0.0393728 -0.186287 0.242458
0.0434745 -0.186239 0.244814
0.0475248 -0.185845 0.245714
0.0514988 -0.185658 0.24721
0.0550666 -0.185857 0.250026
0.0592623 -0.185217 0.251665
0.0628657 -0.185093 0.253065
0.0669028 -0.184968 0.254502
0.0710616 -0.185161 0.25483
0.0745631 -0.184818 0.256562
0.078409 -0.184126 0.258357
0.082171 -0.18453 0.258207
0.0862313 -0.184741 0.25924
0.0902794 -0.184601 0.259631
0.0943529 -0.184633 0.260768
0.0983054 -0.184971 0.258705
0.102117 -0.184721 0.258221
0.106109 -0.184395 0.257676
0.11002 -0.18487 0.256354
0.114152 -0.184889 0.253861
0.118551 -0.185698 0.250427
0.123193 -0.185849 0.24453
0.127152 -0.186566 0.237947
0.131825 -0.187939 0.228488
0.136582 -0.188785 0.218036
0.141166 -0.190328 0.207285
0.146089 -0.191213 0.196922
0.151503 -0.192234 0.184363
0.156572 -0.19372 0.172129
0.162243 -0.195835 0.154741
0.174201 -0.205096 0.0660931
0.180068 -0.206015 0.0526898
0.185811 -0.208218 0.0375044
0.19221 -0.209833 0.0185148
-0.251879 -0.199699 0.0744915
-0.246481 -0.198777 0.0824462
-0.241698 -0.198516 0.0883609
-0.236356 -0.197916 0.0941517
-0.231499 -0.196905 0.0992196
-0.2266 -0.196436 0.102917
-0.222216 -0.196614 0.107132
-0.21732 -0.196058 0.111568
-0.212612 -0.195597 0.11463
-0.208266 -0.195968 0.116586
-0.203606 -0.195017 0.120025
-0.198965 -0.194638 0.123192
-0.194192 -0.194318 0.125601
-0.189839 -0.193859 0.128667
-0.185826 -0.193976 0.13151
-0.181147 -0.193786 0.133886
-0.176361 -0.192918 0.137216
-0.172234 -0.19281 0.139668
-0.167224 -0.192275 0.143205
-0.163318 -0.192824 0.144665
-0.158871 -0.191973 0.14699
-0.154305 -0.19223 0.149397
-0.149716 -0.191516 0.153296
-0.145245 -0.191366 0.155656
-0.141745 -0.191544 0.156637
-0.137252 -0.191364 0.158891
-0.13271 -0.190515 0.162107
-0.128367 -0.190334 0.163283
-0.124009 -0.190183 0.167208
-0.119502 -0.189893 0.167683
-0.11528 -0.189797 0.170755
-0.111173 -0.189683 0.173823
-0.106664 -0.18932 0.175634
-0.103236 -0.188837 0.175719
-0.0984465 -0.189023 0.179305
-0.0944021 -0.18891 0.180515
-0.089816 -0.188306 0.183763
-0.0858078 -0.188218 0.186159
-0.0816333 -0.188021 0.188631
-0.0773206 -0.187618 0.191195
-0.0732844 -0.187292 0.193605
-0.0689352 -0.187346 0.195346
-0.0650269 -0.187622 0.196678
-0.0609667 -0.187114 0.199064
-0.0566817 -0.186563 0.201833
-0.0526642 -0.186139 0.203726
-0.0488093 -0.18614 0.206067
-0.0442893 -0.185484 0.208703
-0.0404194 -0.185658 0.210035
-0.0362877 -0.185697 0.211843
-0.0324247 -0.185591 0.213595
-0.0281209 -0.185042 0.21508
-0.0240584 -0.185015 0.216915
-0.0201308 -0.184969 0.217582
-0.0162757 -0.184365 0.219921
-0.0120844 -0.18444 0.220931
-0.00792128 -0.184494 0.22278
-0.0041158 -0.184508 0.223888
-0.000171785 -0.184265 0.225321
0.00398725 -0.184352 0.226068
0.0079275 -0.183656 0.229905
0.0119836 -0.184131 0.229991
0.0161261 -0.183101 0.232087
0.0198289 -0.183327 0.233199
0.0236436 -0.182717 0.236018
0.0278849 -0.182939 0.238134
0.0317918 -0.182383 0.240128
0.0358932 -0.182597 0.240872
0.0395104 -0.182459 0.243073
0.0431252 -0.181901 0.24476
0.0475667 -0.182221 0.247014
0.0514501 -0.181956 0.248236
0.0551782 -0.181435 0.250276
0.0592183 -0.181197 0.252287
0.0629044 -0.181101 0.25291
0.0668559 -0.180998 0.254683
0.0705056 -0.18078 0.255734
0.0749652 -0.180748 0.257334
0.0783756 -0.18071 0.2583
0.082172 -0.180727 0.258147
0.0863513 -0.180564 0.259238
0.0901772 -0.180505 0.259416
0.0944381 -0.18032 0.26012
0.0985414 -0.180312 0.259807
0.102148 -0.180304 0.258854
0.106098 -0.180916 0.258639
0.109857 -0.18125 0.256737
0.114155 -0.180834 0.254228
0.118363 -0.181153 0.250616
0.122964 -0.182382 0.244405
0.127131 -0.182989 0.236956
0.131953 -0.184014 0.227062
0.137014 -0.184888 0.215978
0.141388 -0.185757 0.206789
0.146388 -0.187161 0.195645
0.152089 -0.188731 0.181663
0.157093 -0.190027 0.168512
0.162526 -0.191531 0.152579
0.174553 -0.200508 0.066371
0.179878 -0.201998 0.0537488
0.185577 -0.203735 0.0387776
0.192399 -0.205197 0.0181983
-0.251815 -0.195347 0.0758053
-0.246836 -0.19435 0.0819852
-0.241374 -0.193708 0.0889027
-0.23613 -0.193542 0.0948822
-0.231106 -0.192766 0.100638
-0.22669 -0.192371 0.10368
-0.221769 -0.191813 0.107787
-0.21733 -0.191786 0.110585
-0.212705 -0.191129 0.114511
-0.208143 -0.191035 0.118076
-0.203344 -0.190744 0.120684
-0.199232 -0.190503 0.122909
-0.194731 -0.189988 0.126715
-0.189755 -0.189866 0.129945
-0.185144 -0.189107 0.13375
-0.180967 -0.189068 0.135042
-0.176581 -0.188475 0.137991
-0.17198 -0.189278 0.140461
-0.16722 -0.188282 0.14366
-0.162908 -0.187838 0.146061
-0.159058 -0.1878 0.147805
-0.154575 -0.188097 0.150621
-0.149963 -0.187567 0.153408
-0.145661 -0.186873 0.155345
-0.141211 -0.18711 0.157488
-0.137025 -0.18684 0.160182
-0.132539 -0.186248 0.163211
-0.128589 -0.186025 0.164448
-0.12405 -0.185987 0.166846
-0.119329 -0.186401 0.168597
-0.11553 -0.185389 0.171322
-0.111118 -0.185678 0.172702
-0.106818 -0.185073 0.174617
-0.102959 -0.184983 0.177385
-0.0983729 -0.184772 0.180365
-0.0940779 -0.184817 0.182052
-0.0901259 -0.184401 0.184679
-0.0860988 -0.184188 0.187034
-0.0817058 -0.183771 0.18799
-0.0778071 -0.183304 0.191419
-0.073255 -0.182913 0.192523
-0.0691129 -0.18326 0.19506
-0.0651181 -0.182974 0.197968
-0.0610967 -0.182548 0.200187
-0.0570977 -0.182581 0.201827
-0.0528058 -0.182008 0.203642
-0.0486358 -0.181992 0.205627
-0.0444658 -0.181604 0.207511
-0.0406644 -0.18169 0.209787
-0.0361339 -0.181505 0.211047
-0.0321305 -0.181394 0.213375
-0.0283276 -0.181163 0.214512
-0.0236498 -0.180782 0.216774
-0.0199959 -0.181332 0.217924
-0.0157524 -0.180392 0.220419
-0.0116791 -0.180551 0.221545
-0.00794622 -0.180425 0.222177
-0.00430097 -0.179854 0.2248
-0.000216842 -0.1798 0.225361
0.00366526 -0.179619 0.226646
0.00779855 -0.179608 0.229432
0.0117133 -0.179523 0.230156
0.0161137 -0.17947 0.231802
0.0199264 -0.179082 0.234086
0.0239319 -0.178832 0.235596
0.027889 -0.178683 0.238472
0.0319191 -0.178582 0.24065
0.0354544 -0.178314 0.240972
0.0395796 -0.178252 0.24358
0.0437818 -0.178223 0.244632
0.0475055 -0.178288 0.246533
0.0513645 -0.177855 0.248285
0.0552231 -0.177776 0.250111
0.0590857 -0.176989 0.252932
0.0633049 -0.177328 0.25317
0.0669122 -0.177043 0.254874
0.0707142 -0.177147 0.25664
0.0744526 -0.176977 0.257588
0.0787898 -0.176809 0.258062
0.0826324 -0.17697 0.259073
0.0863674 -0.176536 0.259604
0.0903641 -0.176875 0.259037
0.0942281 -0.176559 0.259068
0.0979984 -0.176389 0.260155
0.10249 -0.176474 0.258959
0.105869 -0.176729 0.258915
0.11007 -0.177134 0.256079
0.113878 -0.177264 0.253832
0.118241 -0.17811 0.250399
0.122837 -0.178244 0.244065
0.127246 -0.178899 0.235122
0.132264 -0.180171 0.225569
0.136897 -0.181429 0.214358
0.141213 -0.182131 0.205776
0.146484 -0.183355 0.193873
0.151311 -0.184238 0.182569
0.157151 -0.185733 0.167416
0.162544 -0.187738 0.150912
0.174156 -0.196402 0.0672913
0.179714 -0.197058 0.0549883
0.186399 -0.199063 0.0359384
0.192179 -0.200966 0.0180987
-0.251678 -0.191248 0.0766046
-0.246323 -0.189985 0.0833652
-0.241254 -0.189774 0.0892533
-0.236461 -0.189225 0.0946176
-0.231316 -0.18848 0.100615
-0.226612 -0.18812 0.10437
-0.222072 -0.187903 0.107935
-0.217363 -0.187464 0.11084
-0.212684 -0.187374 0.11404
-0.207928 -0.186794 0.117933
-0.203183 -0.186375 0.121483
-0.198464 -0.185862 0.12559
-0.194166 -0.185637 0.127257
-0.189574 -0.185172 0.130792
-0.184975 -0.185066 0.133351
-0.181061 -0.184698 0.136554
-0.176611 -0.184876 0.137916
-0.171743 -0.184223 0.140682
-0.167647 -0.184149 0.143588
-0.163063 -0.183912 0.146623
-0.159235 -0.183696 0.147668
-0.153957 -0.183784 0.151631
-0.149902 -0.183285 0.15294
-0.145625 -0.183498 0.155326
-0.141319 -0.182872 0.158453
-0.137003 -0.182523 0.160778
-0.132713 -0.182052 0.162794
-0.12823 -0.182173 0.165044
-0.123852 -0.181528 0.166527
-0.119846 -0.181518 0.169162
-0.115304 -0.181158 0.171854
-0.11115 -0.181747 0.173254
-0.106949 -0.180795 0.17644
-0.102887 -0.180767 0.177569
-0.0983665 -0.180373 0.180111
-0.0943023 -0.180025 0.181385
-0.0900062 -0.179978 0.184417
-0.0858615 -0.180084 0.186231
-0.0816699 -0.179332 0.189065
-0.0773713 -0.179771 0.191915
-0.0733889 -0.179096 0.192766
-0.0693236 -0.179185 0.195355
-0.0649515 -0.179094 0.198107
-0.0608613 -0.178315 0.199897
-0.0566714 -0.17861 0.201505
-0.0524603 -0.178279 0.204336
-0.0487295 -0.178099 0.20576
-0.0443482 -0.177908 0.208472
-0.0404735 -0.177605 0.209736
-0.0361613 -0.177477 0.212431
-0.0320921 -0.177279 0.213295
-0.0284224 -0.177227 0.21504
-0.0242821 -0.176737 0.217146
-0.0199823 -0.176534 0.218059
-0.0159937 -0.176417 0.219615
-0.0120233 -0.176163 0.221094
-0.00794412 -0.176349 0.222884
-0.00375883 -0.176095 0.224687
-6.74555e-05 -0.175802 0.226151
0.00371509 -0.175881 0.227884
0.0079163 -0.175604 0.228775
0.0118173 -0.175687 0.23063
0.0160654 -0.17524 0.233174
0.0197063 -0.175088 0.234077
0.0240733 -0.175286 0.236303
0.0279667 -0.174367 0.239414
0.0318292 -0.174749 0.239103
0.0355306 -0.174754 0.240989
0.0396743 -0.174532 0.243124
0.0438398 -0.174257 0.245429
0.0471822 -0.173606 0.24719
0.0511601 -0.173853 0.248254
0.0556875 -0.173585 0.251406
0.059218 -0.173766 0.251964
0.0631095 -0.17348 0.254076
0.0667208 -0.173316 0.254881
0.0710499 -0.173066 0.256568
0.0747039 -0.172968 0.257758
0.0784779 -0.172698 0.258669
0.0823969 -0.172555 0.259194
0.0861762 -0.172703 0.26075
0.090423 -0.172953 0.259326
0.0942054 -0.172474 0.260082
0.0982336 -0.172539 0.259192
0.102502 -0.172958 0.258994
0.105972 -0.172922 0.258338
0.110339 -0.173051 0.255395
0.114206 -0.172764 0.254511
0.118404 -0.173693 0.24998
0.122923 -0.174434 0.244282
0.127617 -0.175454 0.233843
0.131939 -0.176232 0.225254
0.136624 -0.177305 0.215125
0.142044 -0.178235 0.203369
0.146957 -0.179454 0.191692
0.151568 -0.18024 0.179893
0.157126 -0.181422 0.166678
0.16344 -0.184193 0.144509
0.174699 -0.191906 0.0653868
0.179951 -0.192614 0.0538145
0.186025 -0.194939 0.0376426
0.192097 -0.197005 0.018525
-0.251162 -0.186201 0.0779605
-0.246005 -0.185934 0.0845516
-0.240893 -0.185171 0.0906384
-0.236049 -0.184533 0.0960088
-0.231665 -0.184259 0.100396
-0.226624 -0.183482 0.104881
-0.221336 -0.183047 0.110007
-0.217345 -0.183301 0.111752
-0.212711 -0.183345 0.115448
-0.207508 -0.182247 0.119336
-0.203449 -0.18255 0.12122
-0.198912 -0.182124 0.123971
-0.194127 -0.181158 0.12706
-0.189881 -0.181299 0.13038
-0.185152 -0.180966 0.133573
-0.180745 -0.181041 0.136349
-0.17613 -0.180759 0.139542
-0.172012 -0.179952 0.141967
-0.167556 -0.179987 0.144526
-0.163021 -0.179729 0.146465
-0.158677 -0.179742 0.14923
-0.154362 -0.1789 0.152271
-0.150155 -0.17885 0.153421
-0.145778 -0.178767 0.156019
-0.141136 -0.178417 0.159283
-0.13738 -0.178277 0.159992
-0.132572 -0.178362 0.162842
-0.128185 -0.177962 0.165892
-0.123884 -0.177402 0.16793
-0.119675 -0.177822 0.169166
-0.115245 -0.177465 0.171822
-0.111113 -0.177256 0.174151
-0.106849 -0.177048 0.176169
-0.102984 -0.176481 0.177967
-0.0983277 -0.176553 0.180591
-0.0942828 -0.176328 0.182153
-0.0901654 -0.17594 0.184997
-0.0861606 -0.17598 0.186202
-0.0818328 -0.175525 0.188943
-0.0772559 -0.17552 0.191926
-0.0735424 -0.175296 0.193112
-0.0690754 -0.175047 0.195305
-0.0650202 -0.174736 0.197863
-0.0609149 -0.174603 0.199961
-0.0568153 -0.174401 0.201694
-0.0529551 -0.174238 0.204615
-0.0487063 -0.174005 0.206849
-0.0444753 -0.173945 0.207748
-0.0399739 -0.17356 0.210614
-0.0365614 -0.17331 0.21154
-0.0321199 -0.172858 0.214228
-0.0284037 -0.173155 0.215088
-0.0238603 -0.172956 0.216611
-0.0201574 -0.17252 0.217806
-0.0162005 -0.172267 0.219856
-0.0121799 -0.172497 0.220578
-0.00817119 -0.17245 0.223626
-0.00404048 -0.171716 0.224421
0.000103644 -0.171972 0.225648
0.00384186 -0.17189 0.228555
0.00768724 -0.171718 0.229887
0.0120397 -0.17138 0.231486
0.015976 -0.171621 0.233377
0.0200336 -0.171043 0.234447
0.0241342 -0.170897 0.236296
0.027812 -0.170601 0.238869
0.0318557 -0.170749 0.24076
0.0359118 -0.170323 0.241781
0.0394318 -0.170096 0.243701
0.0435713 -0.169712 0.245432
0.0473066 -0.169761 0.247552
0.051637 -0.16991 0.248857
0.0550314 -0.169667 0.25103
0.0591945 -0.169589 0.252178
0.0629191 -0.169372 0.254484
0.0668571 -0.169329 0.25648
0.0707428 -0.168999 0.257456
0.0746552 -0.168715 0.257944
0.0784194 -0.168971 0.259573
0.0822326 -0.168796 0.260146
0.0863978 -0.169002 0.260906
