ply
format ascii 1.0
element vertex 1641
property float x
property float y
property float z
end_header
-0.113991 -0.00843149 0.133075
-0.109127 -0.00830707 0.139458
-0.104366 -0.00903246 0.145035
-0.100092 -0.00838545 0.150787
-0.0953501 -0.00825221 0.155194
-0.0911526 -0.00852579 0.15847
-0.0869363 -0.00823689 0.161411
-0.082875 -0.00818878 0.164531
-0.0786714 -0.00874353 0.166395
-0.0744534 -0.00805539 0.169336
-0.0702558 -0.00840495 0.171434
-0.0662071 -0.00801301 0.173374
-0.0618126 -0.00785382 0.175805
-0.0574885 -0.00845706 0.178567
-0.0529038 -0.00836355 0.179686
-0.0490806 -0.00817254 0.181531
-0.0450897 -0.00860479 0.182633
-0.0409964 -0.00818269 0.18409
-0.0371823 -0.0081313 0.185558
-0.0325661 -0.00815415 0.187258
-0.0285994 -0.00779555 0.187232
-0.0240519 -0.00839592 0.1882
-0.0205903 -0.0084533 0.189188
-0.016514 -0.00831984 0.1892
-0.0123465 -0.00819409 0.189655
-0.00815128 -0.00830446 0.1902
-0.00439477 -0.00839322 0.190181
-0.000305003 -0.00854094 0.190559
0.00402754 -0.00825638 0.190097
0.00840073 -0.00836619 0.189026
0.0123908 -0.00789194 0.190153
0.0162945 -0.00827088 0.18867
0.0203594 -0.00799179 0.189086
0.0244616 -0.00793349 0.186969
0.028525 -0.00782681 0.187548
0.0326634 -0.00810519 0.187431
0.0366935 -0.00811893 0.186582
0.0409147 -0.00793723 0.186262
0.0449963 -0.00800118 0.185096
0.0491901 -0.0084329 0.185401
0.053466 -0.00804541 0.184049
0.0572281 -0.00826156 0.182407
0.0616043 -0.00812478 0.180918
0.0660556 -0.00856363 0.178993
0.0696655 -0.00838847 0.176485
0.0743605 -0.00813212 0.175523
0.0784561 -0.00839984 0.173114
0.0822071 -0.00811668 0.170965
0.0866544 -0.00812754 0.169107
0.0908053 -0.00810339 0.166375
0.0953512 -0.0081944 0.163221
0.0995969 -0.00810945 0.160737
0.104071 -0.00828241 0.15777
0.108308 -0.00852994 0.15672
0.112543 -0.00809084 0.153676
0.116716 -0.008332 0.153055
0.120379 -0.00803003 0.152373
0.124971 -0.00843006 0.153762
0.128937 -0.00830997 0.153989
0.13322 -0.0084006 0.155301
0.137027 -0.0089259 0.156674
0.141428 -0.00837748 0.156856
0.145653 -0.00845662 0.156368
0.149852 -0.00794079 0.154839
0.153977 -0.00840433 0.155014
0.158646 -0.00852197 0.152397
0.162423 -0.00839118 0.151708
0.166631 -0.00847854 0.150676
0.171091 -0.00829197 0.149067
0.175351 -0.0082338 0.147211
0.179866 -0.00838639 0.144481
0.184454 -0.00884012 0.142843
0.188303 -0.00861459 0.140964
0.193288 -0.0083728 0.137565
0.197192 -0.00818924 0.136594
0.201981 -0.00852304 0.134227
0.206775 -0.00896622 0.132068
0.211134 -0.00812826 0.129208
0.215269 -0.00873782 0.126804
0.220004 -0.00859773 0.124923
0.224615 -0.00823198 0.122591
0.229302 -0.00839195 0.119443
0.234121 -0.00838847 0.115944
0.238414 -0.00877297 0.112855
0.24269 -0.00859046 0.110344
0.24794 -0.00852882 0.105171
0.253062 -0.00862653 0.0952184
-0.163349 -0.00431408 0.0440439
-0.157374 -0.00451562 0.0597384
-0.152427 -0.00428459 0.069517
-0.146791 -0.00467053 0.082551
-0.142479 -0.0044575 0.0909678
-0.137124 -0.00442962 0.100194
-0.132372 -0.00423765 0.107338
-0.127462 -0.00414114 0.114195
-0.122985 -0.00441255 0.120293
-0.118326 -0.00421168 0.12632
-0.113809 -0.00441184 0.131225
-0.109383 -0.00409641 0.136284
-0.104632 -0.00401049 0.142532
-0.100059 -0.00389365 0.147555
-0.0958892 -0.00401122 0.151687
-0.0917099 -0.00404555 0.156123
-0.0875248 -0.00428969 0.159641
-0.0833579 -0.00417905 0.162278
-0.0785328 -0.00430788 0.165069
-0.0749581 -0.00433611 0.167192
-0.0702208 -0.00362515 0.170501
-0.0658104 -0.00405526 0.173042
-0.0616675 -0.00361609 0.174964
-0.0575392 -0.00376608 0.176498
-0.0535775 -0.00429136 0.17858
-0.0491902 -0.00394216 0.180611
-0.0448864 -0.00419099 0.183029
-0.0412916 -0.00394554 0.183149
-0.0367979 -0.0037485 0.184174
-0.0326948 -0.00408155 0.185751
-0.0288014 -0.00402056 0.18692
-0.0244967 -0.00422357 0.187729
-0.0204584 -0.00409854 0.188566
-0.0164316 -0.00393539 0.188719
-0.0122018 -0.00423933 0.188841
-0.00822767 -0.00390804 0.188581
-0.00413328 -0.0042747 0.188767
-0.000167176 -0.00414424 0.190484
0.00408121 -0.00411445 0.189451
0.0084567 -0.00390002 0.190399
0.0123482 -0.00441684 0.18918
0.0165223 -0.00420432 0.1896
0.0204955 -0.00384149 0.187686
0.0246878 -0.00408968 0.187517
0.0284533 -0.00426789 0.18744
0.032592 -0.00411328 0.187304
0.0368003 -0.00432763 0.186582
0.0403085 -0.00396909 0.186639
0.0452574 -0.00413541 0.184701
0.0492961 -0.00406877 0.184793
0.0535325 -0.00432567 0.184048
0.057726 -0.00400547 0.182292
0.0615058 -0.00436842 0.181573
0.0657663 -0.00402001 0.178751
0.0695321 -0.00418071 0.177218
0.0740116 -0.00428153 0.17611
0.0783689 -0.00399084 0.172222
0.0825694 -0.00418352 0.170859
0.0863154 -0.00374014 0.168762
0.090927 -0.00427334 0.167033
0.0951965 -0.00430737 0.164727
0.100013 -0.0039855 0.160608
0.103934 -0.00431213 0.158586
0.107876 -0.00407232 0.155944
0.11261 -0.00459106 0.153758
0.11671 -0.00415985 0.152611
0.120942 -0.00397335 0.152183
0.125158 -0.00433834 0.152659
0.129369 -0.00383131 0.153121
0.133347 -0.00435654 0.154744
0.137322 -0.0037782 0.155299
0.141547 -0.00400642 0.155821
0.145686 -0.00436042 0.156825
0.149709 -0.00430725 0.154563
0.154241 -0.00431499 0.152849
0.158498 -0.00427366 0.152251
0.162791 -0.00413079 0.15221
0.166842 -0.00446495 0.150749
0.170906 -0.00405836 0.148174
0.175819 -0.00409701 0.147064
0.180196 -0.00427182 0.144151
0.184591 -0.00423617 0.14261
0.188414 -0.00416032 0.140688
0.193136 -0.004202 0.137635
0.197635 -0.00432733 0.136439
0.202129 -0.00422782 0.134474
0.206683 -0.00419282 0.130247
0.210772 -0.00406216 0.129447
0.2154 -0.00397419 0.127085
0.219941 -0.00428434 0.124529
0.224051 -0.00462522 0.122287
0.228952 -0.00439538 0.119874
0.233785 -0.00413797 0.116354
0.238459 -0.00402969 0.112907
0.242395 -0.00442724 0.110007
0.247956 -0.00412617 0.104136
0.253441 -0.00484107 0.0945096
-0.163953 0.000199767 0.0354459
-0.157786 1.83281e-05 0.0538348
-0.15281 -0.000109526 0.0657398
-0.148175 0.000583196 0.0746952
-0.14232 -0.000247931 0.0884246
-0.137025 -0.000439316 0.0984275
-0.132857 -0.000115091 0.10323
-0.128 -4.99853e-05 0.111229
-0.123126 0.000112458 0.117036
-0.118448 -0.000177673 0.122886
-0.114055 1.22673e-05 0.128997
-0.10925 -0.000166053 0.135268
-0.10446 0.000185924 0.141064
-0.100523 -1.28228e-05 0.145427
-0.0959598 -1.4335e-05 0.149995
-0.091515 5.56488e-05 0.154878
-0.0868723 4.25792e-05 0.158865
-0.0828844 0.000114015 0.16071
-0.0789114 -4.81525e-06 0.163945
-0.0745454 -6.97307e-05 0.166322
-0.0702027 -5.04267e-05 0.168788
-0.0658077 5.47338e-05 0.170756
-0.0617303 -0.000106018 0.173826
-0.0576925 0.000212234 0.17587
-0.0533571 -8.95172e-05 0.177366
-0.0491382 -0.000187267 0.17971
-0.0449154 0.000374351 0.181653
-0.0410767 7.80037e-05 0.182382
-0.0369021 -7.18824e-05 0.183756
-0.0329233 0.00024195 0.184596
-0.0282404 0.000101357 0.187109
-0.0247578 0.000152166 0.18685
-0.0206553 9.35686e-05 0.187274
-0.0160994 0.000158324 0.188103
-0.0127226 -0.000296157 0.187933
-0.00786212 -0.000221794 0.188373
-0.00397922 -0.00046394 0.189012
0.000544688 0.000253554 0.188272
0.00420989 -0.00029403 0.18906
0.00831435 -0.00017993 0.188045
0.0120704 0.000177887 0.189046
0.0164492 0.000180208 0.189587
0.0200982 0.000143412 0.188215
0.0245735 8.88481e-05 0.186589
0.0285218 0.000268417 0.187084
0.0331045 -0.000497106 0.186943
0.0371141 -0.00019615 0.185858
0.0407451 0.000151151 0.186055
0.045201 -0.000122434 0.185426
0.0496394 -0.000603791 0.184601
0.053313 3.29435e-05 0.181906
0.0578442 1.14823e-05 0.182637
0.0613615 0.000127701 0.181262
0.0657228 5.68512e-05 0.179763
0.0696522 -0.000256583 0.177499
0.0740488 -5.96083e-05 0.175069
0.0786198 -0.000104771 0.172806
0.0823493 0.000268503 0.171781
0.0871803 2.13889e-05 0.169151
0.0908279 -2.77505e-05 0.167026
0.0953497 0.000137221 0.164122
0.0995846 8.02369e-05 0.160994
0.103514 -0.000139521 0.159771
0.108159 1.97742e-05 0.156911
0.112283 0.000226432 0.154082
0.11687 2.07004e-05 0.152683
0.120974 4.34035e-05 0.151801
0.124921 3.19444e-05 0.151935
0.129421 0.000544918 0.15309
0.133256 -0.000427723 0.15337
0.137422 2.99103e-05 0.155106
0.141298 -0.000297148 0.156317
0.14543 0.000249383 0.155223
0.149463 -9.50564e-05 0.154188
0.154182 7.26159e-06 0.154102
0.158507 0.000282756 0.152702
0.162235 -7.62499e-05 0.151357
0.166942 0.000157904 0.150011
0.171233 -9.48999e-06 0.148655
0.175583 -0.000101613 0.146978
0.179886 -2.58645e-05 0.145582
0.184632 -0.000329511 0.142378
0.188718 -2.61509e-05 0.140938
0.19311 0.000201719 0.138462
0.197496 -0.000127525 0.136312
0.202007 -0.00020018 0.134191
0.206817 -1.18072e-05 0.131206
0.21123 2.52006e-05 0.129218
0.21529 -0.00014806 0.126672
0.220378 -0.000283068 0.124371
0.224301 -5.23839e-05 0.122103
0.228954 0.00022774 0.119664
0.233352 0.000176427 0.117072
0.238863 0.000127147 0.112231
0.242961 0.000152601 0.109137
0.247724 0.000203794 0.104715
0.253766 0.000143178 0.093547
-0.165714 0.00454991 0.0172793
-0.158791 0.0045264 0.0456963
-0.153532 0.00398263 0.0601135
-0.147767 0.00417796 0.0739005
-0.142685 0.00419431 0.0847855
-0.137619 0.00390752 0.0940418
-0.13288 0.00411286 0.100995
-0.127859 0.00419493 0.108594
-0.123571 0.00425035 0.114017
-0.118324 0.00408372 0.12158
-0.113653 0.0043443 0.126729
-0.109697 0.00388711 0.131594
-0.104917 0.00410993 0.137711
-0.100077 0.00440133 0.142711
-0.0960615 0.00454743 0.147773
-0.0915451 0.00393387 0.153242
-0.0872302 0.0040615 0.156966
-0.0831603 0.00392138 0.159209
-0.0786324 0.00394341 0.16336
-0.0742553 0.0041884 0.165858
-0.0706755 0.00398999 0.167408
-0.0658254 0.00446965 0.171195
-0.0619117 0.00402745 0.172219
-0.057575 0.00418625 0.174613
-0.0536073 0.00435142 0.176341
-0.049045 0.00468549 0.178311
-0.0451676 0.00435353 0.179911
-0.0410809 0.00397378 0.181921
-0.0367698 0.0039693 0.183475
-0.032897 0.00411131 0.184451
-0.028608 0.00434118 0.184985
-0.0242554 0.00425013 0.185431
-0.0202713 0.00413793 0.187201
-0.0164146 0.0041747 0.186813
-0.0125406 0.0043112 0.187764
-0.00849075 0.00371697 0.188566
-0.00406494 0.00367629 0.187756
-0.000285827 0.00435929 0.189058
0.00390862 0.00421262 0.188816
0.00841286 0.00422727 0.188646
0.0122345 0.00363988 0.188887
0.016233 0.00380921 0.187318
0.0201921 0.00391403 0.187812
0.0246437 0.00415238 0.188533
0.0290437 0.00376698 0.187052
0.0321328 0.0041783 0.1875
0.0367759 0.00407028 0.185954
0.0408267 0.00404463 0.184944
0.0450718 0.00412323 0.184922
0.0491269 0.00395428 0.183312
0.0528308 0.00426351 0.18277
0.057453 0.00401506 0.181874
0.0619555 0.00423028 0.181129
0.0656143 0.00388329 0.179333
0.0699626 0.00368635 0.177013
0.0742798 0.00405284 0.175599
0.0783471 0.00423888 0.173595
0.0826869 0.00434446 0.171767
0.0866642 0.00381044 0.169598
0.0907947 0.00411284 0.166694
0.0955793 0.00408751 0.164033
0.0994418 0.00403077 0.162263
0.103661 0.00427668 0.15967
0.107837 0.00420177 0.156829
0.112005 0.00456789 0.154763
0.116702 0.00401088 0.153363
0.120945 0.00407307 0.151415
0.124724 0.00441539 0.151654
0.129037 0.00403603 0.15314
0.133199 0.00407511 0.15309
0.137497 0.00373684 0.15498
0.141331 0.00421593 0.154669
0.145658 0.00404071 0.156125
0.149759 0.0045008 0.156021
0.154344 0.0044231 0.153498
0.158308 0.00427767 0.153372
0.162899 0.00426079 0.151623
0.166614 0.00386619 0.150548
0.171163 0.00392274 0.148522
0.175362 0.00397416 0.147497
0.180103 0.00406301 0.144741
0.184251 0.00408032 0.142798
0.18872 0.00409469 0.140599
0.193479 0.00435303 0.138657
0.197689 0.00429019 0.135686
0.202078 0.00419452 0.134052
0.206388 0.00397505 0.130775
0.210699 0.00422227 0.130137
0.21546 0.00406552 0.127281
0.219503 0.00431921 0.125116
0.224694 0.00421721 0.122067
0.229245 0.00419003 0.11879
0.234195 0.00431764 0.114772
0.238079 0.00414719 0.113079
0.24292 0.00433805 0.1096
0.247989 0.00388527 0.104124
0.253798 0.00431957 0.0932863
-0.159133 0.00904359 0.0384954
-0.153691 0.00909854 0.0540482
-0.147817 0.00929746 0.0702986
-0.142701 0.00860896 0.0818287
-0.137643 0.00827313 0.090099
-0.132757 0.00854889 0.097791
-0.127843 0.00849399 0.105836
-0.123402 0.00848802 0.111436
-0.118846 0.00847961 0.118645
-0.113867 0.00842903 0.124312
-0.109736 0.00877634 0.129873
-0.105632 0.00857444 0.133544
-0.101081 0.00855883 0.140223
-0.096154 0.00823826 0.146008
-0.0917166 0.00822942 0.149883
-0.0872143 0.00842714 0.154544
-0.0831579 0.00805768 0.158386
-0.0785353 0.00821657 0.161297
-0.0745458 0.00859338 0.163588
-0.0704077 0.00863267 0.166821
-0.0658956 0.00832803 0.169319
-0.0619076 0.00789117 0.171484
-0.0577537 0.00821307 0.173531
-0.0533115 0.00794719 0.175089
-0.0494185 0.00815272 0.17651
-0.0449897 0.00819927 0.178532
-0.0409994 0.00849521 0.180024
-0.0366255 0.00834371 0.181741
-0.0328134 0.00810199 0.183207
-0.0285733 0.00836227 0.184769
-0.0243739 0.00804006 0.185696
-0.02041 0.00816534 0.185492
-0.0162597 0.00852393 0.186562
-0.0123718 0.00825017 0.187242
-0.00799149 0.00826718 0.187588
-0.00374975 0.00800156 0.187754
0.000215277 0.00814964 0.188695
0.00415849 0.00784211 0.187659
0.00830642 0.00846046 0.187653
0.0120041 0.007795 0.188011
0.0167463 0.00810012 0.187357
0.0201666 0.00792357 0.187113
0.0242047 0.0079821 0.187219
0.0285151 0.0083727 0.185556
0.0330092 0.00849339 0.185882
0.0369626 0.00844448 0.185145
0.0412113 0.0081589 0.184856
0.0452771 0.00806365 0.184671
0.0491867 0.00800795 0.184591
0.0535898 0.00842902 0.183162
0.0575134 0.0083593 0.182404
0.0615126 0.0081353 0.180795
0.0659748 0.00806531 0.179755
0.0698914 0.00816989 0.178353
0.0738587 0.00852767 0.175912
0.0787916 0.00816305 0.174298
0.0827157 0.00814741 0.171115
0.0868517 0.00838979 0.170129
0.0907272 0.00831932 0.166862
0.0952043 0.00818179 0.165263
0.0995161 0.0081675 0.162771
0.103538 0.00814912 0.160146
0.108238 0.00832352 0.157517
0.112333 0.00810041 0.153903
0.116236 0.00841215 0.153442
0.120698 0.00855184 0.152844
0.12517 0.00833281 0.151168
0.1294 0.00847924 0.153068
0.133309 0.00853185 0.154357
0.137266 0.00839687 0.154912
0.141418 0.00837841 0.155054
0.145523 0.00846513 0.15595
0.149604 0.0080904 0.155081
0.154056 0.00803245 0.154297
0.158078 0.00845129 0.152825
0.162694 0.00812263 0.1515
0.166874 0.00845974 0.15069
0.171177 0.00840516 0.148192
0.175382 0.00828876 0.146577
0.179886 0.00841652 0.145203
0.1844 0.0085247 0.143358
0.188247 0.00829004 0.141137
0.192874 0.00857026 0.139379
0.197304 0.00828537 0.137006
0.20194 0.00877059 0.133801
0.20637 0.00812658 0.132053
0.211142 0.00852159 0.129076
0.215408 0.0083494 0.126627
0.219695 0.00821799 0.124558
0.225061 0.00848969 0.11989
0.229081 0.00871676 0.118189
0.233688 0.00850959 0.116627
0.238134 0.0083303 0.112739
0.242844 0.00813355 0.109576
0.247363 0.00873214 0.105607
0.253464 0.00875451 0.0937538
-0.160463 0.013383 0.0259403
-0.154143 0.0134119 0.047194
-0.148441 0.0135941 0.0648589
-0.143168 0.0128393 0.0773718
-0.137992 0.0128789 0.0867056
-0.133341 0.0125803 0.0950335
-0.128279 0.0128381 0.102707
-0.123218 0.012459 0.109547
-0.118697 0.0126119 0.115328
-0.114354 0.0123508 0.121618
-0.109334 0.0127636 0.127421
-0.105316 0.012641 0.13197
-0.100869 0.0127157 0.138479
-0.0961827 0.0126135 0.142543
-0.0919899 0.0123355 0.147756
-0.0877135 0.0122987 0.152356
-0.0828158 0.0123789 0.155665
-0.0787938 0.0125693 0.160266
-0.0748954 0.0124518 0.160996
-0.0703263 0.0123429 0.164617
-0.0661103 0.0125475 0.167681
-0.0623132 0.0122855 0.169834
-0.0574481 0.0122642 0.173269
-0.0534065 0.0123608 0.174317
-0.0499202 0.0123256 0.175717
-0.0452608 0.0117567 0.178377
-0.0407897 0.0126639 0.179799
-0.0371377 0.0121025 0.182023
-0.0330753 0.0121774 0.182968
-0.0282899 0.0119708 0.184182
-0.0245191 0.0124345 0.183802
-0.0205769 0.0123288 0.185843
-0.0165535 0.0119895 0.185969
-0.012294 0.0121571 0.186259
-0.00810318 0.0123055 0.185704
-0.00435627 0.0123774 0.186808
-0.000437555 0.0125007 0.18742
0.00413688 0.0123324 0.187474
0.00838957 0.012172 0.187425
0.0125323 0.0125508 0.18729
0.0162362 0.0124679 0.187255
0.0200249 0.0122627 0.187396
0.0240615 0.0125115 0.184965
0.0286445 0.0120112 0.185402
0.0329294 0.0125896 0.184788
0.0365311 0.0122719 0.185974
0.0411523 0.0123716 0.184698
0.0450266 0.0123018 0.184878
0.0495902 0.0124327 0.183297
0.0531014 0.0123955 0.182467
0.0573627 0.0121986 0.181617
0.0613162 0.0124506 0.180619
0.0658406 0.0122276 0.17989
0.0701027 0.0122669 0.178341
0.0740017 0.0121087 0.176878
0.0779553 0.0129987 0.175599
0.0827859 0.0122494 0.172203
0.0867736 0.0125044 0.169214
0.0908641 0.0122081 0.167208
0.0952268 0.0124739 0.165259
0.0997013 0.0123322 0.162193
0.103785 0.0124801 0.160356
0.107736 0.012679 0.15847
0.112486 0.0125144 0.155259
0.11657 0.0124069 0.15382
0.120502 0.0122238 0.153082
0.125075 0.0121023 0.150151
0.129108 0.0122747 0.152745
0.133396 0.0123266 0.152885
0.13716 0.0122453 0.154256
0.1415 0.0124231 0.155202
0.145681 0.0124216 0.154158
0.149656 0.0124167 0.154939
0.154207 0.0128194 0.153803
0.158578 0.0126494 0.151826
0.162707 0.0130045 0.151186
0.166691 0.0125297 0.149826
0.171168 0.0126308 0.148001
0.175931 0.0120723 0.145509
0.180064 0.0118867 0.144293
0.184252 0.0125643 0.142779
0.188416 0.0125647 0.140988
0.193076 0.0123836 0.137566
0.197605 0.0128507 0.136313
0.202031 0.0125525 0.133185
0.206498 0.0125566 0.131604
0.210445 0.012522 0.129465
0.215414 0.0125967 0.126733
0.220038 0.0124978 0.123546
0.224282 0.0126826 0.121592
0.228638 0.0124771 0.119562
0.233471 0.0129232 0.115929
0.238632 0.013178 0.112243
0.242619 0.0128536 0.10915
0.247879 0.0127883 0.105263
-0.154612 0.0176299 0.0407968
-0.148279 0.0173224 0.0614107
-0.143275 0.0171948 0.0752
-0.138559 0.0172471 0.0833098
-0.133114 0.0170577 0.0935301
-0.128505 0.0169101 0.100325
-0.123593 0.0171177 0.107473
-0.119033 0.0170564 0.113631
-0.114514 0.0169143 0.119171
-0.110023 0.0169364 0.124209
-0.105462 0.0165931 0.130561
-0.101107 0.0168591 0.135744
-0.096025 0.0168911 0.140729
-0.0920368 0.0168577 0.145604
-0.0872404 0.0165848 0.150909
-0.0827987 0.016513 0.154037
-0.0788477 0.0164596 0.158168
-0.0749776 0.0164712 0.159964
-0.0704112 0.0166389 0.163768
-0.0661601 0.0163232 0.166779
-0.0620197 0.0165523 0.168194
-0.0577592 0.0165724 0.170003
-0.0535183 0.016666 0.172557
-0.0489453 0.0164748 0.173686
-0.0454568 0.0162091 0.17713
-0.0407367 0.0165793 0.178372
-0.0370009 0.0167437 0.179576
-0.0330511 0.0162052 0.181076
-0.0285555 0.0162734 0.182443
-0.0244324 0.016732 0.18379
-0.020403 0.0165604 0.184826
-0.0162833 0.0164388 0.184991
-0.012005 0.0163345 0.185619
-0.00819642 0.0161725 0.186465
-0.0038055 0.0167067 0.185582
4.30092e-05 0.0164896 0.186997
0.00428946 0.0160967 0.187824
0.00829797 0.0163833 0.187328
0.0123167 0.0162891 0.18574
0.0159238 0.0161844 0.187394
0.0200909 0.0162588 0.18688
0.0248878 0.0162913 0.185129
0.0282837 0.0168747 0.184745
0.0326661 0.0165814 0.18423
0.036885 0.0162698 0.184012
0.0410211 0.0162884 0.183014
0.0447195 0.0164853 0.183633
0.0494806 0.0164169 0.181695
0.0530789 0.0166113 0.182243
0.0571361 0.0168336 0.181123
0.0616972 0.0164818 0.179961
0.0660807 0.0162876 0.17885
0.0699136 0.0162558 0.177718
0.0737821 0.0164067 0.176414
0.0781035 0.0166297 0.173436
0.0824904 0.0164001 0.173137
0.0869728 0.0164002 0.169478
0.0909194 0.0170801 0.168036
0.0951044 0.0165432 0.165907
0.0996315 0.0163585 0.162833
0.103706 0.0166806 0.160891
0.107997 0.0165422 0.159015
0.112505 0.0163027 0.155567
0.117286 0.0168541 0.153074
0.121062 0.0166984 0.152689
0.125251 0.0165893 0.1512
0.128707 0.0169366 0.151254
0.133112 0.0166491 0.152319
0.13714 0.0169064 0.15368
0.141861 0.0166037 0.154253
0.1457 0.0167129 0.153473
0.149904 0.0164954 0.153544
0.154019 0.0161443 0.152992
0.158106 0.0169596 0.152968
0.162707 0.016441 0.150653
0.167127 0.0167337 0.14995
0.171068 0.0165625 0.148676
0.175242 0.0169752 0.14607
0.179864 0.016893 0.14408
0.184096 0.0163033 0.141926
0.188897 0.0166777 0.140059
0.193294 0.0168391 0.13773
0.197585 0.0168644 0.135601
0.201632 0.0167031 0.134029
0.206888 0.0168479 0.13134
0.210723 0.0170537 0.129264
0.215247 0.0168204 0.126243
0.219665 0.0169596 0.124231
0.22469 0.0166565 0.1217
0.228929 0.0168058 0.119504
0.233623 0.0167749 0.116002
0.237967 0.0170142 0.11344
0.243335 0.0168285 0.108334
0.24787 0.0170665 0.105289
-0.154389 0.0221825 0.0402089
-0.148398 0.0223474 0.0610071
-0.143403 0.0219692 0.0717084
-0.138419 0.0222107 0.0834739
-0.133625 0.0217546 0.0918562
-0.128707 0.0215704 0.0991091
-0.123906 0.0212633 0.106907
-0.119162 0.021468 0.112079
-0.114481 0.0212007 0.118828
-0.110011 0.02114 0.123402
-0.10531 0.0213366 0.129204
-0.100972 0.0211118 0.135389
-0.09642 0.020731 0.138067
-0.0921046 0.0206043 0.143802
-0.0879697 0.0210905 0.147166
-0.0833113 0.0214509 0.151353
-0.0791407 0.0208744 0.155154
-0.0750332 0.0208331 0.15846
-0.0702822 0.0209636 0.161179
-0.066211 0.0209267 0.164363
-0.0618686 0.0203431 0.167864
-0.0576915 0.0205547 0.169645
-0.0538901 0.0204889 0.170371
-0.0496936 0.0205349 0.173444
-0.0452226 0.0211249 0.175256
-0.0408882 0.0205062 0.177459
-0.0369731 0.0208794 0.179119
-0.0326723 0.0206316 0.179664
-0.0286072 0.0205733 0.181651
-0.024916 0.0204573 0.181613
-0.0204414 0.0204453 0.183276
-0.0163018 0.0202643 0.184183
-0.0123369 0.020189 0.184459
-0.00800821 0.021002 0.183943
-0.00373139 0.0206295 0.185439
-0.000251342 0.0205382 0.185537
0.00372037 0.0207455 0.186174
0.00800082 0.0205637 0.186208
0.0122022 0.0201928 0.185983
0.0159954 0.0206157 0.185224
0.0204391 0.0206581 0.18587
0.0244794 0.020517 0.184639
0.0287563 0.0205763 0.184007
0.0329604 0.0205795 0.184201
0.0365654 0.0206392 0.183046
0.0410216 0.0210366 0.184036
0.0451239 0.0206073 0.184019
0.049063 0.0201751 0.182415
0.0533248 0.020413 0.181409
0.05747 0.0203829 0.181461
0.0618911 0.0205006 0.180372
0.0661806 0.0207665 0.178944
0.0697783 0.0204128 0.178892
0.073812 0.0204797 0.176029
0.0784971 0.0204883 0.173909
0.0820562 0.0207531 0.173397
0.0867154 0.020546 0.170744
0.0911452 0.0205065 0.168278
0.094953 0.0207325 0.165513
0.0996697 0.0210774 0.163053
0.104003 0.0207302 0.160165
0.108069 0.0211069 0.159218
0.112048 0.0204035 0.155796
0.116878 0.0209494 0.15312
0.120772 0.0204515 0.152056
0.1255 0.0209096 0.151673
0.129341 0.0204939 0.150597
0.133444 0.0209731 0.152136
0.137369 0.020687 0.153097
0.141741 0.0208688 0.154247
0.145728 0.0212871 0.153332
0.15014 0.021138 0.154071
0.153932 0.0206678 0.153648
0.158327 0.0206089 0.151847
0.162328 0.0207479 0.151654
0.166571 0.0209103 0.149212
0.171758 0.0207861 0.146912
0.175718 0.0209984 0.145039
0.179808 0.0212239 0.14407
0.184224 0.021009 0.141552
0.188555 0.0207568 0.140153
0.192944 0.0210393 0.139056
0.197512 0.0209088 0.13589
0.202145 0.0209869 0.13298
0.206331 0.0207915 0.131521
0.210633 0.0213368 0.12966
0.215449 0.0215705 0.126716
0.219853 0.0213121 0.124098
0.224325 0.0212182 0.121287
0.229073 0.0211883 0.119604
0.233788 0.0209119 0.115564
0.238018 0.0215383 0.113472
0.243443 0.0218503 0.109325
0.247957 0.0215425 0.10466
0.252963 0.0212742 0.0980229
-0.154075 0.0265754 0.0435215
-0.148458 0.0263606 0.0616163
-0.142973 0.026204 0.0770741
-0.138359 0.025859 0.085768
-0.132833 0.0259465 0.0959916
-0.128684 0.0254324 0.101075
-0.123341 0.0255659 0.109246
-0.119089 0.0252955 0.113344
-0.114672 0.0250117 0.117419
-0.110236 0.0254494 0.123915
-0.105571 0.0250006 0.127667
-0.101074 0.0251796 0.133604
-0.0964976 0.025344 0.136958
-0.0919551 0.0248599 0.141623
-0.0880525 0.0251223 0.144853
-0.0835685 0.0252657 0.149397
-0.079366 0.0252338 0.151639
-0.0745888 0.0249021 0.156714
-0.0706082 0.0248442 0.158468
-0.0662286 0.0252778 0.161098
-0.0625606 0.0248294 0.163878
-0.0574358 0.0246856 0.166948
-0.0536296 0.0246574 0.169108
-0.0493943 0.0246667 0.171378
-0.0453925 0.0247519 0.173139
-0.0413342 0.0246996 0.174811
-0.0369788 0.0245721 0.176021
-0.0327759 0.0251864 0.178443
-0.0286583 0.0245729 0.18083
-0.0243197 0.0242857 0.181206
-0.020619 0.0249563 0.182514
-0.0163104 0.0249341 0.182575
-0.0122691 0.0246471 0.183284
-0.00804193 0.0244247 0.184102
-0.00426247 0.0247844 0.184413
-0.000371211 0.0245521 0.184288
0.00397462 0.0244849 0.183912
0.00839086 0.0247176 0.184998
0.0119086 0.0245698 0.184819
0.0163955 0.0246508 0.184736
0.0205142 0.0244048 0.184313
0.0243961 0.0244507 0.183768
0.0290451 0.0247866 0.182613
0.0327129 0.0244877 0.183365
0.0371833 0.0248589 0.183652
0.0411839 0.0245656 0.183226
0.0448832 0.0248213 0.18144
0.049042 0.0243231 0.182752
0.0535021 0.0247255 0.181371
0.0576366 0.0246219 0.179964
0.0618035 0.0244677 0.179649
0.0658518 0.0248231 0.178775
0.0695648 0.0244024 0.176857
0.0741984 0.0245909 0.175402
0.078431 0.0250694 0.174327
0.0825247 0.0248782 0.17226
0.0865702 0.0244191 0.171071
0.0908489 0.0248579 0.168726
0.094793 0.0246215 0.165866
0.0990354 0.0250105 0.164305
0.103634 0.0249186 0.161801
0.107755 0.0250028 0.158849
0.112093 0.0248775 0.156016
0.116606 0.0250851 0.153551
0.120743 0.0249929 0.151999
0.124933 0.0248279 0.151378
0.129397 0.0249479 0.149521
0.133226 0.0250259 0.150717
0.137328 0.024915 0.151993
0.141529 0.0251132 0.153226
0.145642 0.0251865 0.154632
0.149631 0.0247221 0.153964
0.15405 0.0253158 0.152923
0.158226 0.0249984 0.152032
0.162826 0.025099 0.150772
0.166973 0.0251954 0.149489
0.171438 0.0250119 0.147146
0.17593 0.0254918 0.144856
0.180006 0.0251192 0.143791
0.184436 0.0248957 0.142419
0.188796 0.024938 0.140309
0.193204 0.0252298 0.137664
0.197513 0.0253601 0.135891
0.202297 0.0252703 0.132873
0.206695 0.0253801 0.131098
0.21109 0.0253558 0.128282
0.215271 0.0251573 0.127846
0.220224 0.0253797 0.124475
0.225319 0.0254082 0.12023
0.229242 0.0254639 0.118962
0.233646 0.0258582 0.116329
0.23807 0.0256575 0.113168
0.242957 0.0255732 0.110144
0.247922 0.0260003 0.104195
0.2528 0.0262206 0.0977615
-0.160508 0.0311789 0.0224154
-0.153388 0.030482 0.0550902
-0.147791 0.0303916 0.0698555
-0.142597 0.0303721 0.0833417
-0.138006 0.0300363 0.0906851
-0.133227 0.0303075 0.0982347
-0.128199 0.0297437 0.104776
-0.12368 0.0297444 0.110714
-0.119068 0.0296027 0.115293
-0.114437 0.0293259 0.120044
-0.109803 0.0298192 0.124467
-0.105173 0.0294286 0.129017
-0.100826 0.0295766 0.132642
-0.0966654 0.0289878 0.137374
-0.0922847 0.0294033 0.140319
-0.0877239 0.0289026 0.14365
-0.0833751 0.0292061 0.147512
-0.0794422 0.0293951 0.148827
-0.0745131 0.0297313 0.152728
-0.0705716 0.0288125 0.155846
-0.0669778 0.0290104 0.157673
-0.0622766 0.0290463 0.159958
-0.0581181 0.0288413 0.162817
-0.053659 0.0291343 0.16537
-0.0493845 0.0290985 0.167836
-0.045307 0.0284856 0.1698
-0.0410568 0.0290057 0.171273
-0.037447 0.0288631 0.17311
-0.0331025 0.0288488 0.175174
-0.0290578 0.0286273 0.175843
-0.0245681 0.0291214 0.176014
-0.0204604 0.0287999 0.179504
-0.0164414 0.0283211 0.181664
-0.0121722 0.0291463 0.180607
-0.00813243 0.02912 0.181631
-0.00425189 0.028443 0.183571
-1.94891e-06 0.028814 0.183481
0.00389105 0.0281668 0.183813
0.0081874 0.028826 0.183575
0.0122818 0.0289584 0.183677
0.0164605 0.0288924 0.182979
0.0203742 0.028736 0.183501
0.0243585 0.0286765 0.182973
0.0289692 0.0288789 0.183664
0.0325576 0.0286503 0.183946
0.0372839 0.0292735 0.182397
0.040771 0.0286046 0.182614
0.0449562 0.0286538 0.182065
0.0492368 0.0287522 0.180773
0.053501 0.0288249 0.181006
0.0580149 0.0287495 0.179407
0.0615466 0.0287654 0.178458
0.0657778 0.0285514 0.177384
0.0695653 0.0287566 0.176233
0.0744671 0.0286912 0.174847
0.0785143 0.0285161 0.17327
0.0822649 0.0289577 0.171362
0.0865923 0.0286293 0.170867
0.0909792 0.0291701 0.16852
0.0949565 0.0294869 0.166048
0.0995375 0.0289306 0.163614
0.103684 0.028983 0.161469
0.107935 0.0289613 0.159132
0.112473 0.0291604 0.156743
0.116513 0.0288432 0.153993
0.120872 0.0290915 0.15241
0.125203 0.0292429 0.151627
0.129162 0.0290792 0.151047
0.133758 0.0295215 0.151219
0.137473 0.028732 0.151619
0.141535 0.0289596 0.152267
0.145714 0.0295148 0.152669
0.15006 0.0291412 0.153222
0.15422 0.0292477 0.152431
0.158129 0.0292005 0.151767
0.162899 0.0292007 0.150445
0.166807 0.0291936 0.148518
0.171495 0.0293514 0.147043
0.175938 0.0293842 0.14518
0.180341 0.0291891 0.143907
0.184383 0.0292566 0.141696
0.188887 0.0292719 0.138795
0.193088 0.0292774 0.137094
0.197692 0.0292515 0.135215
0.201963 0.0293893 0.131727
0.206348 0.0294783 0.130364
0.211201 0.029363 0.128179
0.215478 0.0295585 0.126384
0.219924 0.0298239 0.123414
0.224227 0.0295277 0.121579
0.228925 0.0295344 0.119282
0.233569 0.0296965 0.116368
0.238718 0.0298311 0.113006
0.24298 0.0300759 0.108592
0.248095 0.0297461 0.103427
0.25372 0.030093 0.0944583
-0.159202 0.0352871 0.0439587
-0.15213 0.0346987 0.0717483
-0.147352 0.0343815 0.0807779
-0.142068 0.0342683 0.0912994
-0.137159 0.034128 0.0986124
-0.132675 0.0338908 0.104654
-0.127693 0.0342726 0.110669
-0.122973 0.0344207 0.115372
-0.118743 0.0336553 0.118586
-0.114069 0.034053 0.122231
-0.109932 0.033899 0.127081
-0.105456 0.0338491 0.130283
-0.101169 0.0334489 0.134724
-0.0966839 0.0334005 0.137673
-0.0924358 0.0334252 0.141236
-0.0878773 0.0336345 0.14232
-0.0835696 0.0335287 0.146039
-0.079514 0.0338062 0.148243
-0.075412 0.033596 0.149378
-0.0706602 0.0335933 0.151785
-0.0666476 0.0336442 0.152727
-0.0626539 0.0327061 0.154977
-0.0583455 0.033132 0.158785
-0.0537766 0.0330904 0.159866
-0.0496963 0.0334875 0.160369
-0.0454848 0.0333151 0.162741
-0.0414348 0.0333483 0.164348
-0.0372159 0.033421 0.166146
-0.0333392 0.033036 0.167614
-0.0285759 0.0330897 0.168792
-0.0251517 0.0326977 0.171037
-0.0205282 0.0330118 0.171338
-0.0166792 0.0328778 0.173168
-0.0127572 0.0330005 0.173404
-0.00821668 0.0328654 0.17563
-0.00414741 0.0331982 0.175904
-0.00020543 0.0330049 0.176429
0.00412546 0.0328829 0.17734
0.00793668 0.0326602 0.1781
0.0122889 0.0327707 0.178551
0.0165757 0.0332139 0.17782
0.0201099 0.0328497 0.17837
0.0248692 0.0328488 0.179649
0.0287681 0.0329813 0.179318
0.0328562 0.0331822 0.179096
0.0366917 0.0326412 0.179885
0.0408341 0.0326303 0.18134
0.0449121 0.0329014 0.179643
0.0494077 0.0327337 0.178661
0.0533422 0.0331688 0.179318
0.0575251 0.0331439 0.178554
0.0615974 0.0330117 0.176813
0.0656701 0.0327567 0.175897
0.070028 0.0330785 0.175383
0.0739905 0.0334705 0.174477
0.0783864 0.032818 0.172917
0.0828184 0.0330491 0.170143
0.0870811 0.0328454 0.168535
0.090691 0.0329623 0.167549
0.0949692 0.0329026 0.165276
0.0992714 0.0331872 0.163284
0.103454 0.0332877 0.160651
0.108109 0.0332941 0.158451
0.112272 0.033074 0.156376
0.116585 0.033565 0.154648
0.120795 0.0330962 0.152326
0.124993 0.0331234 0.151192
0.129534 0.0333165 0.14998
0.133653 0.0337505 0.149688
0.137617 0.0335918 0.151368
0.141993 0.0332232 0.151291
0.146067 0.0331325 0.151939
0.150407 0.0333614 0.151135
0.154712 0.0333774 0.151697
0.158051 0.0335271 0.152071
0.162788 0.0333824 0.149676
0.167051 0.0331483 0.147586
0.171068 0.0336409 0.147075
0.175737 0.0334673 0.144063
0.180279 0.033361 0.143157
0.184584 0.0337045 0.141242
0.18846 0.0338513 0.140093
0.193197 0.0334441 0.136431
0.197564 0.0333498 0.134286
0.202417 0.0337662 0.132682
0.206865 0.0339053 0.129932
0.211085 0.0338326 0.128333
0.215201 0.0338999 0.126206
0.219976 0.0337029 0.124216
0.224799 0.0340329 0.12055
0.229126 0.0338429 0.119516
0.234028 0.0339493 0.115665
0.238369 0.0342892 0.112102
0.243262 0.0344472 0.10781
0.247892 0.0341436 0.103701
0.252932 0.0342853 0.0973678
-0.161851 0.0394679 0.0618807
-0.156591 0.0390147 0.0756558
-0.151354 0.0386435 0.085059
-0.146497 0.0382581 0.0909414
-0.141375 0.0384748 0.0996484
-0.136881 0.0385003 0.105015
-0.132236 0.038356 0.110942
-0.127634 0.0381282 0.113948
-0.123598 0.0378222 0.118321
-0.11844 0.0384744 0.12362
-0.11375 0.0377504 0.127744
-0.109612 0.0376838 0.130175
-0.105113 0.0381186 0.134456
-0.100769 0.037821 0.136909
-0.0965771 0.0375404 0.139623
-0.0919899 0.0375659 0.142168
-0.0876778 0.0375216 0.14506
-0.0833911 0.0375436 0.146647
-0.0790895 0.0375528 0.148796
-0.074771 0.0377095 0.148632
-0.0709641 0.0376014 0.149261
-0.0666842 0.0374976 0.149407
-0.062464 0.0376987 0.149976
-0.058418 0.0373331 0.15029
-0.0543028 0.0376291 0.151565
-0.0499043 0.037052 0.154842
-0.0456994 0.036981 0.15642
-0.0415087 0.037536 0.155056
-0.0374951 0.0377354 0.155585
-0.0334665 0.0375067 0.157176
-0.029039 0.037195 0.15761
-0.0249926 0.036787 0.159389
-0.0205542 0.0372618 0.160621
-0.0169108 0.0372915 0.160195
-0.0125756 0.0370992 0.162194
-0.00809682 0.0372816 0.163254
-0.00405589 0.0371766 0.164675
-3.08236e-05 0.0370264 0.166191
0.00419155 0.0372802 0.166489
0.0086125 0.0373084 0.16809
0.0130018 0.0373936 0.168023
0.0162672 0.0368937 0.170199
0.0208956 0.0372446 0.169465
0.0245198 0.0374145 0.171037
0.0290549 0.0371299 0.172101
0.0329575 0.0368322 0.173758
0.0367844 0.0370293 0.174986
0.0411809 0.0368986 0.175106
0.0451632 0.0369295 0.176663
0.0495676 0.0369358 0.176437
0.0535352 0.0368761 0.17553
0.0574393 0.037252 0.175162
0.0620616 0.0372462 0.175
0.0657081 0.0369911 0.174563
0.0701135 0.0368937 0.174709
0.0742399 0.0367899 0.173339
0.0784604 0.0371794 0.170729
0.0826517 0.0373446 0.169438
0.0866688 0.0375301 0.168001
0.0913157 0.0371188 0.166194
0.0952016 0.0376532 0.163872
0.0995398 0.0375157 0.162277
0.103689 0.0373317 0.159943
0.107426 0.0374029 0.158489
0.112389 0.0374036 0.15485
0.116712 0.0373071 0.15391
0.120878 0.037599 0.150812
0.125489 0.0375166 0.150071
0.129455 0.0375913 0.149075
0.133635 0.037806 0.148889
0.137447 0.0371318 0.148781
0.141955 0.0373173 0.151004
0.145674 0.0374327 0.151
0.150099 0.0375467 0.151182
0.154474 0.037617 0.151237
0.158332 0.0374472 0.150131
0.162801 0.0376752 0.148519
0.166928 0.0379358 0.147474
0.171744 0.0375834 0.145337
0.175651 0.0379282 0.143707
0.180387 0.0379201 0.142564
0.18452 0.0378009 0.140314
0.189143 0.0375638 0.138309
0.19371 0.0379581 0.135793
0.19797 0.0379043 0.134714
0.201856 0.0374863 0.132486
0.206496 0.0379739 0.129875
0.210763 0.0375965 0.12824
0.215585 0.0382052 0.126137
0.220316 0.0381301 0.123236
0.224472 0.0382699 0.122074
0.228998 0.0380403 0.118629
0.233928 0.0378528 0.115827
0.2381 0.0378995 0.112819
0.243263 0.0384736 0.108825
0.248122 0.0388715 0.103812
0.253345 0.0382308 0.0964816
-0.164938 0.0433725 0.0741915
-0.159913 0.0432278 0.083701
-0.154606 0.0429814 0.0908003
-0.15014 0.0430916 0.0969093
-0.145264 0.0428207 0.10242
-0.14131 0.0431612 0.107633
-0.136065 0.0428649 0.113252
-0.131306 0.0427203 0.117637
-0.127383 0.0425191 0.120126
-0.122906 0.0420394 0.123931
-0.117765 0.042453 0.128462
-0.114193 0.0419352 0.13056
-0.109023 0.0418821 0.134513
-0.105304 0.0420902 0.137293
-0.100851 0.0417372 0.139566
-0.0965485 0.0418146 0.142925
-0.0921322 0.0416323 0.143847
-0.0874352 0.0422784 0.146532
-0.0832806 0.0415894 0.147601
-0.0789615 0.0420204 0.149061
-0.0752565 0.0414846 0.148819
-0.0707458 0.0418115 0.150349
-0.0665311 0.0416044 0.150163
-0.0623506 0.0411991 0.15039
-0.0582461 0.0419676 0.149844
-0.05378 0.0418824 0.150781
-0.0497505 0.0416631 0.15023
-0.0460199 0.0418071 0.149291
-0.0414643 0.0417286 0.149342
-0.0374746 0.0419573 0.149434
-0.0334795 0.0417024 0.149171
-0.0293177 0.0416811 0.149557
-0.0251066 0.0416248 0.149873
-0.020653 0.0418609 0.149459
-0.0165257 0.0417723 0.148843
-0.0124974 0.0419724 0.150096
-0.00835193 0.0416006 0.149911
-0.00425222 0.0413683 0.151038
6.10349e-05 0.0416575 0.151634
0.0039874 0.0417265 0.15292
0.00841426 0.0417961 0.153076
0.0121915 0.041382 0.156133
0.0164714 0.0414098 0.156403
0.0207366 0.0417287 0.158158
0.0250817 0.0416247 0.159659
0.0292331 0.0412754 0.16191
0.033036 0.0413803 0.162035
0.0373857 0.0410936 0.164989
0.0413406 0.0414029 0.164405
0.0456119 0.0410751 0.165753
0.049684 0.0414297 0.166512
0.053802 0.0412504 0.167933
0.0581385 0.0412972 0.167872
0.0619379 0.0411955 0.168907
0.0656091 0.0409971 0.169531
0.0701557 0.0412317 0.169822
0.0743658 0.0419643 0.168058
0.0785654 0.0413236 0.168098
0.0824138 0.0411459 0.16747
0.0866035 0.0414677 0.166165
0.0912586 0.0412249 0.16449
0.0950285 0.0406547 0.163677
0.0996145 0.0413277 0.161472
0.103758 0.0415047 0.15972
0.108147 0.0411938 0.157454
0.112321 0.0416769 0.155185
0.116474 0.0413656 0.153393
0.121133 0.0415963 0.151172
0.125525 0.0419566 0.148986
0.129401 0.0414852 0.149128
0.13405 0.0418972 0.148879
0.137914 0.0416244 0.148921
0.141806 0.0418679 0.150029
0.146084 0.0418171 0.150617
0.149895 0.0415813 0.151044
0.15502 0.0420711 0.14978
0.158564 0.0416887 0.148772
0.163067 0.0421897 0.147995
0.167032 0.0418551 0.147053
0.171711 0.0414662 0.144556
0.175778 0.0421387 0.14319
0.180534 0.0415481 0.141753
0.184509 0.0416061 0.140469
0.188707 0.0416531 0.138148
0.193502 0.0414968 0.135471
0.198128 0.0419442 0.133601
0.202133 0.0422467 0.131707
0.20656 0.0423464 0.1293
0.211064 0.0425865 0.128793
0.2156 0.0424801 0.124914
0.219891 0.0422224 0.123741
0.224643 0.0424791 0.120548
0.229258 0.0425315 0.1181
0.233699 0.0427498 0.115103
0.238294 0.0426942 0.112593
0.24385 0.0427242 0.107259
0.248168 0.0427081 0.10317
0.253165 0.0430392 0.0960784
-0.175227 0.0479088 0.0597569
-0.169141 0.0475853 0.0816836
-0.163623 0.0476698 0.0886667
-0.159341 0.0470683 0.092958
-0.154863 0.0469576 0.0990684
-0.149088 0.0471016 0.104628
-0.144793 0.0470121 0.109797
-0.14044 0.0468976 0.114202
-0.135999 0.0465997 0.118905
-0.131124 0.0464555 0.122803
-0.126914 0.0466762 0.126385
-0.122562 0.0464917 0.129483
-0.117897 0.0460663 0.133008
-0.113781 0.0458589 0.135519
-0.109494 0.0458276 0.138561
-0.104833 0.0459764 0.141472
-0.100473 0.0458006 0.143182
-0.0965972 0.0456935 0.145051
-0.0920822 0.0458395 0.147032
-0.0873108 0.0457894 0.148327
-0.0834827 0.0458877 0.149293
-0.0792361 0.0457212 0.150433
-0.0745533 0.0460037 0.150758
-0.0708071 0.0456848 0.15104
-0.0667965 0.0460606 0.150582
-0.0625304 0.046029 0.150922
-0.0583273 0.0459768 0.150332
-0.0545528 0.0456942 0.15067
-0.0501931 0.0454538 0.1501
-0.0463603 0.0459537 0.148983
-0.0415108 0.0460018 0.148447
-0.037515 0.0462191 0.147578
-0.0337935 0.0459086 0.147998
-0.0293806 0.0461516 0.146411
-0.0251307 0.0457336 0.146958
-0.0207431 0.0459256 0.145402
-0.0169002 0.0458179 0.144168
-0.0124753 0.0457722 0.144003
-0.00846774 0.0454604 0.144395
-0.00429397 0.0462305 0.143467
-7.08505e-06 0.0461657 0.142698
0.00426823 0.0458311 0.143015
0.00820965 0.0458087 0.144182
0.0128419 0.0458665 0.144226
0.0168389 0.0460153 0.144487
0.020702 0.0458728 0.146269
0.0253304 0.0461353 0.147068
0.0292117 0.0457618 0.148739
0.0336489 0.0457539 0.149817
0.0376229 0.0459616 0.150449
0.0417758 0.0457186 0.15218
0.0456719 0.0456794 0.15363
0.0499701 0.0457911 0.153564
0.0541373 0.045566 0.155662
0.0583082 0.0455708 0.157363
0.0624963 0.045629 0.158293
0.0664294 0.0455106 0.159068
0.0704443 0.0457004 0.160255
0.0750099 0.0458665 0.159537
0.0785475 0.0455289 0.160766
0.083107 0.0454891 0.161064
0.0867694 0.0456314 0.161566
0.0913285 0.0455434 0.161074
0.0952887 0.0456359 0.160535
0.0998868 0.0458599 0.158914
0.103726 0.0456118 0.15733
0.108079 0.0460051 0.156408
0.112358 0.0458754 0.154317
0.11669 0.0461377 0.152563
0.121195 0.0459642 0.150743
0.12547 0.046094 0.148116
0.129574 0.0459592 0.147551
0.133593 0.0457479 0.147825
0.13773 0.0460202 0.147185
0.142129 0.0462055 0.148123
0.146315 0.0461429 0.148792
0.150258 0.0460642 0.151109
0.154601 0.0459526 0.148572
0.158934 0.0457842 0.148865
0.163091 0.0459157 0.147985
0.167037 0.0458875 0.146004
0.172035 0.0457037 0.143692
0.175902 0.0461083 0.142905
0.180313 0.0466592 0.140342
0.184682 0.0462708 0.139343
0.188988 0.0460867 0.136744
0.193125 0.0462948 0.13551
0.197963 0.0460621 0.133376
0.202353 0.0462395 0.131288
0.206702 0.0463953 0.130189
0.211214 0.0464886 0.127013
0.215788 0.0463002 0.124679
0.219798 0.0462374 0.122589
0.224569 0.0462475 0.120388
0.229498 0.0467284 0.117794
0.233922 0.0468213 0.115047
0.238673 0.0466479 0.111068
0.243291 0.0466825 0.106791
0.247915 0.0472181 0.10318
0.253037 0.0472211 0.0962194
-0.177954 0.0520021 0.0741047
-0.173169 0.0516655 0.0851154
-0.167608 0.052092 0.0934589
-0.162973 0.0514179 0.0974864
-0.158361 0.0517421 0.103575
-0.153447 0.0513906 0.108681
-0.148726 0.0507099 0.11178
-0.144242 0.0506031 0.116987
-0.139852 0.051228 0.122074
-0.134886 0.050918 0.125781
-0.130778 0.0508962 0.128822
-0.126207 0.0505015 0.132565
-0.121595 0.0505681 0.135583
-0.117646 0.050837 0.138361
-0.112927 0.0502516 0.141132
-0.109232 0.0501034 0.141707
-0.104265 0.0501456 0.146303
-0.100092 0.0504493 0.147706
-0.0962195 0.0501939 0.14846
-0.0918797 0.0498293 0.149992
-0.087888 0.0503053 0.150808
-0.0838208 0.0502023 0.151514
-0.0789633 0.0503948 0.151519
-0.0748543 0.0499458 0.151589
-0.070841 0.0498972 0.151576
-0.0666686 0.0499773 0.152193
-0.062284 0.0502094 0.151285
-0.0584802 0.0500054 0.151055
-0.0542179 0.0501802 0.150176
-0.0500344 0.0498062 0.15008
-0.0462065 0.05028 0.14954
-0.0419638 0.0503252 0.148161
-0.0375039 0.0501546 0.148378
-0.0333184 0.0505589 0.14758
-0.0293937 0.0505616 0.147173
-0.0250278 0.0503366 0.144859
-0.0210318 0.0504759 0.143648
-0.0169763 0.0504093 0.143583
-0.0126669 0.0502689 0.142116
-0.00823818 0.0501592 0.141339
-0.0043254 0.0503051 0.141662
-0.000251244 0.0504445 0.139819
0.00392778 0.050616 0.138389
0.00850294 0.0501015 0.137947
0.0127046 0.0500222 0.137504
0.0169057 0.0506521 0.136146
0.0209663 0.0501558 0.13564
0.0251857 0.0501822 0.1382
0.0293004 0.0506894 0.136729
0.0338379 0.050304 0.138851
0.0378555 0.0502091 0.139496
0.0419981 0.0499147 0.141084
0.0463366 0.0505419 0.139901
0.050166 0.0504451 0.141637
0.0544202 0.050304 0.142592
0.0583405 0.0501826 0.144544
0.0623433 0.0498626 0.146418
0.0669674 0.049744 0.148439
0.0711449 0.049816 0.14823
0.0750848 0.0499505 0.149015
0.0793773 0.0501022 0.149188
0.0835779 0.0495643 0.151618
0.0877005 0.050082 0.150661
0.0917868 0.0498963 0.152679
0.0956817 0.0500917 0.15297
0.0999687 0.0497812 0.153811
0.104503 0.0498384 0.152964
0.108517 0.0500425 0.152272
0.112591 0.0500194 0.150351
0.116538 0.0496668 0.151681
0.121576 0.0501024 0.148114
0.125448 0.0498942 0.147739
0.129688 0.0503128 0.145882
0.133723 0.0502098 0.146022
0.137766 0.0498706 0.148345
0.14205 0.0497666 0.147957
0.146301 0.0499631 0.148498
0.150204 0.0505351 0.148123
0.154493 0.0502237 0.148165
0.158512 0.0502567 0.145876
0.163005 0.0504933 0.145717
0.167448 0.0499016 0.143799
0.171508 0.0499663 0.143022
0.175685 0.0502868 0.141633
0.180152 0.0504193 0.140618
0.184969 0.0500942 0.138111
0.189161 0.0506193 0.135906
0.193643 0.0508747 0.134358
0.198056 0.0504766 0.131795
0.202684 0.0504772 0.129629
0.206781 0.0504356 0.128045
0.211009 0.0506237 0.126326
0.215772 0.0507745 0.12451
0.220576 0.0505673 0.121069
0.224724 0.0505469 0.119545
0.229063 0.0505703 0.117255
0.234119 0.0511531 0.1136
0.238499 0.0514491 0.109847
0.243959 0.0511717 0.105634
0.248224 0.0512617 0.102094
0.253639 0.0515709 0.0947261
-0.181689 0.0563959 0.0796709
-0.177236 0.0558669 0.086358
-0.171845 0.0558181 0.0958978
-0.167175 0.0559385 0.100542
-0.162491 0.0555656 0.10504
-0.158091 0.0553065 0.110189
-0.153138 0.0548646 0.114732
-0.148418 0.0552817 0.120453
-0.14365 0.0546609 0.124197
-0.139299 0.0548692 0.127445
-0.134757 0.0544607 0.130241
-0.130438 0.0543834 0.13381
-0.126153 0.054903 0.137528
-0.12139 0.0545996 0.139347
-0.117111 0.0544072 0.14349
-0.113254 0.0543229 0.14411
-0.108913 0.0542985 0.146076
-0.104546 0.0543125 0.148619
-0.10031 0.0541477 0.149794
-0.09574 0.0543027 0.151206
-0.0917512 0.0540946 0.152354
-0.0879185 0.0540866 0.153053
-0.0832441 0.0540964 0.153503
-0.0790827 0.0543069 0.15329
-0.0751431 0.0543019 0.152913
-0.0702635 0.0540263 0.153451
-0.0668043 0.0540666 0.152543
-0.0625045 0.0539632 0.152122
-0.0581927 0.0542842 0.151066
-0.054082 0.0542724 0.151294
-0.0498425 0.0544775 0.15019
-0.0457257 0.0541666 0.149359
-0.0416552 0.0541539 0.149093
-0.0377983 0.0542601 0.147147
-0.0334511 0.0542348 0.146908
-0.0294306 0.0543737 0.146156
-0.0248525 0.0542289 0.145296
-0.0206159 0.0542162 0.143793
-0.0164683 0.054433 0.142853
-0.0124644 0.0543856 0.141696
-0.00853229 0.0547129 0.140645
-0.00452918 0.0546443 0.138392
6.46125e-05 0.0547838 0.137427
0.00406427 0.0545817 0.137474
0.008493 0.0545226 0.135547
0.0124919 0.0548801 0.134125
0.0169404 0.0549156 0.133425
0.0212473 0.0546859 0.132506
0.0248745 0.0546383 0.130715
0.0295012 0.0549946 0.13082
0.0337528 0.0546946 0.131244
0.0381327 0.0548678 0.13118
0.0420052 0.055134 0.131204
0.0463665 0.0548376 0.131592
0.0504355 0.0548117 0.131018
0.0546436 0.0544758 0.132598
0.0589256 0.0546815 0.132293
0.0631927 0.0545302 0.133638
0.0675812 0.0550562 0.133107
0.07173 0.0553678 0.132462
0.0760332 0.0545003 0.136462
0.079871 0.0544914 0.136796
0.084216 0.0546152 0.137137
0.0878607 0.0544349 0.140169
0.092304 0.0548685 0.139525
0.0961912 0.0544292 0.141796
0.100313 0.0545612 0.14197
0.104601 0.0544782 0.14294
0.108789 0.0545904 0.144071
0.112793 0.054209 0.144411
0.11757 0.0540098 0.145837
0.121351 0.054352 0.144996
0.125137 0.054107 0.144405
0.129441 0.0539072 0.144833
0.133905 0.0544996 0.144503
0.138035 0.0542342 0.145062
0.142101 0.0544934 0.145444
0.146464 0.0542522 0.145883
0.150448 0.0541569 0.147614
0.15461 0.0540456 0.146473
0.15879 0.0541361 0.145081
0.163421 0.0541333 0.144406
0.16796 0.0543018 0.143205
0.17159 0.0547838 0.142031
0.175956 0.0541979 0.139727
0.180421 0.0548331 0.137555
0.185128 0.0544585 0.137222
0.189093 0.0544972 0.135725
0.193624 0.0549484 0.13262
0.198497 0.0549061 0.13024
0.202655 0.0550591 0.129356
0.206972 0.054831 0.127223
0.211647 0.0549157 0.124192
0.215801 0.054725 0.122067
0.22075 0.0553004 0.119742
0.224875 0.0553811 0.117677
0.229495 0.0555722 0.115261
0.234268 0.0551553 0.112036
0.239097 0.0555106 0.108493
0.243688 0.055777 0.104529
0.248595 0.0556148 0.100368
0.25343 0.0555014 0.0952346
-0.186712 0.0604921 0.075508
-0.180965 0.0605166 0.089761
-0.17576 0.0599608 0.098217
-0.171197 0.0597351 0.103394
-0.166027 0.0594482 0.109362
-0.161716 0.0595615 0.114752
-0.156832 0.0592342 0.118879
-0.152453 0.0591997 0.123426
-0.147881 0.0589486 0.127693
-0.143225 0.0589263 0.130412
-0.139281 0.05931 0.134046
-0.13461 0.0588221 0.136015
-0.129855 0.0590281 0.141244
-0.125421 0.0581755 0.142898
-0.12142 0.0588158 0.146174
-0.116645 0.0586605 0.147986
-0.112695 0.0588475 0.149617
-0.108587 0.0587374 0.152076
-0.104045 0.0584065 0.152871
-0.0999483 0.0579005 0.153199
-0.0955113 0.0580139 0.155006
-0.0916971 0.0583656 0.153935
-0.0873828 0.0580265 0.154472
-0.0833346 0.0580528 0.155258
-0.0795506 0.0579435 0.154818
-0.0750659 0.0581594 0.154848
-0.0706113 0.0584048 0.154741
-0.0670239 0.0583869 0.153323
-0.0627604 0.0579322 0.152716
-0.0580747 0.0580912 0.152854
-0.0541682 0.0585963 0.152481
-0.0501023 0.0582729 0.150577
-0.0459508 0.0583098 0.149614
-0.0417609 0.0584951 0.148973
-0.0375033 0.0581872 0.148125
-0.0332372 0.058431 0.146689
-0.029255 0.0585895 0.146323
-0.0252471 0.058804 0.1452
-0.0210298 0.0586105 0.144257
-0.0168138 0.0582659 0.143079
-0.0123282 0.0589173 0.141802
-0.0091004 0.0586233 0.140189
-0.00424677 0.0588682 0.138354
0.000222671 0.0590742 0.137686
0.00471299 0.058969 0.134857
0.00828512 0.0591359 0.134613
0.0124928 0.0589729 0.133254
0.016644 0.0585771 0.13262
0.0209259 0.0594293 0.130237
0.0252785 0.059033 0.129764
0.0295568 0.0591344 0.127237
0.0337961 0.0592615 0.126772
0.0383025 0.0595027 0.125989
0.0423586 0.0591328 0.125258
0.0464261 0.0592472 0.123892
0.0507204 0.0591746 0.123541
0.0545413 0.0591507 0.123294
0.0593031 0.0591281 0.123115
0.0636269 0.0593197 0.123134
0.0676302 0.0592804 0.122827
0.0721888 0.058638 0.124523
0.0763188 0.0592638 0.122869
0.080695 0.0593733 0.123428
0.0844535 0.0592467 0.124998
0.0886511 0.0592265 0.125674
0.0925805 0.0588171 0.128235
0.0969896 0.0591735 0.128014
0.101209 0.059555 0.128465
0.105449 0.0592368 0.129336
0.109613 0.0590622 0.131697
0.113703 0.0590374 0.132621
0.118101 0.0589944 0.134462
0.122172 0.0589502 0.135196
0.125903 0.0590097 0.134967
0.130344 0.0588615 0.137076
0.134252 0.058957 0.138185
0.138731 0.0589138 0.138167
0.142556 0.0587682 0.139531
0.146368 0.0590071 0.140377
0.151244 0.0587804 0.14059
0.155145 0.0587173 0.140112
0.159287 0.0584849 0.140576
0.163339 0.0589721 0.139914
0.167804 0.0589269 0.137971
0.17205 0.0590318 0.137679
0.176353 0.0587527 0.136871
0.180707 0.0590997 0.135651
0.18521 0.0590386 0.133669
0.189395 0.0589991 0.132567
0.194132 0.0586775 0.13128
0.198438 0.0590372 0.129958
0.20238 0.0594998 0.127128
0.207078 0.0588623 0.125261
0.211338 0.0592214 0.124874
0.216129 0.0592817 0.121405
0.220187 0.0597723 0.1197
0.225232 0.0592856 0.117082
0.229698 0.0595636 0.114093
