ply
format ascii 1.0
element vertex 1662
property float x
property float y
property float z
end_header
-0.0760127 -0.355454 0.228146
-0.071897 -0.354918 0.231445
-0.0675758 -0.354589 0.233355
-0.0638764 -0.354096 0.234338
-0.0596431 -0.354213 0.235511
-0.0558162 -0.353972 0.236931
-0.0516312 -0.35422 0.237735
-0.0474539 -0.353171 0.239173
-0.0438985 -0.35346 0.239526
-0.0393352 -0.352204 0.242722
-0.0356043 -0.352108 0.244593
-0.0314652 -0.351849 0.246626
-0.0276602 -0.351846 0.247412
-0.0237615 -0.351258 0.248793
-0.0195537 -0.351573 0.248498
-0.0155949 -0.351342 0.249745
-0.0117746 -0.351205 0.250148
-0.00803196 -0.351382 0.24872
-0.00417432 -0.351805 0.247588
0.00031327 -0.352528 0.245726
0.00375002 -0.352535 0.244168
0.00798188 -0.352841 0.243156
0.0118857 -0.353321 0.241516
0.0159194 -0.353221 0.239774
0.0202202 -0.353847 0.23787
0.0238208 -0.353951 0.235867
0.0282876 -0.354493 0.233437
0.0317347 -0.354897 0.232996
0.0363773 -0.355142 0.231253
0.0397058 -0.355979 0.228579
0.0441839 -0.355931 0.227853
0.0481706 -0.356073 0.225535
0.05238 -0.356644 0.222908
0.0563451 -0.357097 0.221729
0.0600129 -0.357263 0.219365
0.0644813 -0.357698 0.216873
0.0686163 -0.358137 0.214604
0.0724171 -0.358857 0.212605
0.0768092 -0.359355 0.210544
0.0809341 -0.359481 0.208151
0.0852862 -0.360482 0.204739
0.0888176 -0.360663 0.203203
0.0938237 -0.361517 0.200226
0.0974032 -0.361751 0.197864
0.101922 -0.3624 0.195091
0.105663 -0.362865 0.192584
0.110708 -0.363436 0.189755
0.114471 -0.364244 0.186198
0.11854 -0.364294 0.183387
0.123088 -0.365061 0.180402
0.127322 -0.365964 0.176647
0.13205 -0.366626 0.1726
0.136202 -0.367501 0.169957
0.140695 -0.368252 0.166312
0.145103 -0.368668 0.161439
0.149299 -0.369754 0.157703
0.153883 -0.370416 0.153582
0.158597 -0.371681 0.147773
0.162703 -0.372172 0.143585
0.16794 -0.373835 0.1381
0.172602 -0.374823 0.132771
0.177333 -0.375645 0.127875
0.182612 -0.37732 0.120908
0.187217 -0.378069 0.116732
0.191263 -0.378285 0.112716
0.196939 -0.380152 0.106374
0.20092 -0.380849 0.101808
0.206343 -0.382357 0.094979
0.211457 -0.38426 0.0873091
0.216367 -0.385417 0.0798917
0.222122 -0.387492 0.0688072
0.22762 -0.390281 0.0564381
0.234353 -0.393493 0.0385324
-0.227601 -0.399891 -0.0168722
-0.219984 -0.395344 0.00729036
-0.214134 -0.39238 0.0239447
-0.207917 -0.389011 0.0393256
-0.201613 -0.386388 0.0543936
-0.196408 -0.38373 0.0666614
-0.19084 -0.380564 0.080976
-0.184805 -0.378088 0.0951589
-0.179275 -0.375848 0.10607
-0.17402 -0.373777 0.117291
-0.168325 -0.371258 0.129317
-0.163663 -0.36915 0.138627
-0.158473 -0.367733 0.148499
-0.154232 -0.365827 0.154989
-0.14945 -0.364974 0.161169
-0.144444 -0.363606 0.169195
-0.140085 -0.361887 0.172919
-0.135577 -0.361788 0.178312
-0.131388 -0.360764 0.181947
-0.126898 -0.359568 0.187464
-0.121721 -0.358864 0.1933
-0.117971 -0.358037 0.196967
-0.113252 -0.356835 0.201441
-0.109116 -0.355859 0.206034
-0.105087 -0.35534 0.209965
-0.100546 -0.354441 0.214006
-0.096784 -0.354115 0.21468
-0.0922672 -0.353674 0.218925
-0.0881395 -0.352851 0.221632
-0.0842894 -0.352408 0.2241
-0.0798643 -0.351834 0.225476
-0.0756203 -0.35131 0.230102
-0.0722191 -0.35084 0.231572
-0.0676089 -0.350973 0.233058
-0.0639177 -0.350644 0.234414
-0.0597805 -0.349879 0.236595
-0.0556538 -0.350153 0.236514
-0.0517443 -0.349288 0.239254
-0.0474558 -0.349051 0.239529
-0.043674 -0.34892 0.242832
-0.0395965 -0.348742 0.243678
-0.0355264 -0.34819 0.24538
-0.0317357 -0.348057 0.247481
-0.027854 -0.347719 0.24886
-0.0232919 -0.347261 0.250058
-0.0195723 -0.347159 0.250133
-0.0155016 -0.347181 0.250431
-0.0116465 -0.34787 0.249169
-0.00819317 -0.34788 0.248355
-0.00405728 -0.3478 0.248149
8.01076e-05 -0.347897 0.245453
0.00376578 -0.348497 0.244339
0.0077868 -0.348131 0.242847
0.0117456 -0.349043 0.240898
0.0159314 -0.349398 0.239575
0.0199645 -0.34976 0.237574
0.0236578 -0.350389 0.235288
0.0273769 -0.350293 0.23483
0.0317452 -0.350515 0.233092
0.035839 -0.350626 0.231346
0.039847 -0.351174 0.229907
0.0439467 -0.351969 0.227201
0.0478053 -0.352272 0.225419
0.0520535 -0.352718 0.223825
0.0562352 -0.352893 0.221158
0.060473 -0.353005 0.218529
0.0644838 -0.353903 0.21766
0.0688042 -0.354018 0.214959
0.0726823 -0.35449 0.212416
0.0769958 -0.355421 0.209418
0.0811031 -0.355538 0.208343
0.0852713 -0.356625 0.204987
0.0890234 -0.357005 0.202028
0.0930957 -0.356794 0.200367
0.097626 -0.357345 0.198491
0.102095 -0.358727 0.194338
0.106418 -0.358902 0.191895
0.110499 -0.358942 0.18981
0.114857 -0.360227 0.186466
0.118496 -0.360332 0.183835
0.123317 -0.361039 0.17969
0.127418 -0.361796 0.177513
0.132048 -0.362739 0.173378
0.135928 -0.363229 0.170194
0.140649 -0.364076 0.165576
0.145233 -0.364605 0.162036
0.14946 -0.365853 0.157547
0.153756 -0.366783 0.153382
0.15847 -0.367567 0.148919
0.1637 -0.368875 0.142064
0.167677 -0.369232 0.138623
0.172599 -0.37068 0.132713
0.17714 -0.371538 0.127552
0.182134 -0.372528 0.121956
0.187114 -0.373698 0.117401
0.191564 -0.374402 0.111633
0.196878 -0.375846 0.106246
0.201143 -0.37656 0.10225
0.206688 -0.378186 0.0950674
0.211447 -0.379082 0.0881665
0.216463 -0.381142 0.0794774
0.221992 -0.383248 0.0698086
0.228137 -0.385125 0.0577649
0.2339 -0.388384 0.0429575
-0.228074 -0.396768 -0.0213397
-0.220998 -0.391932 0.00160289
-0.214002 -0.388175 0.0223683
-0.20793 -0.384983 0.0372339
-0.202741 -0.382794 0.0494151
-0.196251 -0.379362 0.0658244
-0.191036 -0.377215 0.0773876
-0.185207 -0.374021 0.0910214
-0.179663 -0.372021 0.103351
-0.174626 -0.37005 0.113357
-0.168543 -0.367866 0.126358
-0.163815 -0.366078 0.137463
-0.158799 -0.363841 0.146041
-0.154264 -0.362412 0.15233
-0.149291 -0.360916 0.159979
-0.144669 -0.359816 0.165646
-0.140438 -0.358744 0.170727
-0.136341 -0.358211 0.175462
-0.131808 -0.357183 0.179664
-0.127368 -0.356297 0.185697
-0.122481 -0.355027 0.190245
-0.118175 -0.353779 0.195406
-0.113569 -0.353078 0.200604
-0.109089 -0.352457 0.20453
-0.104882 -0.351268 0.207488
-0.100819 -0.350817 0.211065
-0.096731 -0.350452 0.214657
-0.0924483 -0.3494 0.217356
-0.0877351 -0.34918 0.219973
-0.0844282 -0.348666 0.222618
-0.0802665 -0.348232 0.225272
-0.0759073 -0.347903 0.227824
-0.0719005 -0.347435 0.229382
-0.0678252 -0.34707 0.232156
-0.0639034 -0.346582 0.233184
-0.0598826 -0.345798 0.236355
-0.0560449 -0.345831 0.237682
-0.0515015 -0.345582 0.23956
-0.0481176 -0.345274 0.240517
-0.0432385 -0.344604 0.24398
-0.0393143 -0.344618 0.245029
-0.0355801 -0.343519 0.247597
-0.0319554 -0.343838 0.247567
-0.0278934 -0.343796 0.248941
-0.0237817 -0.343495 0.250132
-0.020063 -0.343044 0.250982
-0.0159475 -0.343619 0.250223
-0.0117318 -0.343708 0.249271
-0.00782009 -0.343477 0.248949
-0.00391185 -0.344296 0.246968
-0.000153459 -0.343984 0.24617
0.00426558 -0.344538 0.243986
0.0077165 -0.344813 0.242495
0.011858 -0.344997 0.241087
0.0158982 -0.345862 0.239464
0.0199384 -0.345888 0.237433
0.0234695 -0.346041 0.23657
0.0281698 -0.346477 0.234129
0.0319277 -0.347112 0.23179
0.0361917 -0.347462 0.229914
0.0397713 -0.347272 0.229324
0.0441398 -0.3481 0.226245
0.0477497 -0.348231 0.225164
0.0517239 -0.348437 0.223982
0.0562751 -0.348984 0.221893
0.0600126 -0.349335 0.219644
0.0640939 -0.350361 0.217384
0.0684257 -0.350062 0.21573
0.072254 -0.350815 0.212702
0.0767147 -0.351241 0.209813
0.0807882 -0.351349 0.208017
0.0856765 -0.352064 0.205118
0.0893249 -0.352505 0.202667
0.0930781 -0.353187 0.200294
0.0977361 -0.353903 0.198056
0.101771 -0.354209 0.195073
0.106233 -0.354542 0.191779
0.110234 -0.355187 0.190096
0.114632 -0.355376 0.186255
0.119202 -0.356962 0.182734
0.123386 -0.35689 0.179722
0.127116 -0.357861 0.176519
0.131795 -0.357763 0.174514
0.136257 -0.359139 0.170111
0.140793 -0.359566 0.16523
0.144976 -0.360701 0.161933
0.149736 -0.361755 0.157569
0.154088 -0.362361 0.153455
0.1586 -0.363047 0.148911
0.16358 -0.364515 0.143075
0.167894 -0.365306 0.138073
0.17243 -0.365983 0.13347
0.177239 -0.367114 0.127524
0.182001 -0.368182 0.122742
0.1872 -0.369472 0.117322
0.191726 -0.370353 0.11211
0.196402 -0.371411 0.107535
0.20117 -0.372867 0.101674
0.206561 -0.373422 0.0948415
0.211036 -0.375052 0.0881886
0.216653 -0.376814 0.0798655
0.22191 -0.378242 0.0717916
0.227729 -0.381161 0.0595394
0.233232 -0.383371 0.0464197
0.242039 -0.389913 0.0126119
-0.228429 -0.393445 -0.027102
-0.220541 -0.387993 -0.000176907
-0.214183 -0.384559 0.0191239
-0.208825 -0.381903 0.031979
-0.201654 -0.378347 0.0497315
-0.197221 -0.376238 0.0606592
-0.191078 -0.373202 0.0748194
-0.18488 -0.370234 0.0900023
-0.179967 -0.368394 0.0997633
-0.17453 -0.366245 0.112123
-0.169502 -0.364364 0.122032
-0.164028 -0.362384 0.134243
-0.159711 -0.359992 0.14228
-0.154493 -0.359068 0.149939
-0.14928 -0.357027 0.158804
-0.14529 -0.356422 0.163509
-0.1404 -0.355068 0.169096
-0.136185 -0.354087 0.173482
-0.13121 -0.35313 0.178907
-0.1268 -0.352056 0.183773
-0.122426 -0.351217 0.188971
-0.118398 -0.350482 0.192732
-0.113886 -0.349126 0.197751
-0.109534 -0.348722 0.202266
-0.105224 -0.347925 0.206264
-0.100517 -0.347183 0.210779
-0.0969702 -0.347024 0.212079
-0.0925413 -0.346241 0.215648
-0.0886139 -0.345757 0.21843
-0.0843687 -0.344943 0.221993
-0.0805948 -0.344421 0.223955
-0.0762195 -0.343902 0.226755
-0.0720211 -0.343327 0.229292
-0.0677774 -0.34284 0.233084
-0.0636599 -0.342351 0.234417
-0.0599612 -0.342098 0.236258
-0.0556252 -0.341523 0.238811
-0.0516581 -0.341588 0.240308
-0.04762 -0.340691 0.242386
-0.0436643 -0.340543 0.243846
-0.0396836 -0.340115 0.246145
-0.0352156 -0.340058 0.248002
-0.0312736 -0.339411 0.250204
-0.0278026 -0.339114 0.251567
-0.0234967 -0.33906 0.251409
-0.019477 -0.338953 0.252178
-0.0159481 -0.339388 0.250848
-0.0120874 -0.339927 0.249401
-0.00757516 -0.339714 0.248
-0.00337965 -0.340441 0.246828
0.000118984 -0.34051 0.245853
0.00427713 -0.340391 0.24337
0.00783656 -0.341016 0.242585
0.0121732 -0.341612 0.240229
0.0161173 -0.341926 0.238992
0.0199038 -0.342306 0.237054
0.0238706 -0.342377 0.235153
0.0280303 -0.34245 0.234586
0.0321523 -0.342946 0.233127
0.0354012 -0.343062 0.230329
0.0400624 -0.34401 0.227332
0.0435789 -0.343911 0.227059
0.0481017 -0.344423 0.224652
0.0521915 -0.344568 0.222752
0.0558431 -0.345063 0.220705
0.060582 -0.34596 0.218072
0.0642944 -0.345794 0.217321
0.0684893 -0.3465 0.215014
0.0725641 -0.346557 0.21218
0.0768394 -0.347194 0.209601
0.0811438 -0.347406 0.207893
0.084776 -0.347995 0.205393
0.0892773 -0.348936 0.202879
0.0933632 -0.348473 0.200459
0.0974186 -0.349697 0.196773
0.102185 -0.350181 0.194713
0.106166 -0.350506 0.192061
0.110143 -0.351322 0.18932
0.114493 -0.351631 0.186561
0.118626 -0.352215 0.183239
0.123164 -0.35294 0.180606
0.127352 -0.353438 0.177461
0.13207 -0.354294 0.173386
0.136204 -0.35461 0.170408
0.140511 -0.355609 0.166637
0.14509 -0.35656 0.1624
0.149496 -0.35764 0.158297
0.15417 -0.358136 0.153579
0.158909 -0.359181 0.148046
0.16303 -0.359759 0.144225
0.168051 -0.361276 0.137975
0.172347 -0.361972 0.133766
0.176866 -0.36304 0.127322
0.182121 -0.364066 0.122405
0.186595 -0.365246 0.117156
0.191496 -0.366156 0.112725
0.196739 -0.367075 0.107321
0.200948 -0.368119 0.102162
0.205574 -0.369573 0.0958043
0.211189 -0.370554 0.0888754
0.21606 -0.372059 0.0817994
0.221258 -0.373579 0.0732015
0.227711 -0.376123 0.0609633
0.233903 -0.378586 0.0468137
0.240587 -0.383066 0.025751
-0.2218 -0.384734 -0.00799584
-0.215313 -0.380496 0.0130826
-0.209362 -0.377818 0.0284809
-0.20291 -0.37485 0.0440986
-0.197363 -0.371929 0.0577791
-0.19139 -0.36966 0.0726216
-0.185192 -0.366597 0.0864965
-0.180329 -0.364783 0.0966209
-0.175014 -0.362627 0.108905
-0.170016 -0.360143 0.118744
-0.16452 -0.358306 0.13097
-0.159028 -0.356323 0.141983
-0.154843 -0.35526 0.147189
-0.150015 -0.35336 0.154912
-0.144769 -0.352182 0.16183
-0.140532 -0.351571 0.167189
-0.136073 -0.350765 0.171061
-0.131402 -0.349484 0.176116
-0.127062 -0.348785 0.181174
-0.122971 -0.348035 0.185693
-0.118303 -0.34714 0.191859
-0.113666 -0.345658 0.197339
-0.109251 -0.345065 0.200502
-0.10537 -0.343998 0.204893
-0.100692 -0.343722 0.20883
-0.0970308 -0.343093 0.210831
-0.0929008 -0.342292 0.21402
-0.0880621 -0.341264 0.21762
-0.0841522 -0.341047 0.220367
-0.0803462 -0.340505 0.223197
-0.0760512 -0.340016 0.225765
-0.0721082 -0.339376 0.229655
-0.0676255 -0.338916 0.232309
-0.0636182 -0.338535 0.235043
-0.0595508 -0.33797 0.237184
-0.0554063 -0.337482 0.239756
-0.0512945 -0.337114 0.241951
-0.0474126 -0.336697 0.244022
-0.0436588 -0.336133 0.246179
-0.0391903 -0.335782 0.247878
-0.0356636 -0.335235 0.249611
-0.0314486 -0.335269 0.251165
-0.0275394 -0.334919 0.25146
-0.0236295 -0.335166 0.251392
-0.0200857 -0.335307 0.251223
-0.0155577 -0.33545 0.250362
-0.0117605 -0.335728 0.249291
-0.00795159 -0.335548 0.24826
-0.00410875 -0.336017 0.247041
0.000268448 -0.336617 0.244812
0.00387778 -0.336812 0.243563
0.00771739 -0.337137 0.24191
0.0114494 -0.337403 0.240269
0.0158616 -0.33754 0.238844
0.0201192 -0.338158 0.2363
0.0238784 -0.338113 0.235307
0.0279947 -0.33861 0.233831
0.0319629 -0.339086 0.231477
0.0358788 -0.338671 0.230568
0.0401656 -0.33956 0.228141
0.0436907 -0.340092 0.227263
0.0482088 -0.340689 0.224498
0.0522007 -0.341005 0.223263
0.056082 -0.34157 0.220082
0.0601617 -0.341527 0.219491
0.0641659 -0.342063 0.216971
0.0684435 -0.342156 0.214728
0.0725269 -0.342519 0.212659
0.0766813 -0.343321 0.210621
0.081105 -0.343555 0.20687
0.0849264 -0.3438 0.205452
0.0894212 -0.344839 0.202011
0.0933094 -0.344906 0.200082
0.0975185 -0.345466 0.197362
0.101645 -0.345948 0.194706
0.106254 -0.346332 0.19226
0.110138 -0.347009 0.18979
0.114652 -0.347337 0.186072
0.118628 -0.348387 0.182783
0.123116 -0.34902 0.18017
0.12758 -0.349535 0.176739
0.13179 -0.350031 0.174667
0.13606 -0.351385 0.170097
0.140699 -0.351316 0.165964
0.145046 -0.351945 0.163095
0.149726 -0.353267 0.157841
0.154202 -0.353816 0.15334
0.158466 -0.354831 0.149662
0.163184 -0.35546 0.144172
0.167458 -0.356532 0.139384
0.172677 -0.357474 0.134169
0.17745 -0.359455 0.126763
0.182207 -0.360092 0.122533
0.186565 -0.360436 0.117956
0.191154 -0.361675 0.113792
0.195878 -0.362785 0.107878
0.201615 -0.363723 0.101188
0.206382 -0.365295 0.0953586
0.210884 -0.36625 0.0902554
0.216436 -0.368208 0.0812367
0.221279 -0.369649 0.0729268
0.227449 -0.372035 0.061855
0.232684 -0.37368 0.0497489
0.23985 -0.377992 0.0295619
-0.222706 -0.381595 -0.0145969
-0.21527 -0.37727 0.00958204
-0.209673 -0.374189 0.024294
-0.203043 -0.371102 0.0420984
-0.1973 -0.368564 0.0560209
-0.192116 -0.366031 0.0678444
-0.185999 -0.363661 0.0829294
-0.180195 -0.360944 0.0954583
-0.175035 -0.358725 0.105961
-0.169953 -0.356748 0.116898
-0.164191 -0.354385 0.129643
-0.15964 -0.352622 0.137223
-0.15469 -0.351234 0.146196
-0.150373 -0.349841 0.15267
-0.145092 -0.348509 0.158723
-0.140731 -0.347596 0.164954
-0.135964 -0.346767 0.16986
-0.132083 -0.345918 0.173807
-0.127098 -0.344692 0.178525
-0.122944 -0.344218 0.183661
-0.11886 -0.343053 0.188882
-0.114173 -0.342401 0.193643
-0.109505 -0.341276 0.198587
-0.105124 -0.34051 0.203504
-0.101184 -0.339832 0.205901
-0.097043 -0.339734 0.209335
-0.0925438 -0.338527 0.21309
-0.0885144 -0.338655 0.215698
-0.0841153 -0.337479 0.219645
-0.0798513 -0.336609 0.22417
-0.0759835 -0.335904 0.227224
-0.0719752 -0.33531 0.22998
-0.0672568 -0.334741 0.233723
-0.063733 -0.334485 0.235891
-0.0596015 -0.33353 0.238239
-0.0557506 -0.333335 0.241087
-0.0518215 -0.332463 0.24331
-0.0471736 -0.332722 0.244961
-0.0436591 -0.331568 0.246787
-0.0393801 -0.33181 0.248811
-0.0356417 -0.331187 0.251204
-0.0313469 -0.330966 0.251723
-0.0275826 -0.331073 0.252212
-0.0238042 -0.331259 0.252857
-0.019442 -0.331367 0.251422
-0.0160646 -0.331755 0.250577
-0.0117333 -0.331257 0.249799
-0.00817545 -0.331935 0.247498
-0.00384257 -0.332256 0.247113
0.000217376 -0.332254 0.244967
0.00360137 -0.332559 0.244392
0.00800834 -0.333117 0.242082
0.0118225 -0.333669 0.240336
0.016016 -0.333596 0.238815
0.0199317 -0.334092 0.236572
0.0240637 -0.334166 0.234802
0.0276673 -0.334067 0.234642
0.0317584 -0.334742 0.23314
0.035996 -0.33539 0.230031
0.0400309 -0.335967 0.228949
0.0439177 -0.335984 0.226299
0.047477 -0.336272 0.225069
0.0518654 -0.336687 0.222784
0.0565846 -0.337095 0.220945
0.0603691 -0.337502 0.218757
0.0645828 -0.337959 0.215477
0.0683236 -0.338174 0.215069
0.0726923 -0.33876 0.21216
0.0769813 -0.339443 0.209152
0.0804892 -0.33959 0.207174
0.0849225 -0.339982 0.204828
0.0890866 -0.340625 0.201915
0.0929243 -0.341382 0.200101
0.0976967 -0.341385 0.197558
0.10221 -0.341936 0.194254
0.10631 -0.342619 0.192145
0.110426 -0.343101 0.1895
0.114652 -0.343557 0.186518
0.118987 -0.343905 0.183233
0.123554 -0.34454 0.179917
0.127529 -0.345493 0.176882
0.131906 -0.346074 0.173991
0.136395 -0.346843 0.170062
0.140389 -0.347522 0.166028
0.144873 -0.347589 0.163295
0.149482 -0.348476 0.15922
0.154382 -0.350216 0.153273
0.158787 -0.35016 0.149548
0.163192 -0.351479 0.144036
0.167663 -0.3525 0.140232
0.172559 -0.35317 0.134209
0.177071 -0.35446 0.128475
0.1818 -0.355787 0.123175
0.186165 -0.356309 0.119234
0.191547 -0.357459 0.112884
0.196184 -0.358575 0.108773
0.200736 -0.359538 0.103187
0.206009 -0.360613 0.0965221
0.21061 -0.361576 0.0905786
0.216574 -0.363609 0.0806569
0.221414 -0.364995 0.0731165
0.227231 -0.367586 0.0606139
0.233342 -0.369812 0.0469747
0.239407 -0.372917 0.0311865
-0.223967 -0.37873 -0.0251906
-0.216075 -0.373369 0.0035131
-0.209264 -0.369731 0.0235387
-0.203698 -0.367472 0.0381213
-0.197726 -0.364573 0.0523032
-0.19201 -0.362378 0.0656667
-0.185973 -0.35929 0.0803056
-0.181139 -0.357415 0.0917687
-0.175229 -0.354878 0.103804
-0.16985 -0.353233 0.11462
-0.165193 -0.351099 0.124082
-0.160198 -0.348901 0.134395
-0.154339 -0.347303 0.144549
-0.150114 -0.345473 0.151254
-0.145468 -0.345138 0.15607
-0.140761 -0.343885 0.162463
-0.136357 -0.342966 0.166947
-0.13178 -0.34206 0.172122
-0.127243 -0.341 0.176825
-0.123451 -0.340427 0.180965
-0.118877 -0.339555 0.18695
-0.114246 -0.338505 0.192228
-0.109934 -0.337543 0.196614
-0.10552 -0.336781 0.202006
-0.101294 -0.335934 0.204697
-0.0966934 -0.33529 0.209279
-0.0924768 -0.334607 0.213221
-0.0880822 -0.334328 0.216335
-0.0843976 -0.33349 0.219693
-0.0798035 -0.33236 0.224429
-0.0757526 -0.332046 0.227687
-0.0720368 -0.331462 0.229882
-0.0675467 -0.330792 0.233467
-0.0637202 -0.330087 0.237623
-0.0596081 -0.329703 0.239588
-0.0554738 -0.329113 0.241646
-0.0514112 -0.328888 0.244308
-0.0473639 -0.328147 0.246028
-0.043696 -0.32754 0.248349
-0.0398116 -0.327474 0.250024
-0.0353033 -0.327244 0.251767
-0.0314265 -0.327351 0.252636
-0.027576 -0.327082 0.253207
-0.0236961 -0.327002 0.252751
-0.0195483 -0.327243 0.252768
-0.0158813 -0.327534 0.250025
-0.0117712 -0.327908 0.249289
-0.00779739 -0.327943 0.247997
-0.00394503 -0.327937 0.246713
-0.000305397 -0.328583 0.245305
0.00400232 -0.328564 0.244228
0.00811232 -0.328896 0.242437
0.0119809 -0.329717 0.239753
0.0157381 -0.330203 0.237441
0.0195981 -0.329977 0.236778
0.0235364 -0.330284 0.235718
0.0278639 -0.33075 0.233328
0.0316699 -0.330794 0.231685
0.0359149 -0.331528 0.229467
0.0400177 -0.331429 0.228264
0.0439546 -0.332035 0.22667
0.0481819 -0.332576 0.224444
0.0519585 -0.332743 0.222724
0.0561546 -0.333058 0.220654
0.0599248 -0.333245 0.219427
0.0641964 -0.333805 0.216129
0.0684587 -0.334192 0.214774
0.0729248 -0.334932 0.211456
0.0769087 -0.335255 0.209175
0.0804086 -0.336013 0.207019
0.0848221 -0.33613 0.204923
0.0894197 -0.336397 0.202135
0.0931475 -0.336888 0.200507
0.0976696 -0.337428 0.197513
0.10193 -0.337321 0.194604
0.106056 -0.338019 0.192547
0.110542 -0.33908 0.189018
0.114392 -0.339673 0.186294
0.118679 -0.340234 0.18266
0.122904 -0.340335 0.180128
0.127342 -0.340944 0.177155
0.13197 -0.34168 0.173123
0.136076 -0.342312 0.170443
0.140448 -0.342864 0.167255
0.145374 -0.344372 0.161592
0.149512 -0.344848 0.157681
0.15385 -0.345602 0.154704
0.158375 -0.346074 0.150154
0.162847 -0.34732 0.145502
0.168129 -0.34822 0.139238
0.172575 -0.349143 0.134611
0.176939 -0.349906 0.129458
0.181827 -0.351095 0.124589
0.186946 -0.352032 0.118499
0.191637 -0.352808 0.113839
0.19613 -0.353954 0.10775
0.20111 -0.355259 0.102635
0.206119 -0.35624 0.0966443
0.211442 -0.358155 0.0886885
0.216491 -0.359696 0.0812213
0.221862 -0.360781 0.0712111
0.227494 -0.362748 0.0602987
0.233767 -0.365775 0.0457575
0.239583 -0.368864 0.0301727
-0.227194 -0.379506 -0.0513496
-0.216239 -0.370496 -0.000469923
-0.209755 -0.366363 0.0192705
-0.20431 -0.363703 0.0339613
-0.197797 -0.360766 0.0498999
-0.191974 -0.357933 0.063563
-0.186729 -0.355482 0.0759386
-0.180944 -0.353283 0.0902654
-0.175166 -0.351263 0.101984
-0.170157 -0.349106 0.112408
-0.165091 -0.347002 0.123767
-0.160231 -0.345486 0.131515
-0.155055 -0.343511 0.140571
-0.150146 -0.342624 0.149082
-0.145169 -0.341233 0.155744
-0.141206 -0.340277 0.160088
-0.136959 -0.339423 0.1646
-0.132231 -0.338245 0.169258
-0.12779 -0.337768 0.173615
-0.122878 -0.336712 0.179527
-0.118883 -0.335687 0.185156
-0.11428 -0.334721 0.189387
-0.110016 -0.333632 0.19447
-0.105315 -0.332955 0.199779
-0.101244 -0.332174 0.202698
-0.0969591 -0.33146 0.205931
-0.0931707 -0.33064 0.210518
-0.0887051 -0.330124 0.215207
-0.084046 -0.328913 0.220697
-0.080147 -0.328137 0.224218
-0.0757448 -0.327609 0.228275
-0.0715325 -0.327079 0.231993
-0.0674989 -0.326458 0.235332
-0.0634185 -0.325896 0.238334
-0.0596998 -0.325452 0.240776
-0.0555045 -0.324548 0.243945
-0.0512607 -0.32436 0.24612
-0.0475941 -0.323873 0.248181
-0.0432372 -0.323504 0.249957
-0.0393956 -0.323028 0.251588
-0.0355093 -0.322991 0.25282
-0.0314362 -0.323144 0.254168
-0.0275958 -0.322929 0.253208
-0.0235468 -0.322986 0.252473
-0.0197632 -0.323192 0.251558
-0.0161089 -0.323499 0.251198
-0.0120126 -0.323589 0.249471
-0.00793616 -0.324118 0.247656
-0.00410617 -0.323973 0.246626
-2.44707e-05 -0.324436 0.245513
0.00381183 -0.325369 0.242982
0.00847694 -0.325126 0.241511
0.0120425 -0.325429 0.240139
0.0156018 -0.325998 0.23796
0.0200209 -0.325982 0.236941
0.0240556 -0.326209 0.235229
0.0278069 -0.326587 0.234222
0.0318058 -0.327276 0.230914
0.0360441 -0.327253 0.230749
0.0400977 -0.327995 0.22722
0.0441484 -0.328164 0.226458
0.047796 -0.328288 0.224523
0.0521654 -0.328788 0.222219
0.0560628 -0.329157 0.220431
0.060153 -0.329354 0.219548
0.0643969 -0.329295 0.216772
0.0681242 -0.33012 0.215079
0.0729903 -0.330839 0.211324
0.0766146 -0.331147 0.210131
0.0811063 -0.331736 0.207386
0.085076 -0.331902 0.205013
0.0893277 -0.33223 0.202603
0.0933712 -0.333061 0.199386
0.0975574 -0.333521 0.197119
0.101474 -0.333894 0.195113
0.106172 -0.334401 0.191658
0.11029 -0.334924 0.18911
0.11456 -0.335516 0.185104
0.118876 -0.335791 0.183695
0.123242 -0.336871 0.179571
0.127576 -0.337536 0.176281
0.131559 -0.337868 0.174072
0.136111 -0.338599 0.170254
0.140492 -0.33907 0.166718
0.145494 -0.339847 0.162458
0.149696 -0.340704 0.158461
0.154269 -0.341269 0.153721
0.158924 -0.342336 0.149003
0.163161 -0.342739 0.145622
0.167736 -0.343745 0.14078
0.172526 -0.345149 0.134958
0.177067 -0.346026 0.129001
0.181353 -0.346924 0.125298
0.18662 -0.347651 0.119281
0.191334 -0.348612 0.114972
0.196184 -0.349468 0.108751
0.200998 -0.35102 0.102509
0.206133 -0.352131 0.0967594
0.210978 -0.353146 0.0900133
0.216841 -0.354877 0.0803571
0.222029 -0.356381 0.0704204
0.227511 -0.358347 0.0600121
0.233648 -0.361294 0.0456823
0.240077 -0.364564 0.02728
-0.217599 -0.367055 -0.00975227
-0.2107 -0.362865 0.013503
-0.204277 -0.359247 0.0317192
-0.198292 -0.356728 0.046168
-0.19236 -0.354661 0.0597217
-0.186879 -0.351705 0.0739583
-0.181167 -0.34969 0.0870396
-0.175942 -0.347162 0.0982714
-0.17048 -0.34562 0.10921
-0.165665 -0.34377 0.119002
-0.160387 -0.34122 0.12936
-0.15499 -0.339625 0.139441
-0.150439 -0.338559 0.146497
-0.145784 -0.337312 0.152648
-0.141336 -0.336267 0.158437
-0.137214 -0.335612 0.16225
-0.132566 -0.334444 0.166849
-0.127891 -0.33419 0.171633
-0.123541 -0.332982 0.177151
-0.119146 -0.332174 0.182045
-0.114647 -0.331254 0.187751
-0.110007 -0.329416 0.192955
-0.105717 -0.329183 0.197076
-0.101561 -0.328254 0.202035
-0.0972057 -0.327646 0.206993
-0.0926835 -0.326842 0.211348
-0.0885085 -0.325854 0.214962
-0.0846416 -0.324573 0.220376
-0.0802336 -0.3246 0.224453
-0.0759519 -0.323299 0.229603
-0.0716389 -0.322584 0.233771
-0.0675244 -0.322186 0.236644
-0.0632035 -0.321679 0.239562
-0.0594144 -0.320686 0.243398
-0.0553662 -0.320379 0.245157
-0.0516121 -0.3204 0.24706
-0.0473992 -0.320045 0.249411
-0.0428981 -0.319567 0.251448
-0.0396673 -0.319297 0.252941
-0.0354074 -0.319309 0.252514
-0.031516 -0.318627 0.253668
-0.0279099 -0.318898 0.252942
-0.023387 -0.319163 0.252641
-0.0194923 -0.319394 0.251566
-0.0152765 -0.319499 0.250343
-0.0116296 -0.319867 0.249549
-0.00833936 -0.320089 0.247779
-0.00384072 -0.320394 0.246338
4.49911e-05 -0.320558 0.244593
0.00381523 -0.320882 0.243538
0.00777378 -0.320811 0.242902
0.0120248 -0.321886 0.239354
0.0153971 -0.321553 0.238721
0.0200993 -0.322337 0.236647
0.0238012 -0.322637 0.234965
0.0283343 -0.32293 0.232939
0.0317426 -0.32282 0.231438
0.0357653 -0.323449 0.228929
0.040166 -0.323605 0.228271
0.0437494 -0.323887 0.22581
0.0482857 -0.324299 0.224495
0.0522777 -0.324319 0.22263
0.0563955 -0.325031 0.220756
0.0602595 -0.325168 0.219693
0.0639144 -0.325888 0.216439
0.0686798 -0.326194 0.214365
0.0727893 -0.326871 0.211798
0.0766946 -0.327042 0.209399
0.0808486 -0.327756 0.206394
0.0851321 -0.32796 0.204308
0.08929 -0.328843 0.201898
0.0932351 -0.328521 0.199647
0.0976499 -0.329481 0.19634
0.101593 -0.329327 0.194796
0.106105 -0.330816 0.191228
0.110377 -0.330978 0.1889
0.114814 -0.33184 0.185328
0.118587 -0.331712 0.183181
0.123268 -0.332258 0.180088
0.127527 -0.33344 0.175595
0.131642 -0.333738 0.174344
0.136096 -0.3343 0.169664
0.14117 -0.33482 0.165878
0.144532 -0.335493 0.162825
0.149606 -0.336382 0.158959
0.153876 -0.337137 0.154443
0.158755 -0.337856 0.149932
0.163378 -0.338814 0.145388
0.167867 -0.339869 0.140679
0.172615 -0.340508 0.135212
0.177022 -0.341709 0.129236
0.181681 -0.342687 0.124766
0.18692 -0.34384 0.119311
0.191251 -0.34419 0.114486
0.195979 -0.345216 0.108945
0.200766 -0.346439 0.103078
0.20546 -0.347823 0.0977848
0.210657 -0.348871 0.0895207
0.216544 -0.350578 0.0812229
0.221695 -0.352004 0.0716203
0.227716 -0.354637 0.0584769
0.234063 -0.357206 0.0436215
0.240033 -0.360273 0.0268983
-0.218578 -0.364303 -0.0177193
-0.210759 -0.359211 0.00990903
-0.204845 -0.355911 0.0272585
-0.198069 -0.352934 0.0445526
-0.192732 -0.350234 0.0573907
-0.187495 -0.348218 0.0695536
-0.181461 -0.345456 0.0841112
-0.17637 -0.343571 0.0947782
-0.170755 -0.341562 0.106623
-0.165469 -0.33969 0.118269
-0.160447 -0.337845 0.127764
-0.155472 -0.33655 0.137264
-0.150673 -0.334695 0.144309
-0.146269 -0.33378 0.149714
-0.141783 -0.332955 0.155032
-0.136736 -0.331944 0.160142
-0.132305 -0.330844 0.165945
-0.128063 -0.33012 0.169469
-0.123236 -0.329164 0.17513
-0.119015 -0.328006 0.180788
-0.11465 -0.327074 0.185676
-0.110505 -0.326356 0.190589
-0.105691 -0.324992 0.196116
-0.101583 -0.324741 0.200267
-0.0972392 -0.323836 0.206047
-0.0929866 -0.322926 0.21069
-0.0884573 -0.321861 0.216784
-0.083704 -0.320446 0.222381
-0.0800917 -0.320063 0.226234
-0.0757357 -0.319039 0.231191
-0.0717328 -0.318534 0.234259
-0.0676317 -0.317709 0.238119
-0.06302 -0.317461 0.241612
-0.059533 -0.316595 0.244161
-0.0557244 -0.316376 0.246111
-0.0510103 -0.316343 0.247397
-0.0476904 -0.315558 0.25071
-0.0434064 -0.315605 0.252386
-0.0391608 -0.314533 0.254679
-0.0355267 -0.31489 0.254349
-0.0312998 -0.314894 0.254291
-0.0276747 -0.315134 0.253799
-0.0238835 -0.315291 0.253003
-0.0195676 -0.315707 0.251714
-0.0159997 -0.315684 0.250221
-0.0116241 -0.316045 0.249085
-0.00803321 -0.316499 0.246898
-0.00401916 -0.316658 0.24601
-8.88964e-05 -0.316656 0.245371
0.00403416 -0.317142 0.242484
0.00803101 -0.317663 0.24088
0.0119558 -0.317517 0.239403
0.0160625 -0.317938 0.238137
0.0201476 -0.318081 0.237253
0.023313 -0.318579 0.235641
0.0279624 -0.318639 0.23339
0.032319 -0.319119 0.23143
0.0361666 -0.319386 0.229292
0.0400128 -0.319803 0.227565
0.0440863 -0.320078 0.2265
0.047828 -0.320204 0.224624
0.0522891 -0.320572 0.221868
0.0561464 -0.320903 0.220812
0.0599784 -0.321261 0.218953
0.0642152 -0.321954 0.216386
0.0685006 -0.32191 0.214014
0.0723538 -0.322553 0.212436
0.0765392 -0.323125 0.209074
0.0806754 -0.323368 0.207326
0.0850078 -0.324519 0.203704
0.0895182 -0.324646 0.200995
0.0931981 -0.324731 0.199625
0.0976909 -0.325072 0.196647
0.101851 -0.325751 0.19448
0.105877 -0.326289 0.191725
0.110041 -0.326899 0.187908
0.11412 -0.327351 0.185814
0.119083 -0.32775 0.182823
0.123226 -0.328309 0.179975
0.127535 -0.328627 0.176868
0.131996 -0.329492 0.17384
0.13606 -0.330343 0.170263
0.1406 -0.330773 0.166027
0.145289 -0.331715 0.162093
0.149385 -0.332275 0.157676
0.153841 -0.332793 0.154659
0.15845 -0.333764 0.149124
0.16322 -0.334572 0.145417
0.167792 -0.335895 0.140007
0.172299 -0.336821 0.135367
0.177109 -0.337451 0.129576
0.181956 -0.338447 0.123945
0.186722 -0.33904 0.11924
0.191317 -0.34041 0.114345
0.195916 -0.341119 0.108725
0.200819 -0.342174 0.102095
0.206415 -0.343364 0.0955727
0.211443 -0.344991 0.0889335
0.216123 -0.346369 0.0805701
0.222024 -0.348099 0.0699089
0.227724 -0.350353 0.0583285
0.234046 -0.353231 0.0429939
0.240233 -0.356359 0.0251642
-0.219254 -0.361726 -0.0276313
-0.212451 -0.355808 -0.000469446
-0.204998 -0.351975 0.0231991
-0.199006 -0.348971 0.0402329
-0.193565 -0.346811 0.0522945
-0.187803 -0.344296 0.0659496
-0.18149 -0.342063 0.0816753
-0.176755 -0.339955 0.0922523
-0.171072 -0.337566 0.104368
-0.165938 -0.335856 0.114668
-0.160586 -0.334364 0.125328
-0.155423 -0.332579 0.134179
-0.150843 -0.330862 0.141165
-0.146344 -0.329888 0.147648
-0.141491 -0.328948 0.153969
-0.137029 -0.328047 0.158591
-0.132678 -0.326954 0.162981
-0.128464 -0.326511 0.16709
-0.123921 -0.325707 0.172738
-0.118841 -0.324507 0.179704
-0.115172 -0.323769 0.182351
-0.110398 -0.322532 0.188454
-0.105656 -0.321525 0.194252
-0.101405 -0.32057 0.199985
-0.0969775 -0.319508 0.205136
-0.0931048 -0.318862 0.211373
-0.0885624 -0.31793 0.217718
-0.0841034 -0.316672 0.223119
-0.0798153 -0.315639 0.228193
-0.0753589 -0.314491 0.233194
-0.0712034 -0.314301 0.236897
-0.067309 -0.313208 0.240543
-0.0637353 -0.312812 0.24174
-0.0593637 -0.312588 0.245058
-0.0552016 -0.312542 0.24695
-0.0514309 -0.311642 0.249775
-0.0475614 -0.311557 0.251317
-0.0431012 -0.311131 0.254031
-0.0394038 -0.311178 0.254182
-0.0354912 -0.310567 0.255427
-0.0314058 -0.310871 0.2549
-0.0274468 -0.311221 0.253097
-0.0235559 -0.311598 0.252864
-0.0199388 -0.311345 0.251509
-0.0153333 -0.311818 0.24988
-0.0119747 -0.312135 0.249245
-0.00807812 -0.312287 0.247086
-0.00387546 -0.312601 0.245943
0.00012367 -0.312732 0.244633
0.00427704 -0.313088 0.243063
0.00804972 -0.313026 0.241008
0.012011 -0.313639 0.240785
0.0156529 -0.31381 0.238374
0.0198128 -0.314138 0.237655
0.0236892 -0.314343 0.234955
0.0277834 -0.314833 0.232596
0.0320023 -0.315076 0.231608
0.0356649 -0.315539 0.229845
0.0396046 -0.315632 0.228214
0.0441218 -0.316357 0.225735
0.0480735 -0.316144 0.224226
0.0519672 -0.316813 0.222047
0.0563042 -0.317063 0.220096
0.0601077 -0.317876 0.21806
0.0645103 -0.318273 0.215388
0.0681961 -0.318213 0.214034
0.0726232 -0.318834 0.211301
0.0768955 -0.319065 0.20925
0.0809339 -0.319592 0.206831
0.0847168 -0.320034 0.20384
0.0893501 -0.319936 0.201677
0.0932788 -0.320671 0.199532
0.097413 -0.321467 0.196131
0.101839 -0.32162 0.194316
0.105868 -0.322293 0.192057
0.110621 -0.322698 0.187805
0.114526 -0.323373 0.186005
0.118828 -0.32393 0.182603
0.122953 -0.324642 0.180217
0.127555 -0.32496 0.176235
0.13176 -0.325366 0.173572
0.13601 -0.326188 0.16953
0.140458 -0.326456 0.166997
0.144883 -0.327224 0.162938
0.149122 -0.32778 0.158894
0.153855 -0.328648 0.154894
0.158423 -0.329827 0.149812
0.162863 -0.330884 0.144687
0.167871 -0.331168 0.140408
0.172323 -0.332152 0.135747
0.176928 -0.333358 0.129872
0.182071 -0.334451 0.12339
0.186542 -0.335228 0.119512
0.191233 -0.336314 0.113246
0.196122 -0.337399 0.10762
0.20175 -0.338419 0.101458
0.205981 -0.339554 0.0965718
0.211318 -0.340449 0.0885065
0.216687 -0.341765 0.0801846
0.222326 -0.344156 0.0694652
0.22763 -0.346062 0.0593396
0.233928 -0.348516 0.0441239
0.240394 -0.352268 0.0242138
-0.212719 -0.352838 -0.00572109
-0.205414 -0.348482 0.018548
-0.198935 -0.345243 0.0374773
-0.193336 -0.342963 0.0510713
-0.187883 -0.340451 0.0633461
-0.181498 -0.337952 0.0797266
-0.1768 -0.336005 0.0894138
-0.171511 -0.334048 0.101151
-0.165915 -0.33182 0.112687
-0.160724 -0.330531 0.12236
-0.156135 -0.3285 0.13095
-0.151104 -0.327748 0.139147
-0.146007 -0.326204 0.146126
-0.141376 -0.324846 0.152767
-0.136458 -0.323797 0.158052
-0.132962 -0.323762 0.161282
-0.12828 -0.322589 0.166191
-0.123928 -0.32165 0.170971
-0.119271 -0.320792 0.175899
-0.115117 -0.319318 0.182269
-0.110339 -0.318571 0.187714
-0.105563 -0.317214 0.194301
-0.10174 -0.31693 0.199161
-0.0969227 -0.315689 0.205951
-0.0927895 -0.314515 0.213697
-0.0882429 -0.312942 0.219875
-0.084123 -0.312365 0.224825
-0.0795301 -0.310916 0.230633
-0.0758061 -0.310742 0.234214
-0.0714381 -0.309792 0.238254
-0.0673922 -0.308996 0.241225
-0.0634793 -0.309046 0.244107
-0.0593972 -0.308468 0.246528
-0.0555202 -0.308319 0.248649
-0.0511645 -0.307413 0.251224
-0.0474968 -0.307314 0.252643
-0.043305 -0.307154 0.253558
-0.0392121 -0.306746 0.25456
-0.0354599 -0.306962 0.255382
-0.0316094 -0.307226 0.254463
-0.0276547 -0.306714 0.254563
-0.0241667 -0.307544 0.25272
-0.0196714 -0.307388 0.251289
-0.0155547 -0.307622 0.250602
-0.0120498 -0.308046 0.249162
-0.00781525 -0.308492 0.246756
-0.00409627 -0.308834 0.245402
-0.00024374 -0.308356 0.244943
0.00406976 -0.308942 0.242853
0.00765688 -0.309211 0.24103
0.0118841 -0.309638 0.238864
0.016015 -0.310392 0.237398
0.0199576 -0.310065 0.236814
0.0239418 -0.31057 0.234065
0.0280257 -0.311205 0.23205
0.0323956 -0.310907 0.231634
0.0359343 -0.311093 0.230825
0.0398338 -0.311578 0.22844
0.0439715 -0.311963 0.225817
0.0480583 -0.312327 0.223573
0.0520448 -0.312562 0.222112
0.0564951 -0.312906 0.220269
0.0602923 -0.313584 0.217518
0.064479 -0.314132 0.214745
0.0685085 -0.314283 0.212453
0.0728971 -0.314378 0.210685
0.076461 -0.315187 0.209467
0.0809051 -0.315383 0.206317
0.0851281 -0.315769 0.204094
0.0897127 -0.316484 0.201068
0.0938844 -0.316909 0.198868
0.0973664 -0.316981 0.196422
0.101661 -0.317898 0.193441
0.105645 -0.317651 0.191244
0.110412 -0.318874 0.187685
0.114435 -0.319279 0.184736
0.118851 -0.319783 0.18255
0.123268 -0.320276 0.178638
0.126961 -0.32081 0.176575
0.131669 -0.32174 0.172858
0.136402 -0.321785 0.168941
0.140517 -0.322534 0.166221
0.145147 -0.323461 0.161668
0.149377 -0.323675 0.158974
0.154089 -0.324486 0.154388
0.158978 -0.326028 0.149269
0.162742 -0.326132 0.146097
0.168209 -0.327368 0.139581
0.172615 -0.327815 0.135179
0.177253 -0.329193 0.130252
0.181482 -0.330026 0.124954
0.18667 -0.331063 0.118339
0.191317 -0.331862 0.113313
0.196402 -0.332749 0.106903
0.201168 -0.334124 0.101405
0.205972 -0.334831 0.0958948
0.211085 -0.336095 0.0880381
0.216703 -0.337977 0.0797322
0.222127 -0.339563 0.0697235
0.227708 -0.341182 0.0581983
0.233959 -0.34355 0.0456612
0.240389 -0.347522 0.0251683
-0.213144 -0.349448 -0.0124819
-0.206139 -0.345141 0.0128223
-0.199592 -0.341724 0.0329714
-0.193528 -0.338912 0.0478773
-0.188137 -0.336842 0.061215
-0.182456 -0.334254 0.0744034
-0.176987 -0.332546 0.0870669
-0.171851 -0.329905 0.0979934
-0.166222 -0.32857 0.110042
-0.161154 -0.326611 0.118832
-0.155922 -0.324631 0.12903
-0.151536 -0.323903 0.136023
-0.146325 -0.322406 0.143445
-0.141782 -0.321144 0.149557
-0.137197 -0.320348 0.154671
-0.13301 -0.319676 0.158563
-0.128209 -0.318626 0.163375
-0.123841 -0.317352 0.16926
-0.119435 -0.317038 0.174552
-0.115028 -0.315947 0.180298
-0.110524 -0.315269 0.186191
-0.1057 -0.313473 0.193087
-0.101395 -0.312298 0.200021
-0.0973441 -0.311435 0.207308
-0.0930814 -0.310247 0.213633
-0.0882715 -0.308576 0.223267
-0.0836991 -0.307322 0.228113
-0.0799498 -0.307534 0.230727
-0.0756635 -0.306375 0.235804
-0.0711558 -0.305425 0.2401
-0.0671514 -0.305007 0.243581
-0.0630001 -0.304334 0.245886
-0.058959 -0.304238 0.248281
-0.0553533 -0.303814 0.249989
-0.0512551 -0.303445 0.252128
-0.047124 -0.302899 0.253985
-0.0430604 -0.302761 0.255504
-0.0396065 -0.302764 0.255326
-0.0352887 -0.303142 0.254923
-0.0316375 -0.302698 0.2555
-0.0276311 -0.303082 0.254478
-0.0235038 -0.303825 0.252554
-0.0197993 -0.303963 0.25048
-0.0157017 -0.304074 0.250164
-0.0118544 -0.304308 0.24867
-0.00817356 -0.30438 0.246604
-0.00379548 -0.304442 0.246184
0.000263557 -0.304624 0.245338
0.00442081 -0.305322 0.242029
0.00802619 -0.305555 0.240281
0.0120501 -0.305428 0.239909
0.0158664 -0.305979 0.238833
0.0197819 -0.306314 0.235609
0.0243203 -0.306423 0.234459
0.0278329 -0.307143 0.233024
0.0317702 -0.307116 0.230314
0.0356938 -0.307196 0.229259
0.0397174 -0.30795 0.227272
0.0437232 -0.308259 0.225612
0.0478205 -0.30839 0.22306
0.0519144 -0.308968 0.221795
0.0561506 -0.309212 0.219818
0.059989 -0.309801 0.218001
0.0642483 -0.309967 0.214858
0.0685739 -0.310433 0.213364
0.0727871 -0.310834 0.210034
0.0769875 -0.311406 0.208445
0.0808649 -0.311483 0.205838
0.0853503 -0.311745 0.203517
0.088727 -0.312129 0.202126
0.0931793 -0.312743 0.19852
0.0972102 -0.31327 0.195753
0.10195 -0.313653 0.193533
0.105916 -0.313904 0.190983
0.110227 -0.314793 0.188096
0.114483 -0.315393 0.184719
0.118707 -0.315854 0.182359
0.123055 -0.316253 0.179483
0.127317 -0.316754 0.176527
0.131771 -0.31741 0.172659
0.136378 -0.317518 0.169162
0.140547 -0.318302 0.166237
0.145041 -0.319085 0.162593
0.14933 -0.319844 0.158949
0.154002 -0.320692 0.154648
0.15804 -0.321143 0.150447
0.162923 -0.322158 0.145218
0.168 -0.322738 0.139915
0.172752 -0.324132 0.134081
0.1768 -0.324965 0.129275
0.181892 -0.326067 0.123928
0.186777 -0.326625 0.118304
0.191503 -0.327715 0.111875
0.196647 -0.328975 0.106089
0.20154 -0.329617 0.100665
0.206331 -0.330989 0.0948094
0.211359 -0.332593 0.087201
0.216715 -0.333437 0.0789081
0.222156 -0.335395 0.0694779
0.227653 -0.337177 0.0582837
0.233374 -0.339091 0.0466076
0.241008 -0.343206 0.0220875
-0.206982 -0.341496 0.00631487
-0.20001 -0.337639 0.028438
-0.194404 -0.335578 0.0429858
-0.188287 -0.332869 0.0587927
-0.182742 -0.330624 0.0717967
-0.177587 -0.328836 0.0833521
-0.171266 -0.326121 0.0975972
-0.166674 -0.324701 0.105907
-0.161522 -0.322793 0.116696
-0.156492 -0.321457 0.126439
-0.151701 -0.319988 0.133114
-0.146798 -0.318637 0.140484
-0.141752 -0.317379 0.146878
-0.137484 -0.316597 0.152385
-0.132863 -0.315912 0.15662
-0.128615 -0.3151 0.161131
-0.124077 -0.314281 0.16735
-0.119329 -0.313235 0.17329
-0.115373 -0.312272 0.178703
-0.110842 -0.311091 0.184819
-0.10602 -0.309668 0.192926
-0.101057 -0.30814 0.202291
-0.0973016 -0.307051 0.208485
-0.0924399 -0.305159 0.217948
-0.0878528 -0.304583 0.224823
-0.0838013 -0.303439 0.229329
-0.0799722 -0.303174 0.23382
-0.075462 -0.30233 0.237544
-0.0714813 -0.301248 0.241765
-0.067435 -0.301033 0.243708
-0.0632241 -0.30029 0.247413
-0.0594267 -0.300026 0.249278
-0.0551325 -0.299773 0.251381
-0.0514758 -0.299529 0.25226
-0.0471891 -0.298952 0.254742
-0.0433291 -0.299103 0.255155
-0.0396084 -0.298726 0.255206
-0.0353262 -0.29904 0.255618
-0.0316636 -0.299269 0.255366
-0.0277531 -0.29918 0.253541
-0.0235865 -0.299583 0.252926
-0.0196222 -0.299816 0.250594
-0.0154567 -0.30003 0.249965
-0.0117323 -0.300083 0.24889
-0.00823014 -0.300459 0.247108
-0.00370899 -0.300578 0.244767
-0.000143374 -0.300988 0.24422
0.00407902 -0.30114 0.242472
0.00783673 -0.301329 0.240713
0.0119815 -0.301929 0.239596
0.0160215 -0.302289 0.237124
0.0197745 -0.302702 0.236081
0.0239138 -0.302696 0.234407
0.0278407 -0.302837 0.23198
0.032051 -0.303198 0.230094
0.0356828 -0.303514 0.229118
0.0401395 -0.304003 0.227481
0.0441163 -0.304241 0.22514
0.0483608 -0.304579 0.223205
0.0522428 -0.30493 0.221029
0.0563368 -0.305443 0.218971
0.0603828 -0.305524 0.216471
0.0645198 -0.306256 0.214272
0.068675 -0.306274 0.213078
0.0725496 -0.306837 0.210609
0.0769267 -0.307318 0.20799
0.0806371 -0.307449 0.205881
0.0850856 -0.308335 0.203463
0.0893185 -0.308675 0.201097
0.0934934 -0.3088 0.197884
0.0977912 -0.309633 0.195145
0.101596 -0.309497 0.193705
0.106253 -0.310312 0.189824
0.110198 -0.310361 0.188037
0.114201 -0.310838 0.185241
0.118468 -0.31154 0.182697
0.123381 -0.311697 0.179464
0.127573 -0.312407 0.175342
0.131898 -0.312856 0.172967
0.136413 -0.313893 0.168604
0.140476 -0.314352 0.166584
0.145107 -0.314564 0.163055
0.149776 -0.315542 0.157747
0.154161 -0.316067 0.155033
0.158415 -0.317127 0.151167
0.163135 -0.318186 0.145393
0.167607 -0.31894 0.140461
0.172299 -0.320104 0.134386
0.177259 -0.320677 0.12942
0.182118 -0.321659 0.123803
0.186966 -0.322761 0.117342
0.191891 -0.323728 0.111829
0.196147 -0.324496 0.106485
0.20128 -0.325416 0.100307
0.206353 -0.326839 0.0932101
0.211365 -0.328213 0.086128
0.216837 -0.329122 0.0772331
0.222413 -0.331225 0.0678877
0.22774 -0.333325 0.0565393
0.234288 -0.335771 0.0419042
0.240491 -0.338874 0.0235889
-0.207263 -0.338316 0.00136995
-0.200801 -0.334352 0.0228152
-0.1946 -0.331376 0.0399652
-0.188595 -0.328893 0.0545026
-0.183116 -0.326578 0.0682144
-0.177299 -0.324278 0.08145
-0.1717 -0.322424 0.0940106
-0.16683 -0.320799 0.103807
-0.161855 -0.319044 0.113411
-0.156967 -0.317522 0.122826
-0.151634 -0.315874 0.131644
-0.147256 -0.314878 0.137227
-0.142192 -0.313899 0.144281
-0.137839 -0.312915 0.149709
-0.133475 -0.312123 0.15423
-0.12862 -0.311109 0.160006
-0.124146 -0.310284 0.165875
-0.119793 -0.309354 0.170215
-0.115056 -0.308172 0.177194
-0.110528 -0.306972 0.185231
-0.10588 -0.305173 0.194343
-0.101239 -0.303994 0.20341
-0.096639 -0.302468 0.212225
-0.092402 -0.301449 0.219684
-0.088118 -0.299784 0.226612
-0.0838712 -0.299396 0.230721
-0.079468 -0.298696 0.235969
-0.074958 -0.297602 0.240297
-0.0712734 -0.297263 0.243313
-0.0672007 -0.296459 0.24573
-0.0627648 -0.296577 0.248705
-0.0592983 -0.295729 0.250974
-0.0552113 -0.295396 0.253451
-0.0516274 -0.295556 0.253081
-0.0468978 -0.294993 0.256049
-0.0432144 -0.294942 0.256064
-0.0394846 -0.295139 0.255632
-0.0354766 -0.295188 0.255605
-0.0316138 -0.295276 0.255602
-0.0275661 -0.295216 0.253519
-0.0238512 -0.29613 0.251478
-0.0199154 -0.295764 0.250601
-0.0157182 -0.296034 0.249653
-0.0119968 -0.296379 0.247573
-0.00778304 -0.296767 0.246525
-0.00333981 -0.296952 0.24547
-0.000130628 -0.296987 0.243936
0.0042024 -0.297299 0.242219
0.00756751 -0.297429 0.240406
0.0122495 -0.297734 0.239293
0.0157565 -0.298386 0.237201
0.0200025 -0.298243 0.235594
0.0236883 -0.298846 0.23377
0.0280245 -0.298954 0.231781
0.0321899 -0.299541 0.230913
0.0357057 -0.29942 0.228554
0.0398511 -0.300213 0.226063
0.0437906 -0.300107 0.225255
0.0482086 -0.300317 0.223006
0.0523545 -0.301111 0.22106
0.0562634 -0.301645 0.218921
0.0606195 -0.301582 0.21595
0.0644635 -0.302053 0.214474
0.0687872 -0.30272 0.212194
0.0728366 -0.302763 0.210589
0.0765905 -0.303242 0.207609
0.0807208 -0.303439 0.205376
0.0849207 -0.304104 0.202266
0.0894193 -0.304595 0.200413
0.0933316 -0.304949 0.197651
0.0977548 -0.305009 0.196018
0.102048 -0.30574 0.192848
0.105923 -0.305471 0.190116
0.110643 -0.306491 0.187043
0.114448 -0.307219 0.184891
0.119077 -0.307521 0.181203
0.123259 -0.308299 0.178444
0.127854 -0.308567 0.175201
0.131873 -0.308735 0.172918
0.136213 -0.309512 0.169515
0.140494 -0.31011 0.165763
0.14473 -0.311005 0.162726
0.149676 -0.311309 0.158558
0.154244 -0.312169 0.154277
0.158644 -0.313126 0.149706
0.163412 -0.313816 0.145056
0.167878 -0.314156 0.14046
0.172122 -0.315606 0.135283
0.177778 -0.316356 0.127726
0.18193 -0.317633 0.123721
0.18711 -0.318638 0.117049
0.191748 -0.319969 0.111381
0.196079 -0.320489 0.105945
0.20137 -0.321546 0.0995562
0.206555 -0.322682 0.0919497
0.211547 -0.323659 0.0853285
0.21698 -0.325157 0.0759699
0.22257 -0.327172 0.0656742
0.227751 -0.328658 0.0552499
0.234246 -0.331776 0.0403273
0.242141 -0.335994 0.0134091
-0.209377 -0.336217 -0.0152695
-0.200648 -0.33038 0.0193559
-0.19501 -0.328046 0.0350431
-0.18976 -0.325409 0.0486423
-0.183542 -0.322829 0.0638876
-0.177654 -0.321 0.0783639
-0.172448 -0.319136 0.0895425
-0.167119 -0.316584 0.0999359
-0.161571 -0.315122 0.111548
-0.156695 -0.313568 0.12111
-0.152075 -0.312336 0.128168
-0.147066 -0.31126 0.136462
-0.14292 -0.310066 0.141076
-0.138002 -0.308586 0.147273
-0.133664 -0.308236 0.152297
-0.128433 -0.307316 0.159008
-0.123902 -0.306587 0.164392
-0.119745 -0.305292 0.170185
-0.114787 -0.30415 0.177643
-0.110606 -0.302576 0.18584
-0.105801 -0.301169 0.195379
-0.101095 -0.299586 0.206024
-0.0965097 -0.297972 0.213975
-0.0925386 -0.296567 0.222234
-0.0877504 -0.29556 0.228425
-0.0841926 -0.29487 0.233453
-0.0796788 -0.294175 0.237716
-0.075074 -0.293309 0.241799
-0.0713154 -0.292759 0.245053
-0.0670931 -0.29276 0.246958
-0.063236 -0.29189 0.250149
-0.0590467 -0.291095 0.252969
-0.0552216 -0.291514 0.254122
-0.0508258 -0.291309 0.25602
-0.0469093 -0.290763 0.25614
-0.0435009 -0.2911 0.256045
-0.0393225 -0.290898 0.255988
-0.035489 -0.291035 0.255861
-0.0314303 -0.290756 0.255849
-0.02799 -0.291616 0.253723
-0.0238346 -0.291548 0.252907
-0.0196009 -0.292139 0.25036
-0.0161436 -0.29203 0.24963
-0.0121652 -0.291888 0.248649
-0.00798037 -0.292834 0.246432
-0.00412022 -0.292772 0.245893
0.000122483 -0.293313 0.243652
0.00409429 -0.293744 0.241675
0.00759369 -0.293683 0.240367
0.0119247 -0.293701 0.238698
0.0160089 -0.294379 0.236981
0.0196921 -0.294326 0.235724
0.0240454 -0.294762 0.234121
0.027869 -0.294979 0.231441
0.0319543 -0.295435 0.230682
0.035995 -0.295623 0.227983
0.0399632 -0.296139 0.225835
0.044159 -0.295931 0.224794
0.048058 -0.295974 0.222527
0.0524493 -0.297033 0.219388
0.05621 -0.297518 0.219141
0.060197 -0.297791 0.216066
0.0644162 -0.298096 0.214216
0.068693 -0.298647 0.210795
0.0727915 -0.298708 0.209616
0.0768511 -0.299348 0.207926
0.0809282 -0.299401 0.204557
0.0854574 -0.300159 0.202403
0.089214 -0.300224 0.199384
0.0932226 -0.300752 0.198338
0.0973422 -0.301485 0.194533
0.101962 -0.301277 0.192229
0.106269 -0.302119 0.190339
0.11042 -0.30272 0.186423
0.114831 -0.303072 0.183953
0.118827 -0.303564 0.181378
0.123224 -0.304068 0.17816
0.127795 -0.304545 0.174905
0.13201 -0.305308 0.171648
0.136091 -0.305641 0.168882
0.140503 -0.306244 0.165478
0.144503 -0.306239 0.163383
0.149558 -0.307568 0.157641
0.153713 -0.307966 0.154282
0.158418 -0.308925 0.149315
0.163174 -0.30987 0.144546
0.168015 -0.310748 0.138811
0.172616 -0.311628 0.133903
0.177395 -0.312049 0.12749
0.182114 -0.313479 0.122324
0.186863 -0.31419 0.116197
0.191974 -0.315478 0.110145
0.196508 -0.316533 0.105285
0.201088 -0.317267 0.0993334
0.207209 -0.318916 0.0908046
0.211972 -0.319849 0.08349
0.217008 -0.321433 0.075036
0.222913 -0.322948 0.0642035
0.228426 -0.325181 0.0516435
0.234713 -0.327651 0.0377014
0.242433 -0.332624 0.00990903
-0.201598 -0.327295 0.0119708
-0.195977 -0.3243 0.0291643
-0.189276 -0.321388 0.0474576
-0.183747 -0.318902 0.0616033
-0.178279 -0.317141 0.0737085
-0.172585 -0.31519 0.0859967
-0.167259 -0.313445 0.0978571
-0.162648 -0.311795 0.105925
-0.157319 -0.310058 0.116171
-0.152471 -0.30822 0.125589
-0.147695 -0.30779 0.131793
-0.142559 -0.306101 0.139912
-0.137921 -0.305606 0.144624
-0.133439 -0.304309 0.150524
-0.128846 -0.303632 0.156723
-0.12519 -0.303069 0.160406
-0.119611 -0.301316 0.169502
-0.115232 -0.300195 0.176749
-0.110551 -0.298426 0.18645
-0.105681 -0.296684 0.197326
-0.100734 -0.29522 0.207898
-0.0965692 -0.293901 0.216831
-0.0925486 -0.292487 0.224417
-0.0876346 -0.290877 0.231291
-0.0836171 -0.290363 0.23518
-0.0796651 -0.290014 0.239629
-0.0751722 -0.289031 0.243507
-0.0715873 -0.288603 0.245112
-0.0669541 -0.288142 0.249045
-0.0630998 -0.288044 0.250871
-0.0591451 -0.287558 0.252751
-0.0550646 -0.286907 0.255342
-0.0516232 -0.287071 0.256311
-0.0474398 -0.287004 0.256288
-0.0432394 -0.286919 0.256605
-0.0393152 -0.286979 0.257451
-0.0350136 -0.28674 0.256716
-0.0309562 -0.287539 0.254692
-0.0272836 -0.287682 0.253558
-0.0238172 -0.287726 0.25201
-0.0197944 -0.288632 0.25053
-0.0157435 -0.288666 0.249441
-0.0116337 -0.288244 0.24814
