ply
format ascii 1.0
element vertex 1665
property float x
property float y
property float z
end_header
0.159704 -0.360956 0.181679
0.164146 -0.3612 0.179498
0.168497 -0.361525 0.177433
0.173119 -0.362414 0.173659
0.177341 -0.363794 0.169081
0.182392 -0.364594 0.163599
0.186897 -0.365897 0.157355
0.191604 -0.367261 0.151293
0.196427 -0.368238 0.143683
0.202187 -0.370727 0.131426
0.207919 -0.374148 0.116642
-0.229628 -0.3773 0.0773617
-0.225149 -0.375981 0.0827683
-0.219957 -0.375486 0.0868636
-0.211541 -0.36878 0.121471
-0.206913 -0.367364 0.12837
-0.2016 -0.36608 0.13509
-0.197155 -0.364927 0.140372
-0.192187 -0.363821 0.146225
-0.188 -0.363491 0.149034
-0.183111 -0.362324 0.153804
-0.178489 -0.360804 0.157919
-0.17414 -0.36061 0.161178
-0.16965 -0.360562 0.164371
-0.165067 -0.359286 0.168616
-0.16066 -0.359 0.170844
-0.156533 -0.358432 0.173676
-0.151981 -0.358251 0.177335
-0.14799 -0.357037 0.179511
-0.143751 -0.356483 0.182159
-0.139271 -0.356296 0.184525
-0.135059 -0.356013 0.186805
-0.130358 -0.355219 0.188668
-0.126419 -0.354946 0.190224
-0.122036 -0.354471 0.192541
-0.117985 -0.354365 0.193718
-0.113775 -0.354199 0.195344
-0.109662 -0.353459 0.198043
-0.105158 -0.353525 0.199176
-0.10174 -0.35314 0.199299
-0.097223 -0.35268 0.202302
-0.0934594 -0.352598 0.20247
-0.0894667 -0.35258 0.20346
-0.0851622 -0.352553 0.204391
-0.0812544 -0.351922 0.205909
-0.0768341 -0.352042 0.207171
-0.0727202 -0.351364 0.208444
-0.0686344 -0.351105 0.210683
-0.0647292 -0.351113 0.21112
-0.0610207 -0.350436 0.211921
-0.0559121 -0.350574 0.213701
-0.0522262 -0.350432 0.214243
-0.0483129 -0.350273 0.215484
-0.0442902 -0.349847 0.216897
-0.0406036 -0.349898 0.217294
-0.0364572 -0.349519 0.218103
-0.032024 -0.349177 0.218814
-0.0281574 -0.349005 0.219874
-0.0241521 -0.349222 0.219738
-0.0201357 -0.349434 0.220407
-0.0160832 -0.348947 0.222244
-0.0121379 -0.348781 0.222226
-0.00775319 -0.34916 0.222604
-0.00412865 -0.348182 0.223096
0.000105504 -0.348527 0.222829
0.0041008 -0.348517 0.223782
0.00803045 -0.348285 0.223749
0.0118748 -0.348931 0.224053
0.0162507 -0.34828 0.224251
0.0200261 -0.348582 0.2241
0.0242204 -0.348199 0.224551
0.0279827 -0.349013 0.223141
0.0321352 -0.348761 0.224401
0.0364736 -0.348483 0.225066
0.0400687 -0.348366 0.22381
0.0438735 -0.348331 0.223964
0.0481717 -0.348781 0.223711
0.0520489 -0.348703 0.223717
0.055912 -0.348822 0.222922
0.0601972 -0.348837 0.222066
0.0639863 -0.348886 0.222192
0.0685193 -0.348858 0.221685
0.0724833 -0.348873 0.221311
0.0760958 -0.34875 0.221978
0.0802903 -0.349084 0.222118
0.0842671 -0.349466 0.220522
0.0885132 -0.349407 0.21962
0.0922497 -0.349164 0.220044
0.0967161 -0.349826 0.217942
0.100729 -0.349828 0.217165
0.104627 -0.3502 0.216864
0.108561 -0.349976 0.215491
0.112654 -0.350959 0.214119
0.117233 -0.351105 0.210879
0.12095 -0.351198 0.209014
0.125577 -0.352943 0.203267
0.129363 -0.353231 0.199635
0.13425 -0.35353 0.196991
0.13835 -0.354763 0.192875
0.14294 -0.355106 0.190338
0.147363 -0.355806 0.187101
0.15086 -0.356003 0.185975
0.155693 -0.356207 0.182852
0.159716 -0.357071 0.18058
0.164601 -0.357296 0.178201
0.1689 -0.358032 0.1749
0.173753 -0.359114 0.170345
0.177989 -0.359851 0.165093
0.18249 -0.360782 0.159621
0.187732 -0.362221 0.15347
0.192258 -0.363459 0.146375
0.197314 -0.365155 0.137381
0.203191 -0.368038 0.125292
0.209215 -0.371119 0.107185
-0.22993 -0.373105 0.0768108
-0.224578 -0.371564 0.0829645
-0.219612 -0.370833 0.0879676
-0.21151 -0.364429 0.122592
-0.206777 -0.363089 0.129541
-0.202038 -0.361393 0.135157
-0.196938 -0.360227 0.141668
-0.192108 -0.359391 0.146106
-0.187316 -0.358795 0.150707
-0.183054 -0.358216 0.154121
-0.178705 -0.357119 0.158406
-0.174302 -0.35712 0.160501
-0.169545 -0.355567 0.165261
-0.165353 -0.355508 0.167415
-0.160455 -0.354346 0.172361
-0.156463 -0.354317 0.174218
-0.151823 -0.353851 0.177005
-0.148064 -0.353163 0.179048
-0.143503 -0.352594 0.182422
-0.138562 -0.351979 0.185928
-0.13496 -0.351926 0.187184
-0.130668 -0.351189 0.188732
-0.126626 -0.350567 0.1912
-0.122373 -0.350574 0.193754
-0.118249 -0.350332 0.194426
-0.114105 -0.349752 0.196965
-0.109614 -0.349457 0.198939
-0.10551 -0.34936 0.198969
-0.101399 -0.348854 0.201201
-0.0972192 -0.348888 0.201951
-0.0933089 -0.348381 0.202773
-0.0893752 -0.348213 0.204171
-0.0852214 -0.348024 0.20523
-0.0811822 -0.347455 0.20646
-0.0769447 -0.347494 0.208278
-0.0722449 -0.347169 0.209512
-0.0682545 -0.346901 0.211045
-0.0643074 -0.346587 0.211588
-0.0606506 -0.346604 0.212853
-0.0562718 -0.346634 0.213567
-0.052262 -0.346092 0.214764
-0.0479787 -0.346193 0.216463
-0.0446414 -0.34586 0.216271
-0.0402529 -0.345336 0.217923
-0.0362871 -0.345452 0.217462
-0.0320769 -0.345457 0.219121
-0.0283396 -0.345213 0.220623
-0.0244982 -0.345114 0.22073
-0.01992 -0.345293 0.220815
-0.0159859 -0.344833 0.221704
-0.0121147 -0.3447 0.222028
-0.00811084 -0.345088 0.221444
-0.00423859 -0.344252 0.222828
-2.96475e-06 -0.344563 0.223561
0.00396866 -0.344483 0.22417
0.00819051 -0.344941 0.224213
0.0119489 -0.344809 0.222689
0.0162327 -0.344467 0.224642
0.0198782 -0.344293 0.223828
0.0240591 -0.3446 0.224162
0.0278531 -0.344472 0.225176
0.0321547 -0.34453 0.224644
0.0363193 -0.344562 0.224313
0.0399497 -0.344692 0.225137
0.0441176 -0.344608 0.223953
0.0480595 -0.34438 0.22364
0.0521262 -0.34439 0.224248
0.0561493 -0.345054 0.22333
0.0602573 -0.344534 0.223943
0.0639534 -0.34476 0.222875
0.0684392 -0.345087 0.222319
0.072152 -0.344676 0.221628
0.0760842 -0.344656 0.222034
0.0803863 -0.344801 0.221246
0.0838399 -0.345487 0.220796
0.0883086 -0.344872 0.220974
0.0924471 -0.345255 0.220434
0.096286 -0.345132 0.219792
0.100803 -0.345631 0.218586
0.104677 -0.345833 0.217843
0.108667 -0.345776 0.216166
0.112858 -0.346217 0.214962
0.116782 -0.34656 0.212651
0.121095 -0.347002 0.210225
0.125513 -0.348069 0.206028
0.129935 -0.348903 0.201529
0.133788 -0.349565 0.197126
0.138505 -0.350605 0.193146
0.143169 -0.351437 0.18821
0.146889 -0.351951 0.185811
0.151222 -0.35213 0.184357
0.156119 -0.353017 0.180726
0.160269 -0.353342 0.178297
0.164593 -0.354054 0.176072
0.168622 -0.353903 0.172547
0.17375 -0.355212 0.167441
0.177957 -0.356415 0.162489
0.183276 -0.357643 0.155615
0.187857 -0.358757 0.149802
0.192626 -0.359879 0.143196
0.197772 -0.362114 0.133272
0.202811 -0.364261 0.12148
0.209855 -0.368508 0.101086
-0.229862 -0.36855 0.0768626
-0.22516 -0.367279 0.0829443
-0.220144 -0.366194 0.0879581
-0.211693 -0.359709 0.124052
-0.206822 -0.357977 0.13077
-0.201518 -0.357386 0.136702
-0.19693 -0.356431 0.142079
-0.192212 -0.355254 0.14701
-0.187665 -0.354439 0.15056
-0.182943 -0.353422 0.155461
-0.178648 -0.352536 0.158625
-0.174284 -0.352335 0.161839
-0.169523 -0.351922 0.165212
-0.164903 -0.351014 0.168973
-0.160638 -0.35058 0.173148
-0.156559 -0.349621 0.174489
-0.152178 -0.349742 0.177742
-0.147695 -0.348185 0.182009
-0.143427 -0.34844 0.183734
-0.139075 -0.347698 0.186188
-0.135091 -0.347441 0.187483
-0.130661 -0.3472 0.189725
-0.126131 -0.34664 0.191688
-0.121636 -0.346009 0.194059
-0.11791 -0.345998 0.195169
-0.113916 -0.345459 0.196773
-0.109544 -0.345428 0.198794
-0.105788 -0.344853 0.200279
-0.101502 -0.34477 0.200623
-0.0976653 -0.344372 0.201733
-0.0931725 -0.344225 0.204208
-0.0891022 -0.344239 0.204474
-0.0848909 -0.344029 0.205626
-0.0809591 -0.344388 0.206523
-0.076295 -0.343747 0.208241
-0.0729205 -0.343369 0.20886
-0.0687075 -0.342954 0.210735
-0.0643184 -0.343038 0.212094
-0.0604386 -0.342844 0.213193
-0.0570324 -0.342579 0.213215
-0.0525193 -0.342084 0.214418
-0.0484036 -0.342396 0.215647
-0.0442085 -0.34187 0.216553
-0.0400162 -0.341493 0.21806
-0.0361126 -0.341546 0.219312
-0.0322604 -0.341266 0.219374
-0.0280956 -0.340745 0.221138
-0.0241436 -0.340656 0.220601
-0.0199171 -0.340622 0.221261
-0.016126 -0.340967 0.221152
-0.0120658 -0.340572 0.222519
-0.00816122 -0.340564 0.223032
-0.00423957 -0.340703 0.223305
-0.000185431 -0.340581 0.224306
0.00395442 -0.340669 0.223145
0.00801458 -0.340375 0.223981
0.0122145 -0.340659 0.224252
0.0160846 -0.340385 0.223917
0.0203823 -0.340526 0.224516
0.0238772 -0.340436 0.224669
0.0279828 -0.340503 0.224356
0.0314732 -0.340133 0.224672
0.0357518 -0.340158 0.224355
0.0401804 -0.340363 0.223714
0.043846 -0.340592 0.223541
0.0476036 -0.340373 0.224244
0.0520938 -0.340717 0.223635
0.0560536 -0.340741 0.223867
0.059887 -0.340291 0.224176
0.0639805 -0.340502 0.223641
0.0678955 -0.340685 0.222787
0.0723373 -0.340883 0.222644
0.0762062 -0.34043 0.222913
0.0805362 -0.340463 0.221484
0.0847845 -0.340751 0.220801
0.0882833 -0.34083 0.220834
0.0922583 -0.341095 0.220165
0.096137 -0.341154 0.220278
0.100502 -0.341219 0.218783
0.104576 -0.341281 0.219319
0.108983 -0.342111 0.21622
0.112793 -0.3418 0.215744
0.116898 -0.342585 0.213057
0.120993 -0.343099 0.211039
0.125344 -0.34332 0.208285
0.129795 -0.344335 0.203977
0.1342 -0.345606 0.19792
0.138976 -0.345934 0.193475
0.142907 -0.347243 0.189145
0.147279 -0.347857 0.185181
0.15197 -0.348529 0.181663
0.155959 -0.349093 0.179487
0.160301 -0.350098 0.176468
0.164503 -0.350416 0.173932
0.169881 -0.351434 0.168634
0.174301 -0.352095 0.163773
0.178869 -0.352778 0.158138
0.183617 -0.354088 0.152223
0.187832 -0.35538 0.146536
0.193032 -0.356841 0.138174
0.198252 -0.359008 0.128615
0.204513 -0.361794 0.112189
0.211718 -0.366745 0.085004
-0.230057 -0.364412 0.0749303
-0.224568 -0.362742 0.0853031
-0.22005 -0.362518 0.0882281
-0.211196 -0.354957 0.125168
-0.206586 -0.354081 0.131946
-0.201745 -0.35243 0.137557
-0.196936 -0.352053 0.142031
-0.192346 -0.350732 0.146889
-0.187598 -0.350139 0.151021
-0.183068 -0.34969 0.154779
-0.178479 -0.348207 0.159369
-0.173878 -0.347885 0.162933
-0.169642 -0.347322 0.166227
-0.165002 -0.346725 0.170037
-0.160898 -0.346652 0.172206
-0.156098 -0.34581 0.176102
-0.151993 -0.345044 0.178478
-0.147939 -0.345186 0.180401
-0.143161 -0.343695 0.184328
-0.139 -0.343545 0.18666
-0.134931 -0.343406 0.187815
-0.130572 -0.343299 0.190199
-0.126368 -0.342373 0.192447
-0.12265 -0.342149 0.193301
-0.117983 -0.341904 0.195295
-0.113295 -0.34162 0.197099
-0.109707 -0.341272 0.198796
-0.105468 -0.341231 0.199805
-0.101546 -0.340463 0.201984
-0.0972582 -0.340452 0.201979
-0.0931741 -0.340382 0.203249
-0.0890691 -0.340478 0.205472
-0.0851802 -0.339972 0.206498
-0.0805501 -0.339514 0.20759
-0.0767778 -0.339834 0.207431
-0.07255 -0.338955 0.210099
-0.0688349 -0.338805 0.210776
-0.064523 -0.339026 0.212207
-0.0604014 -0.338732 0.212687
-0.0566359 -0.338412 0.213561
-0.0524125 -0.337908 0.214611
-0.0484424 -0.337821 0.215456
-0.0441094 -0.337799 0.216489
-0.0401032 -0.337575 0.218553
-0.0361166 -0.337418 0.218284
-0.0320854 -0.337932 0.218871
-0.0278362 -0.337125 0.219635
-0.0241529 -0.336987 0.221183
-0.0200242 -0.336537 0.221975
-0.0157034 -0.336354 0.221989
-0.0122348 -0.337122 0.221979
-0.00773137 -0.336877 0.222164
-0.0039203 -0.336651 0.223632
-4.2354e-05 -0.336455 0.223545
0.00405538 -0.336156 0.224663
0.00784911 -0.336386 0.224248
0.0125088 -0.336397 0.22427
0.0158674 -0.337098 0.222798
0.0202321 -0.336176 0.224674
0.0239464 -0.336475 0.223651
0.0279861 -0.335844 0.225566
0.0322813 -0.336584 0.224328
0.0358295 -0.336222 0.22512
0.0402134 -0.336447 0.224003
0.0438154 -0.336271 0.224393
0.0482309 -0.336702 0.223948
0.0519647 -0.336936 0.223748
0.0562657 -0.336383 0.223995
0.0605508 -0.336236 0.223594
0.0642536 -0.336508 0.223391
0.0679656 -0.336556 0.223143
0.0720054 -0.33639 0.223136
0.076 -0.33705 0.221761
0.0801459 -0.336662 0.221669
0.0842635 -0.336818 0.221277
0.0879622 -0.337351 0.220526
0.0921782 -0.336996 0.220846
0.0962693 -0.33719 0.219555
0.100527 -0.337389 0.219308
0.104641 -0.33746 0.218831
0.108273 -0.337369 0.219008
0.112202 -0.337827 0.217188
0.116775 -0.338161 0.214416
0.121204 -0.338757 0.212408
0.124811 -0.338991 0.20951
0.129877 -0.34012 0.204595
0.133829 -0.340845 0.200788
0.138295 -0.342519 0.194592
0.142929 -0.342682 0.189852
0.147279 -0.343602 0.18568
0.151727 -0.344333 0.181131
0.156025 -0.345057 0.178648
0.160674 -0.34578 0.175189
0.164524 -0.346394 0.171573
0.169868 -0.347192 0.166108
0.174179 -0.348145 0.161448
0.178972 -0.349573 0.155241
0.183518 -0.350378 0.149949
0.188279 -0.351753 0.142534
0.193788 -0.353362 0.133655
0.198663 -0.355604 0.123576
0.204899 -0.358154 0.106012
0.212311 -0.365041 0.0747979
-0.2294 -0.359772 0.0782106
-0.224503 -0.357991 0.0853511
-0.216246 -0.352151 0.118525
-0.211561 -0.351089 0.125624
-0.206216 -0.349644 0.132853
-0.201634 -0.348682 0.137449
-0.197269 -0.348048 0.142013
-0.19247 -0.346799 0.147578
-0.187634 -0.346147 0.150794
-0.18322 -0.345563 0.154204
-0.178151 -0.344881 0.15909
-0.174416 -0.343892 0.161928
-0.169443 -0.343 0.166927
-0.165244 -0.342194 0.169994
-0.160803 -0.34252 0.172931
-0.156456 -0.341338 0.176195
-0.151946 -0.340937 0.179197
-0.147486 -0.33977 0.1817
-0.143422 -0.340004 0.184285
-0.138949 -0.339334 0.186719
-0.134561 -0.339398 0.18893
-0.130402 -0.338902 0.189635
-0.126064 -0.338501 0.191722
-0.122056 -0.338052 0.193447
-0.117731 -0.338195 0.195487
-0.114226 -0.337496 0.197125
-0.109735 -0.337265 0.199093
-0.105655 -0.336841 0.199781
-0.101477 -0.336593 0.201587
-0.0973312 -0.336435 0.202955
-0.0931853 -0.335984 0.204763
-0.08919 -0.335919 0.205201
-0.0848001 -0.335689 0.206896
-0.0807764 -0.335177 0.208049
-0.0768857 -0.335429 0.209165
-0.0729472 -0.33515 0.209068
-0.0684285 -0.335459 0.209579
-0.0644595 -0.334486 0.212059
-0.0605356 -0.33428 0.212695
-0.0561799 -0.334052 0.214687
-0.0522719 -0.334198 0.214688
-0.0480768 -0.333999 0.216001
-0.0438253 -0.333543 0.217311
-0.0403195 -0.3335 0.217187
-0.0361893 -0.333521 0.218557
-0.0319549 -0.333282 0.219871
-0.0275257 -0.333085 0.220131
-0.0240874 -0.332966 0.221068
-0.0201348 -0.333141 0.220912
-0.0162725 -0.332805 0.222004
-0.0125141 -0.333401 0.220956
-0.00805777 -0.332849 0.22286
-0.00440902 -0.333072 0.222702
9.76395e-05 -0.332754 0.223298
0.00406176 -0.332226 0.224652
0.00829001 -0.332702 0.223441
0.0119176 -0.333264 0.223921
0.0163027 -0.332359 0.223917
0.0200363 -0.332304 0.224402
0.0242536 -0.332534 0.224384
0.0277083 -0.332639 0.224349
0.0321944 -0.332872 0.224675
0.0362591 -0.33243 0.225117
0.0398567 -0.332502 0.224285
0.0442065 -0.332239 0.225077
0.0482892 -0.332253 0.225056
0.0521714 -0.332248 0.224331
0.0562544 -0.332576 0.224853
0.0605819 -0.332508 0.224201
0.0644882 -0.33265 0.223626
0.0677202 -0.332892 0.22304
0.0718855 -0.332719 0.223335
0.0761777 -0.332577 0.222922
0.0803055 -0.332488 0.222344
0.0843988 -0.333061 0.220884
0.0881184 -0.333065 0.221316
0.0922362 -0.333053 0.220452
0.0963488 -0.333114 0.219878
0.100475 -0.333079 0.219233
0.104233 -0.333733 0.218104
0.108423 -0.33365 0.217853
0.112471 -0.333974 0.216949
0.116823 -0.334155 0.215913
0.121151 -0.334684 0.213121
0.124424 -0.334426 0.21116
0.129514 -0.335716 0.20656
0.133592 -0.336628 0.202324
0.138112 -0.337366 0.196916
0.142893 -0.33893 0.190091
0.147455 -0.339857 0.185707
0.151966 -0.340854 0.18063
0.156689 -0.341428 0.176881
0.160847 -0.341921 0.172452
0.165311 -0.342613 0.169509
0.169672 -0.343637 0.163677
0.174663 -0.344457 0.158095
0.179172 -0.345922 0.15308
0.184377 -0.347312 0.144859
0.18903 -0.348484 0.138378
0.194465 -0.350229 0.128016
0.199793 -0.352629 0.116404
0.205929 -0.356019 0.0989697
-0.229601 -0.355141 0.079475
-0.224748 -0.354047 0.084466
-0.216732 -0.348503 0.117064
-0.211608 -0.346273 0.126333
-0.20629 -0.345387 0.132398
-0.201778 -0.344256 0.13684
-0.197308 -0.343563 0.141167
-0.192335 -0.342592 0.146611
-0.187795 -0.341746 0.150974
-0.183253 -0.341685 0.153844
-0.178378 -0.340313 0.159763
-0.173663 -0.340187 0.162932
-0.169578 -0.338866 0.166144
-0.165027 -0.338133 0.169528
-0.161192 -0.338036 0.172442
-0.156176 -0.337201 0.17654
-0.152477 -0.336833 0.178187
-0.147621 -0.336215 0.181693
-0.143553 -0.336142 0.184404
-0.138919 -0.33538 0.186567
-0.134603 -0.335086 0.188355
-0.130642 -0.334545 0.190178
-0.126424 -0.334178 0.192478
-0.122605 -0.333641 0.194636
-0.118017 -0.333572 0.195899
-0.113606 -0.333238 0.19725
-0.10976 -0.332875 0.19925
-0.105293 -0.333244 0.200089
-0.101514 -0.332427 0.201755
-0.0973848 -0.332395 0.202004
-0.0935279 -0.332457 0.202834
-0.0892539 -0.331907 0.204797
-0.0848933 -0.331869 0.206633
-0.0810744 -0.331873 0.206726
-0.0766638 -0.331292 0.208573
-0.0722948 -0.331094 0.210199
-0.0686415 -0.331001 0.210163
-0.0644101 -0.331394 0.211342
-0.0606071 -0.330861 0.212289
-0.0564155 -0.330371 0.214168
-0.0524226 -0.330336 0.214426
-0.0483186 -0.330188 0.215578
-0.0439522 -0.329633 0.21736
-0.040308 -0.329335 0.217876
-0.0362266 -0.3295 0.217776
-0.0321966 -0.329307 0.219366
-0.0284478 -0.329488 0.219019
-0.0244662 -0.328854 0.220802
-0.0201199 -0.32889 0.221461
-0.0159835 -0.32884 0.221432
-0.0120067 -0.328934 0.221978
-0.0084678 -0.328447 0.222663
-0.00397061 -0.328728 0.222155
0.000373246 -0.328435 0.224041
0.00412768 -0.328645 0.222874
0.00800421 -0.328397 0.224309
0.011796 -0.328621 0.224404
0.0160565 -0.328354 0.22473
0.0198892 -0.328721 0.224187
0.0239441 -0.32831 0.224746
0.0283051 -0.328215 0.22501
0.032153 -0.328116 0.224818
0.0357947 -0.328395 0.224474
0.0403355 -0.328181 0.225281
0.0444492 -0.328095 0.22528
0.0483347 -0.328612 0.224349
0.0521389 -0.328163 0.22474
0.0560146 -0.328269 0.223767
0.0602718 -0.328362 0.223822
0.0640251 -0.328671 0.223377
0.0683064 -0.328744 0.222917
0.0719716 -0.32873 0.223047
0.0757872 -0.328823 0.222074
0.0800246 -0.328819 0.22253
0.0842281 -0.328609 0.221426
0.0882763 -0.328925 0.221135
0.0921281 -0.32874 0.221384
0.0966347 -0.32918 0.219044
0.100354 -0.329244 0.219602
0.104543 -0.330074 0.217885
0.108603 -0.329155 0.217662
0.112697 -0.329739 0.216785
0.11643 -0.330057 0.215441
0.120613 -0.330319 0.214432
0.124992 -0.330574 0.212117
0.129265 -0.331166 0.209197
0.133447 -0.331991 0.204659
0.137679 -0.33354 0.198958
0.142664 -0.334261 0.192386
0.147037 -0.335098 0.186915
0.151796 -0.336029 0.181896
0.156162 -0.33706 0.176827
0.160684 -0.338217 0.171771
0.165245 -0.338814 0.167382
0.170143 -0.340219 0.160715
0.174691 -0.340824 0.155604
0.179344 -0.342176 0.14975
0.183907 -0.343502 0.143378
0.188913 -0.344756 0.134491
0.194631 -0.347233 0.123754
0.200193 -0.349406 0.110283
0.207089 -0.3534 0.0880592
-0.229168 -0.350713 0.0802269
-0.224373 -0.349877 0.0855772
-0.216233 -0.344322 0.118311
-0.211436 -0.342595 0.125754
-0.2064 -0.341167 0.131453
-0.201965 -0.340368 0.136737
-0.196902 -0.339371 0.14119
-0.191958 -0.338955 0.146614
-0.187545 -0.338122 0.15078
-0.183126 -0.336878 0.155095
-0.178874 -0.33626 0.157884
-0.17404 -0.335541 0.162772
-0.169868 -0.33519 0.165503
-0.16469 -0.334587 0.170276
-0.160678 -0.333792 0.173539
-0.15612 -0.333094 0.176618
-0.152085 -0.331944 0.179951
-0.147697 -0.33205 0.18231
-0.143045 -0.331511 0.185422
-0.138756 -0.330933 0.187748
-0.1345 -0.330319 0.189759
-0.130532 -0.33042 0.190761
-0.126242 -0.330287 0.193037
-0.122434 -0.330121 0.193474
-0.117796 -0.329311 0.196073
-0.113791 -0.329073 0.197474
-0.110229 -0.328751 0.197615
-0.105282 -0.328631 0.200485
-0.101278 -0.328743 0.201266
-0.0971549 -0.328045 0.202871
-0.093212 -0.328237 0.204631
-0.0894345 -0.32801 0.204133
-0.0848176 -0.328011 0.20544
-0.0806792 -0.327641 0.206713
-0.0770199 -0.327536 0.208636
-0.0726546 -0.327065 0.209697
-0.0683561 -0.326815 0.210329
-0.0645749 -0.326879 0.21175
-0.0604711 -0.326712 0.212489
-0.0565264 -0.326399 0.213939
-0.0523499 -0.326227 0.214338
-0.0484613 -0.326067 0.215753
-0.0445366 -0.32571 0.216493
-0.0402446 -0.325716 0.216485
-0.0358842 -0.325497 0.217781
-0.032225 -0.325271 0.219437
-0.0279484 -0.325492 0.220264
-0.0239563 -0.32521 0.221056
-0.0200025 -0.325083 0.221723
-0.0158835 -0.324886 0.222417
-0.0120221 -0.324595 0.222369
-0.00827589 -0.324732 0.222972
-0.00371961 -0.324442 0.223505
5.90799e-05 -0.324596 0.223662
0.0040318 -0.324286 0.224331
0.00818772 -0.324407 0.224129
0.0118966 -0.324435 0.22462
0.0160762 -0.324147 0.223858
0.0198344 -0.324316 0.224298
0.0239049 -0.324107 0.224607
0.0283019 -0.324115 0.224283
0.0321915 -0.324469 0.224049
0.035585 -0.323915 0.224211
0.0399915 -0.324385 0.225264
0.0435058 -0.324469 0.224918
0.0478816 -0.324177 0.225218
0.0520298 -0.324085 0.224035
0.0561286 -0.324403 0.223732
0.0599246 -0.324742 0.223286
0.0637355 -0.324635 0.22361
0.0681938 -0.324665 0.223307
0.0722796 -0.3249 0.222874
0.0759749 -0.324719 0.22167
0.0805476 -0.324999 0.221918
0.0840245 -0.324704 0.222494
0.0883989 -0.325174 0.220612
0.0917564 -0.325253 0.220023
0.0962264 -0.325354 0.219563
0.100595 -0.325091 0.21938
0.104255 -0.325024 0.219807
0.108694 -0.325565 0.218264
0.112326 -0.325769 0.217189
0.116729 -0.325591 0.21562
0.120872 -0.325868 0.2155
0.124978 -0.326331 0.212464
0.129454 -0.327119 0.209942
0.133932 -0.327936 0.205132
0.13823 -0.328513 0.200627
0.142874 -0.32948 0.194636
0.147114 -0.331187 0.187973
0.151729 -0.332446 0.180781
0.156221 -0.333189 0.175567
0.160921 -0.333974 0.170272
0.165748 -0.335524 0.163797
0.170311 -0.336586 0.158534
0.175248 -0.337262 0.151331
0.180058 -0.338628 0.146702
0.184797 -0.340309 0.138135
0.189621 -0.341589 0.131022
0.19498 -0.343627 0.118884
0.201 -0.346387 0.103225
0.208362 -0.351699 0.0757637
-0.229445 -0.346603 0.0787278
-0.22453 -0.345358 0.0850532
-0.220296 -0.344855 0.0885578
-0.211446 -0.338137 0.126016
-0.206646 -0.337219 0.12967
-0.201589 -0.336202 0.135699
-0.197126 -0.335574 0.140846
-0.191887 -0.334418 0.146486
-0.187888 -0.333571 0.150846
-0.183082 -0.332931 0.154108
-0.179039 -0.332443 0.158456
-0.173863 -0.331078 0.162863
-0.169411 -0.331128 0.16504
-0.16499 -0.330458 0.169497
-0.160348 -0.329304 0.174718
-0.156227 -0.329291 0.176363
-0.152045 -0.328699 0.178607
-0.147275 -0.327606 0.183268
-0.143477 -0.327762 0.184721
-0.138859 -0.326833 0.1872
-0.134804 -0.326677 0.189059
-0.130801 -0.326465 0.19111
-0.126205 -0.325993 0.19292
-0.122229 -0.325713 0.195085
-0.11806 -0.325297 0.195666
-0.113683 -0.325229 0.197146
-0.109606 -0.324818 0.199394
-0.105764 -0.325016 0.200585
-0.101267 -0.324185 0.201583
-0.0971834 -0.324146 0.202075
-0.0929191 -0.324059 0.203724
-0.0888982 -0.323953 0.204685
-0.08511 -0.323569 0.20549
-0.0814412 -0.323504 0.207158
-0.0768318 -0.323176 0.208903
-0.0731534 -0.322909 0.209252
-0.0684414 -0.322934 0.211551
-0.064577 -0.322377 0.211933
-0.0608179 -0.322719 0.211799
-0.0561125 -0.322445 0.213606
-0.0522367 -0.322472 0.215055
-0.0482609 -0.321845 0.215472
-0.0441535 -0.321712 0.216313
-0.0398555 -0.321493 0.218321
-0.0361886 -0.321592 0.21836
-0.0321401 -0.321244 0.218913
-0.0279655 -0.320843 0.220146
-0.0241606 -0.321122 0.220221
-0.0200594 -0.320665 0.220888
-0.0158477 -0.321471 0.221418
-0.0120802 -0.320941 0.222365
-0.00786893 -0.32058 0.222018
-0.00387033 -0.320472 0.22363
4.61636e-05 -0.32029 0.223629
0.00348878 -0.320573 0.223935
0.00817537 -0.320387 0.224238
0.0119011 -0.320907 0.223024
0.01611 -0.32032 0.225087
0.0201916 -0.320447 0.225092
0.024503 -0.320385 0.224825
0.0283537 -0.320683 0.224402
0.0319735 -0.320352 0.223952
0.0357281 -0.320603 0.224345
0.0401537 -0.320473 0.224471
0.0437797 -0.320433 0.224411
0.0474842 -0.320436 0.224387
0.052267 -0.319875 0.224945
0.0560621 -0.320164 0.224039
0.0601382 -0.320638 0.223282
0.0644171 -0.320324 0.223245
0.0681125 -0.320918 0.222211
0.0721819 -0.320769 0.221816
0.0762766 -0.320887 0.221575
0.0803185 -0.320294 0.222062
0.0842236 -0.320967 0.2213
0.0884255 -0.320738 0.221226
0.0923971 -0.321577 0.220086
0.0964957 -0.321548 0.220393
0.100488 -0.321039 0.219956
0.104391 -0.32131 0.218393
0.108386 -0.321445 0.218575
0.112568 -0.321893 0.217544
0.116784 -0.32181 0.216045
0.120716 -0.32178 0.214509
0.124967 -0.322179 0.213818
0.129129 -0.322704 0.210105
0.133679 -0.323087 0.207645
0.137876 -0.324365 0.202489
0.141989 -0.325121 0.196898
0.146871 -0.326408 0.190262
0.151625 -0.327749 0.182721
0.15653 -0.328723 0.176545
0.160999 -0.330387 0.168509
0.165468 -0.331531 0.163515
0.170724 -0.332857 0.155604
0.174964 -0.333727 0.149581
0.179645 -0.334763 0.143197
0.185313 -0.336639 0.134674
0.190621 -0.338137 0.124276
0.195446 -0.340369 0.11352
0.201721 -0.343192 0.0970981
-0.229956 -0.342727 0.0775186
-0.224885 -0.341153 0.0847286
-0.219709 -0.340319 0.0902332
-0.210898 -0.333671 0.126972
-0.206655 -0.333013 0.130021
-0.201694 -0.331844 0.13662
-0.196976 -0.330976 0.141044
-0.192667 -0.330424 0.14549
-0.187388 -0.329121 0.151676
-0.182947 -0.328685 0.155245
-0.17883 -0.328162 0.157943
-0.17433 -0.327271 0.162098
-0.169748 -0.326568 0.166949
-0.165054 -0.326057 0.1703
-0.160279 -0.325649 0.173864
-0.156204 -0.325426 0.175979
-0.152071 -0.324092 0.179395
-0.147421 -0.323482 0.182779
-0.14292 -0.323598 0.184863
-0.138981 -0.322992 0.188085
-0.134476 -0.3226 0.19028
-0.130277 -0.321799 0.19174
-0.126315 -0.321977 0.193022
-0.121967 -0.321142 0.195138
-0.117867 -0.321491 0.195102
-0.113838 -0.321353 0.196673
-0.109867 -0.321316 0.197824
-0.105708 -0.320726 0.199126
-0.101503 -0.320258 0.201857
-0.0976652 -0.320302 0.202233
-0.0931042 -0.319748 0.204465
-0.0891926 -0.319607 0.204938
-0.0853178 -0.319886 0.206465
-0.080633 -0.319457 0.207394
-0.0768804 -0.319254 0.207948
-0.072649 -0.318937 0.208641
-0.068808 -0.318949 0.211192
-0.0646373 -0.318599 0.211716
-0.0608071 -0.318813 0.212744
-0.0565212 -0.318405 0.214143
-0.0522471 -0.318238 0.214119
-0.0485194 -0.317842 0.214843
-0.0443284 -0.317281 0.216872
-0.0397496 -0.317663 0.217984
-0.0358942 -0.317405 0.218215
-0.0319868 -0.317556 0.218248
-0.028406 -0.317526 0.219324
-0.0239123 -0.317024 0.220137
-0.0201761 -0.317148 0.220485
-0.0157814 -0.316698 0.221482
-0.0120457 -0.31663 0.222077
-0.0082536 -0.316623 0.222708
-0.00403357 -0.316718 0.222804
0.000479856 -0.316458 0.223601
0.00399575 -0.316754 0.223137
0.00838501 -0.316693 0.224267
0.0117962 -0.316341 0.223993
0.0158953 -0.31645 0.224797
0.0199227 -0.316739 0.224279
0.0242463 -0.316472 0.224327
0.0278705 -0.316639 0.224225
0.0321815 -0.316352 0.224822
0.0359479 -0.316826 0.224194
0.0402253 -0.31622 0.224852
0.0442335 -0.316407 0.224
0.0477659 -0.316326 0.224832
0.0523137 -0.31641 0.224085
0.0559733 -0.316378 0.224554
0.0598556 -0.316769 0.223078
0.0640459 -0.316296 0.222642
0.068277 -0.316693 0.222805
0.0719394 -0.316479 0.222731
0.0761329 -0.316971 0.222723
0.0803377 -0.317149 0.222325
0.0845713 -0.316844 0.221213
0.0883964 -0.317306 0.220851
0.0923712 -0.317347 0.220222
0.0965909 -0.317 0.219698
0.100274 -0.317173 0.219307
0.104486 -0.317236 0.219286
0.108518 -0.318067 0.216894
0.112156 -0.317548 0.217634
0.116666 -0.317915 0.216072
0.120776 -0.31784 0.215682
0.125086 -0.317901 0.21476
0.128779 -0.318299 0.212627
0.133786 -0.319153 0.20858
0.137951 -0.319776 0.20453
0.142149 -0.320848 0.198851
0.146637 -0.32154 0.192604
0.151671 -0.323078 0.184818
0.156019 -0.324611 0.17705
0.160889 -0.32623 0.168926
0.165592 -0.327359 0.162247
0.170767 -0.329049 0.1535
0.175521 -0.330391 0.146787
0.180568 -0.331602 0.138929
0.185427 -0.332737 0.13119
0.19102 -0.334985 0.11932
0.195943 -0.33702 0.108306
0.202837 -0.34076 0.0880268
-0.230008 -0.338233 0.0772884
-0.224685 -0.336909 0.0843278
-0.2198 -0.336286 0.0883306
-0.211574 -0.329689 0.124794
-0.206555 -0.329119 0.131177
-0.201472 -0.327455 0.13779
-0.196745 -0.326598 0.14253
-0.192143 -0.326122 0.146471
-0.187596 -0.325919 0.150618
-0.183212 -0.325007 0.154097
-0.178317 -0.323719 0.159478
-0.173589 -0.3228 0.163769
-0.169101 -0.322385 0.167523
-0.165259 -0.321929 0.170576
-0.160505 -0.320861 0.174678
-0.155776 -0.320843 0.178375
-0.151784 -0.320317 0.179905
-0.147338 -0.319843 0.182135
-0.143448 -0.319216 0.18498
-0.139162 -0.318635 0.187115
-0.134365 -0.318217 0.190059
-0.130625 -0.317366 0.19203
-0.126026 -0.317523 0.193561
-0.122112 -0.317272 0.195049
-0.117783 -0.316975 0.19708
-0.113773 -0.317158 0.196778
-0.109948 -0.316894 0.199321
-0.105552 -0.316711 0.20142
-0.101355 -0.316714 0.201033
-0.0974817 -0.316092 0.201668
-0.0933237 -0.315582 0.204265
-0.0890689 -0.315616 0.205885
-0.0847881 -0.315283 0.206878
-0.0808 -0.315352 0.207316
-0.077128 -0.315228 0.208163
-0.0726363 -0.314979 0.210279
-0.0686763 -0.314674 0.21073
-0.0643521 -0.314696 0.210558
-0.0605487 -0.314374 0.212087
-0.0564647 -0.314683 0.213021
-0.0522912 -0.313713 0.214532
-0.0481215 -0.313989 0.215987
-0.0444707 -0.31375 0.216365
-0.0396988 -0.313589 0.217022
-0.0363923 -0.313321 0.218328
-0.0321313 -0.313478 0.21888
-0.0278697 -0.31301 0.219664
-0.024192 -0.312855 0.220368
-0.0204184 -0.313497 0.22034
-0.0159581 -0.313223 0.220594
-0.0115149 -0.312339 0.221628
-0.00792836 -0.312499 0.222522
-0.00389789 -0.312362 0.222748
-0.000284126 -0.312629 0.223977
0.00384458 -0.312579 0.223983
0.00792339 -0.312659 0.223636
0.012151 -0.312148 0.224432
0.0160527 -0.312442 0.223672
0.0197879 -0.312129 0.224089
0.0240531 -0.312112 0.22435
0.0280686 -0.312417 0.224324
0.0315802 -0.312508 0.224237
0.0361474 -0.31262 0.223994
0.039846 -0.31232 0.2241
0.0442549 -0.312207 0.223865
0.0482292 -0.312259 0.224275
0.0520599 -0.311833 0.224784
0.056359 -0.312372 0.22361
0.0600121 -0.312357 0.223881
0.064182 -0.312579 0.222927
0.0681082 -0.312412 0.222439
0.0723111 -0.312684 0.221798
0.0760131 -0.312465 0.221494
0.0801903 -0.312819 0.221497
0.0843934 -0.313172 0.220582
0.0880071 -0.312626 0.220767
0.0921929 -0.313262 0.220043
0.0968683 -0.312982 0.220303
0.099929 -0.313397 0.219121
0.104409 -0.313173 0.218664
0.108652 -0.313657 0.218485
0.112302 -0.313606 0.217986
0.116767 -0.31384 0.215593
0.120615 -0.313843 0.215429
0.124928 -0.314159 0.214022
0.129155 -0.31427 0.212055
0.133166 -0.314851 0.210078
0.137563 -0.315529 0.205713
0.142102 -0.316311 0.201023
0.146808 -0.317534 0.195188
0.15099 -0.318912 0.187455
0.156245 -0.32017 0.178497
0.160764 -0.322245 0.169117
0.165757 -0.323718 0.159374
0.171059 -0.325201 0.151044
0.175525 -0.326443 0.144253
0.181162 -0.32813 0.134961
0.185833 -0.32921 0.126613
0.190945 -0.331333 0.116074
0.196399 -0.333702 0.102313
0.203831 -0.337777 0.0779727
-0.229489 -0.334148 0.0770496
-0.224843 -0.332959 0.0831007
-0.216548 -0.326705 0.116884
-0.210927 -0.325357 0.126118
-0.20671 -0.324153 0.131416
-0.20167 -0.323233 0.137758
-0.196759 -0.322637 0.142985
-0.192517 -0.321713 0.147139
-0.187924 -0.321461 0.151693
-0.183006 -0.320449 0.155246
-0.178518 -0.319537 0.159703
-0.174011 -0.318804 0.16381
-0.169661 -0.318269 0.167503
-0.165075 -0.317749 0.17144
-0.160705 -0.316905 0.174931
-0.15651 -0.316779 0.177013
-0.152031 -0.316328 0.1796
-0.147261 -0.315258 0.183816
-0.142873 -0.315509 0.185283
-0.139259 -0.314896 0.187201
-0.134514 -0.314455 0.189984
-0.131138 -0.314006 0.191033
-0.125799 -0.313455 0.19393
-0.122138 -0.313446 0.195188
-0.118046 -0.31303 0.196411
-0.113778 -0.312721 0.197971
-0.1094 -0.312781 0.199258
-0.105607 -0.312716 0.200488
-0.101439 -0.312358 0.201079
-0.0974131 -0.311957 0.202795
-0.092981 -0.311948 0.204438
-0.0888666 -0.31169 0.205202
-0.0847494 -0.311477 0.206752
-0.0807883 -0.311854 0.206802
-0.0764915 -0.310927 0.208598
-0.0726599 -0.311075 0.210182
-0.0687863 -0.311133 0.210304
-0.0646556 -0.3109 0.210955
-0.0603721 -0.310486 0.21255
-0.0565915 -0.310292 0.213463
-0.052573 -0.310168 0.214212
-0.0484173 -0.309795 0.215493
-0.0442439 -0.310024 0.216292
-0.0399108 -0.309296 0.217719
-0.0362478 -0.309743 0.217128
-0.0325476 -0.309474 0.218604
-0.0281339 -0.309215 0.219976
-0.024119 -0.309474 0.219632
-0.0199359 -0.308469 0.221174
-0.0159334 -0.309177 0.221266
-0.0120602 -0.308606 0.222096
-0.00807624 -0.308379 0.223087
-0.0041471 -0.308557 0.224087
0.000121376 -0.308643 0.223082
0.00443827 -0.308406 0.223632
0.00774276 -0.30863 0.223685
0.0122347 -0.308315 0.224058
0.0159385 -0.308651 0.223847
0.0204534 -0.30829 0.223985
0.024254 -0.308215 0.224397
0.0280968 -0.308241 0.225044
0.0321628 -0.308243 0.224328
0.0361161 -0.308372 0.224199
0.040026 -0.30831 0.224908
0.0440601 -0.308713 0.22401
0.0481529 -0.308886 0.223871
0.0521735 -0.308259 0.224478
0.0556915 -0.308422 0.22403
0.060013 -0.308342 0.222837
0.0637446 -0.308635 0.222785
0.0680408 -0.308817 0.223479
0.0721513 -0.308978 0.222479
0.0764253 -0.308606 0.221567
0.0803244 -0.308919 0.221143
0.084442 -0.308593 0.220979
0.0879956 -0.309037 0.219639
0.0920669 -0.309382 0.220375
0.0957974 -0.309405 0.219828
0.100543 -0.309604 0.218014
0.104574 -0.309348 0.217758
0.108487 -0.309279 0.21816
0.112587 -0.309658 0.216312
0.116595 -0.30929 0.217087
0.120939 -0.309896 0.215739
0.12489 -0.309532 0.214957
0.129308 -0.310246 0.212521
0.133123 -0.310506 0.211639
0.136914 -0.311062 0.208908
0.141643 -0.312065 0.202564
0.146064 -0.313102 0.197714
0.150685 -0.314228 0.190709
0.155996 -0.316235 0.180949
0.160874 -0.317789 0.170795
0.166371 -0.319881 0.157299
0.170877 -0.320858 0.150241
0.176496 -0.322935 0.140367
0.180935 -0.324318 0.133251
0.186405 -0.326067 0.121691
0.191533 -0.328341 0.110288
0.197767 -0.330981 0.0945759
0.205306 -0.336227 0.0634701
-0.230268 -0.330264 0.074147
-0.224502 -0.328734 0.083133
-0.21629 -0.322306 0.11811
-0.210691 -0.321219 0.128061
-0.206025 -0.319585 0.133853
-0.201825 -0.318924 0.138379
-0.197226 -0.318325 0.143278
-0.192336 -0.317788 0.147915
-0.18743 -0.31677 0.152846
-0.183098 -0.316113 0.156285
-0.178028 -0.315269 0.161163
-0.173306 -0.314423 0.164726
-0.169389 -0.313969 0.168755
-0.164602 -0.313243 0.17208
-0.160887 -0.312841 0.174521
-0.156193 -0.31213 0.177672
-0.151786 -0.31159 0.180723
-0.14765 -0.311827 0.18349
-0.143266 -0.310609 0.186333
-0.138778 -0.310693 0.188318
-0.134872 -0.310807 0.18963
-0.130468 -0.310115 0.192045
-0.126335 -0.309417 0.194543
-0.122402 -0.30921 0.194557
-0.117613 -0.308867 0.197169
-0.113669 -0.308722 0.198182
-0.109275 -0.308618 0.200095
-0.105722 -0.308265 0.20085
-0.1017 -0.308401 0.2016
-0.0971191 -0.30799 0.20326
-0.0936215 -0.307921 0.203567
-0.0891472 -0.307771 0.205984
-0.085392 -0.307754 0.206137
-0.0805397 -0.307073 0.207701
-0.0767079 -0.307198 0.208316
-0.0726472 -0.306855 0.209754
-0.0686231 -0.306462 0.211633
-0.0643488 -0.30631 0.21119
-0.0602972 -0.306439 0.21107
-0.0564235 -0.30655 0.213563
-0.0526226 -0.305773 0.214501
-0.0483748 -0.306049 0.214235
-0.0440997 -0.305768 0.215729
-0.0401868 -0.305566 0.216965
-0.036393 -0.305629 0.217095
-0.0322069 -0.305287 0.218775
-0.0278776 -0.305302 0.219625
-0.0241149 -0.304934 0.220464
-0.0203118 -0.305217 0.220196
-0.0161708 -0.305047 0.220973
-0.0122829 -0.30487 0.221357
-0.00790448 -0.30473 0.22184
-0.00406342 -0.30464 0.223277
-0.000262212 -0.304644 0.223268
0.0037763 -0.304459 0.222838
0.00779259 -0.304328 0.223862
0.0119844 -0.304476 0.223089
0.016259 -0.304269 0.223925
0.020059 -0.304305 0.224919
0.0237672 -0.304417 0.224031
0.0282679 -0.304827 0.224118
0.031717 -0.304419 0.224127
0.0362567 -0.304355 0.224117
0.0397737 -0.304724 0.224484
0.0440498 -0.304446 0.224919
0.0480925 -0.30449 0.223898
0.0518985 -0.304669 0.224065
0.0559703 -0.304798 0.222915
0.0599484 -0.304792 0.221959
0.0641225 -0.30451 0.222828
0.0682561 -0.304993 0.222664
0.0719434 -0.304692 0.221187
0.0759686 -0.304736 0.221594
0.0803729 -0.304397 0.221421
0.0843921 -0.304985 0.220413
0.0877933 -0.304764 0.22136
0.0926211 -0.305448 0.219076
0.0966823 -0.305443 0.219396
0.100442 -0.304841 0.219661
0.104361 -0.305738 0.218409
0.108495 -0.305478 0.217581
0.112703 -0.305455 0.217285
0.116584 -0.30543 0.216425
0.12086 -0.305329 0.216342
0.125107 -0.306478 0.213753
0.128934 -0.306727 0.212876
0.133212 -0.306496 0.212103
0.136765 -0.306363 0.210686
0.141905 -0.307876 0.20489
0.146116 -0.30863 0.200008
0.150817 -0.310088 0.192089
0.155928 -0.31122 0.183956
0.160396 -0.312584 0.174224
0.166243 -0.315639 0.15772
0.17142 -0.317931 0.146438
0.176756 -0.319063 0.137803
0.181332 -0.320787 0.127881
0.186828 -0.322752 0.117834
0.192725 -0.325049 0.10333
0.198336 -0.327711 0.0871533
-0.230945 -0.326584 0.0713493
-0.225094 -0.324668 0.0808301
-0.216332 -0.318225 0.118531
-0.21135 -0.316768 0.12668
-0.205851 -0.315413 0.134241
-0.20121 -0.314254 0.140889
-0.196422 -0.314064 0.145664
-0.192 -0.312949 0.15028
-0.187284 -0.312519 0.1539
-0.182915 -0.31222 0.158005
-0.178331 -0.310908 0.162171
-0.173903 -0.310185 0.165715
-0.169482 -0.309629 0.168888
-0.165164 -0.309168 0.171878
-0.160338 -0.308292 0.175717
-0.156086 -0.308453 0.178195
-0.151862 -0.307709 0.180596
-0.147149 -0.306893 0.184849
-0.143039 -0.306886 0.186138
-0.138927 -0.306288 0.188465
-0.13483 -0.305901 0.190261
-0.13069 -0.305722 0.192466
-0.126212 -0.305527 0.194312
-0.121918 -0.305334 0.196078
-0.117925 -0.305038 0.197276
-0.113582 -0.304643 0.198562
-0.109828 -0.304685 0.199031
-0.105637 -0.304129 0.201648
-0.101421 -0.303589 0.202065
-0.0970656 -0.303805 0.203315
-0.0929373 -0.303546 0.204889
-0.0892212 -0.303463 0.205838
-0.0851148 -0.303448 0.206607
-0.080781 -0.303222 0.208736
-0.0763846 -0.30276 0.208881
-0.0725668 -0.302759 0.209911
-0.0682188 -0.30285 0.210595
-0.0646997 -0.302496 0.212041
-0.0601567 -0.302195 0.212767
-0.0561784 -0.302206 0.213542
-0.0522331 -0.301932 0.214168
-0.0483877 -0.301946 0.215109
-0.0446075 -0.301717 0.216845
-0.040442 -0.301678 0.2165
-0.0364122 -0.301861 0.216842
-0.0320664 -0.301278 0.218167
-0.0280196 -0.300977 0.220175
-0.0243704 -0.30107 0.219965
-0.0200884 -0.3011 0.219838
-0.0163782 -0.301007 0.220793
-0.0124468 -0.301 0.221269
-0.00832901 -0.300868 0.222123
-0.00378642 -0.300516 0.222662
-8.19997e-05 -0.300817 0.222574
0.00448514 -0.300879 0.223437
0.00821861 -0.300525 0.223401
0.0117679 -0.300714 0.223821
0.0161116 -0.300376 0.223246
0.0200395 -0.300535 0.224002
0.0241369 -0.300249 0.224603
0.0278025 -0.300305 0.224054
0.0319081 -0.300175 0.223832
0.0367497 -0.300614 0.222717
0.0398909 -0.300655 0.2236
0.0442197 -0.300363 0.223587
0.0481374 -0.300416 0.222359
0.0519978 -0.300454 0.22306
0.0561966 -0.300558 0.223469
0.0599277 -0.3006 0.221634
0.064349 -0.300795 0.222471
0.0683332 -0.30082 0.222501
0.0722789 -0.300938 0.220764
0.076718 -0.300872 0.221511
0.0801284 -0.300953 0.220719
0.0841315 -0.301441 0.220723
0.087996 -0.301127 0.220236
0.0927099 -0.301064 0.219942
0.0962559 -0.301251 0.220262
0.100093 -0.301343 0.218707
0.104623 -0.301625 0.218267
0.108377 -0.301117 0.218613
0.112048 -0.300937 0.217278
0.116729 -0.301358 0.216265
0.120708 -0.301682 0.216902
0.124887 -0.301997 0.214746
0.128762 -0.301628 0.214381
0.133013 -0.302161 0.212686
0.13679 -0.302611 0.211648
0.141563 -0.30369 0.206835
0.145994 -0.30381 0.202025
0.150685 -0.305 0.19568
0.155032 -0.306569 0.18806
0.160479 -0.308609 0.176543
0.165625 -0.310301 0.161354
0.171471 -0.313427 0.147148
0.17691 -0.315492 0.135032
0.181933 -0.317649 0.123807
0.187145 -0.318954 0.112343
0.193698 -0.322056 0.0959616
0.199207 -0.324892 0.0794901
-0.231226 -0.32269 0.0682039
-0.22515 -0.320696 0.0790868
-0.216325 -0.313401 0.120244
-0.211314 -0.312483 0.127816
-0.205977 -0.310946 0.134921
-0.201616 -0.310437 0.139907
-0.196525 -0.309299 0.145351
-0.191835 -0.308859 0.149876
-0.187713 -0.308293 0.154178
-0.182402 -0.307059 0.159125
-0.178068 -0.306669 0.16297
-0.173475 -0.305866 0.165693
-0.169342 -0.305493 0.170007
-0.165147 -0.305089 0.171533
-0.160572 -0.303878 0.176672
-0.156114 -0.304038 0.178875
-0.151732 -0.303452 0.180946
-0.147284 -0.303137 0.184433
-0.14299 -0.302629 0.18654
-0.138861 -0.302267 0.189216
-0.134647 -0.301344 0.191219
-0.130088 -0.301444 0.193469
-0.125843 -0.301537 0.194872
-0.122221 -0.301287 0.195569
-0.117944 -0.300539 0.197069
-0.114084 -0.300778 0.197617
-0.109494 -0.300119 0.199879
-0.105342 -0.300272 0.201058
-0.101274 -0.300129 0.202211
-0.0971755 -0.299919 0.203188
-0.0930395 -0.299679 0.204016
-0.0891259 -0.299473 0.205785
-0.0849405 -0.299062 0.20756
-0.0805805 -0.299074 0.207877
-0.0769992 -0.29846 0.209484
-0.0727829 -0.298403 0.210267
-0.068777 -0.298386 0.211024
-0.0648216 -0.298479 0.212406
-0.0606789 -0.298233 0.211988
-0.0563002 -0.297796 0.213381
-0.0522072 -0.297817 0.214783
-0.0483582 -0.297813 0.21565
-0.0442162 -0.298049 0.215988
-0.0402665 -0.297473 0.217126
-0.036175 -0.297846 0.217144
-0.0323363 -0.297424 0.218194
-0.0275305 -0.297288 0.218793
-0.0242476 -0.297107 0.220112
-0.0202272 -0.297077 0.219819
-0.0164412 -0.297035 0.220674
-0.0119815 -0.296932 0.221128
-0.00768683 -0.296813 0.222123
-0.00397721 -0.296506 0.221767
5.33957e-05 -0.296881 0.222558
0.00411151 -0.296198 0.223362
0.00803129 -0.29664 0.222158
0.0119791 -0.296785 0.222805
0.0157315 -0.296262 0.222926
0.0200945 -0.296582 0.224249
0.0240468 -0.296676 0.222863
0.0282165 -0.29692 0.22333
0.0316369 -0.296651 0.224286
0.0362847 -0.296864 0.223388
0.0398298 -0.296572 0.223455
0.0439925 -0.29672 0.222464
0.0482535 -0.296681 0.222898
0.0520131 -0.296764 0.222783
0.0563025 -0.297033 0.222378
0.0603077 -0.297057 0.221689
0.0642073 -0.297009 0.221692
0.0677785 -0.297008 0.221287
0.072182 -0.296934 0.220904
0.0761858 -0.29694 0.21947
0.0799846 -0.297284 0.220219
0.0840864 -0.297365 0.220647
0.0886897 -0.297032 0.220157
0.0922594 -0.297356 0.219557
0.0968102 -0.29728 0.21812
0.100322 -0.297151 0.218307
0.104441 -0.297313 0.218261
0.108367 -0.297098 0.218162
0.112795 -0.297172 0.216956
0.116484 -0.297758 0.216217
0.120828 -0.297434 0.215994
0.125267 -0.298012 0.215517
0.129041 -0.298207 0.213776
0.13288 -0.298106 0.213038
0.137184 -0.298589 0.210752
0.141385 -0.299101 0.207772
0.146235 -0.299858 0.203468
0.150268 -0.300726 0.198551
0.15508 -0.301926 0.19049
0.159567 -0.303436 0.181727
0.16546 -0.305817 0.164796
0.171093 -0.309635 0.147141
0.177573 -0.311826 0.130075
0.181903 -0.313516 0.120474
0.188415 -0.316119 0.105171
0.193369 -0.318265 0.0917598
0.200729 -0.322493 0.0669701
-0.231906 -0.319003 0.0627043
-0.225742 -0.316978 0.0763035
-0.215598 -0.309343 0.121486
-0.210872 -0.308189 0.129028
-0.205833 -0.307024 0.135574
-0.201014 -0.306141 0.141148
-0.196662 -0.305068 0.146576
-0.191837 -0.304587 0.151171
-0.187001 -0.303456 0.155471
-0.182992 -0.303005 0.158423
-0.178027 -0.302328 0.162257
-0.173336 -0.301476 0.167101
-0.169026 -0.301083 0.169828
-0.164869 -0.300826 0.172758
-0.160594 -0.300582 0.175559
-0.156292 -0.300118 0.178158
-0.15165 -0.299236 0.181857
-0.148087 -0.298863 0.183246
-0.143271 -0.298901 0.186438
-0.138802 -0.298098 0.189565
-0.134274 -0.29778 0.191291
-0.130166 -0.297385 0.193175
-0.1262 -0.297061 0.193966
-0.122966 -0.297609 0.194806
-0.117577 -0.296968 0.195905
-0.113857 -0.297095 0.198182
-0.109897 -0.296243 0.19945
-0.105451 -0.296122 0.200786
-0.101186 -0.29611 0.20237
-0.0971116 -0.295593 0.203395
-0.0931196 -0.295711 0.204115
-0.0884996 -0.295715 0.206123
-0.0848159 -0.294923 0.207014
-0.0808553 -0.294989 0.207426
-0.0768228 -0.294739 0.208611
-0.0726832 -0.294791 0.209398
-0.0683385 -0.294883 0.210299
-0.0645677 -0.294183 0.211713
-0.060406 -0.294146 0.21248
-0.0560668 -0.294748 0.212844
-0.0521171 -0.293873 0.213415
-0.0485044 -0.294067 0.214942
-0.044288 -0.293764 0.215382
-0.0399285 -0.293629 0.21581
-0.036137 -0.293744 0.217301
-0.0321839 -0.293596 0.217885
-0.0277489 -0.293042 0.219476
-0.0245526 -0.293389 0.219047
-0.0198059 -0.29297 0.2198
-0.0160528 -0.292689 0.220213
-0.0121404 -0.293114 0.221173
-0.00833152 -0.292856 0.222355
-0.00403772 -0.293087 0.221348
-0.000107852 -0.292371 0.222533
0.00402577 -0.292669 0.222227
0.00805442 -0.29288 0.222713
0.0120974 -0.292982 0.223101
0.0160732 -0.292445 0.223157
0.0198669 -0.292642 0.22278
0.0237752 -0.292795 0.223403
0.0282283 -0.292715 0.223147
0.0321555 -0.29212 0.223056
0.0362091 -0.292886 0.222421
0.0402848 -0.292516 0.222702
0.0439949 -0.292409 0.223618
0.0482038 -0.292404 0.222385
0.0520341 -0.29274 0.221734
0.0565755 -0.293085 0.221705
0.0602127 -0.293099 0.221732
0.0641311 -0.292921 0.221372
0.0679704 -0.292849 0.220687
0.072285 -0.292913 0.220536
0.0762995 -0.292884 0.220303
0.0797935 -0.293034 0.219864
0.0843272 -0.292797 0.220618
0.0888164 -0.293075 0.218484
0.0926863 -0.293452 0.218713
0.0964706 -0.292881 0.22021
0.100465 -0.293258 0.217827
0.104361 -0.293041 0.217022
0.108348 -0.293623 0.217668
0.112336 -0.293485 0.217451
0.116528 -0.293746 0.215752
0.120509 -0.293973 0.215292
0.125142 -0.294162 0.215225
0.12913 -0.294154 0.214238
0.133159 -0.294253 0.213722
0.13713 -0.294115 0.212625
0.14136 -0.29462 0.208807
0.145854 -0.295321 0.205425
0.150682 -0.296458 0.198915
0.154947 -0.297462 0.192892
0.159633 -0.298841 0.184537
0.164887 -0.301016 0.171081
0.171859 -0.305474 0.144783
0.177342 -0.308139 0.127939
0.182774 -0.310367 0.115499
0.187795 -0.312518 0.103343
0.194991 -0.315753 0.0820824
0.202649 -0.321616 0.0453424
-0.231748 -0.315123 0.0606331
-0.221144 -0.306967 0.111575
-0.216343 -0.305037 0.121391
-0.210827 -0.303934 0.129491
-0.205918 -0.302699 0.135382
-0.201082 -0.301562 0.140941
-0.196252 -0.300878 0.14644
-0.191744 -0.300093 0.152024
-0.187337 -0.299625 0.154818
-0.182875 -0.298809 0.159298
-0.178488 -0.298652 0.162244
-0.173721 -0.29738 0.166566
-0.169457 -0.297162 0.169423
-0.164589 -0.296887 0.172504
-0.16066 -0.296136 0.17535
-0.155963 -0.296104 0.177572
-0.152068 -0.295405 0.181399
-0.147139 -0.294941 0.184227
-0.143575 -0.294602 0.185555
-0.138969 -0.294409 0.188964
-0.13495 -0.293895 0.190593
-0.130831 -0.293872 0.19114
-0.12602 -0.293341 0.19367
-0.122087 -0.293172 0.195706
-0.118231 -0.293002 0.197208
-0.113605 -0.29247 0.19882
-0.109615 -0.292287 0.199145
-0.105549 -0.291713 0.201404
-0.101506 -0.292201 0.201521
-0.0975175 -0.291452 0.203008
-0.093213 -0.291892 0.204431
-0.0888058 -0.291274 0.205948
-0.0848914 -0.290896 0.20745
-0.0808812 -0.291039 0.207876
-0.0762872 -0.290694 0.208063
-0.0726142 -0.290727 0.209537
-0.068682 -0.290366 0.210465
-0.0645061 -0.290351 0.211015
-0.0605795 -0.290139 0.211505
-0.0567488 -0.290032 0.212655
-0.0522698 -0.290447 0.213
-0.0485213 -0.290004 0.214162
-0.0442826 -0.289679 0.215728
-0.0401948 -0.289461 0.216725
-0.0359462 -0.289363 0.217529
-0.0321019 -0.289228 0.217177
-0.0283322 -0.289588 0.218531
-0.0241576 -0.289251 0.218503
-0.019993 -0.288768 0.220584
-0.0157869 -0.289443 0.219761
-0.0122264 -0.289138 0.220851
-0.00821652 -0.288919 0.221194
-0.00379272 -0.288736 0.221196
-0.000260454 -0.288543 0.222253
0.00398664 -0.288292 0.223417
0.00824495 -0.288837 0.222927
0.0120189 -0.288291 0.223156
0.0159051 -0.288704 0.223273
0.0201108 -0.288593 0.223518
0.0240069 -0.288395 0.222804
0.0278794 -0.288489 0.222469
0.0321387 -0.288477 0.222932
0.0361035 -0.288733 0.222891
0.0402885 -0.288614 0.222082
0.0439819 -0.288758 0.222097
0.0485068 -0.288453 0.221454
0.0523908 -0.288825 0.221267
0.0559577 -0.288775 0.22127
0.059928 -0.288592 0.220393
0.0643678 -0.28871 0.220762
0.0682087 -0.288834 0.220684
0.0722319 -0.288665 0.220677
0.0761977 -0.289007 0.219881
0.0803422 -0.289245 0.219899
0.0843637 -0.289042 0.219346
0.0881435 -0.28916 0.218748
0.0922338 -0.289221 0.218999
0.0965039 -0.289416 0.218175
0.1003 -0.28916 0.21815
0.10435 -0.289397 0.218297
0.108481 -0.289715 0.217334
0.112526 -0.289639 0.217619
0.116343 -0.289627 0.216602
0.120647 -0.289844 0.216057
0.125228 -0.290095 0.214814
0.128928 -0.289521 0.214917
0.133117 -0.290349 0.213317
0.136833 -0.290298 0.21228
0.141135 -0.290319 0.210266
0.145314 -0.290836 0.207579
0.150147 -0.291922 0.201468
0.154939 -0.293367 0.194925
0.159368 -0.294417 0.187352
0.164504 -0.295774 0.177114
0.170935 -0.299792 0.153657
0.177005 -0.30384 0.126806
0.18304 -0.306765 0.112154
0.188997 -0.309298 0.0950674
0.195201 -0.312435 0.0753496
-0.232861 -0.311607 0.0524255
-0.221088 -0.3019 0.113641
-0.216014 -0.301054 0.122652
-0.210699 -0.299465 0.129786
-0.205719 -0.298647 0.136005
-0.20139 -0.297769 0.141026
-0.196542 -0.296519 0.146809
-0.191854 -0.295869 0.151622
-0.187343 -0.295568 0.154821
-0.182638 -0.2949 0.159107
-0.178338 -0.294185 0.162922
-0.17375 -0.293556 0.166883
-0.169375 -0.293013 0.169091
-0.165115 -0.29287 0.171908
-0.160269 -0.292489 0.174264
-0.155938 -0.291857 0.178138
-0.15172 -0.291197 0.181396
-0.147459 -0.290827 0.183252
-0.14296 -0.290366 0.186302
-0.138652 -0.290112 0.187816
-0.134892 -0.290005 0.189729
-0.130366 -0.289723 0.191163
-0.12661 -0.289096 0.1941
-0.121922 -0.288937 0.195291
-0.117774 -0.28855 0.197587
-0.113924 -0.288438 0.198599
-0.109699 -0.288523 0.198803
-0.105152 -0.288038 0.200326
-0.101825 -0.287974 0.202075
-0.0973455 -0.287648 0.203066
-0.0932238 -0.287643 0.203984
-0.0889585 -0.287316 0.205058
-0.0853719 -0.287193 0.206115
